ply
format ascii 1.0
comment PCL generated
element vertex 240
property float x
property float y
property float z
element camera 1
property float view_px
property float view_py
property float view_pz
property float x_axisx
property float x_axisy
property float x_axisz
property float y_axisx
property float y_axisy
property float y_axisz
property float z_axisx
property float z_axisy
property float z_axisz
property float focal
property float scalex
property float scaley
property float centerx
property float centery
property int viewportx
property int viewporty
property float k1
property float k2
end_header
-0.026596261 0.034083262 0.14778255
-0.026495788 0.031697907 0.14786248
-0.026204744 0.029277561 0.14931537
-0.026109355 0.02672779 0.15026253
-0.026100958 0.023891909 0.15229625
-0.027004847 0.020233823 0.15490897
-0.030299058 0.015270788 0.15767065
-0.030696476 0.012474488 0.1590132
-0.030614244 0.0095824441 0.15982236
-0.030367346 0.0066131814 0.16032623
-0.030645294 0.0034912035 0.1613708
-0.031033587 0.00063112169 0.16294052
-0.031064574 -0.0019954254 0.16360213
-0.024374209 0.034048986 0.14696366
-0.023950553 0.03152081 0.14757505
-0.023563692 0.029109946 0.14825867
-0.023494445 0.026685251 0.14966264
-0.023324085 0.024256609 0.15111724
-0.024089335 0.020741129 0.15300468
-0.025068404 0.016548779 0.15656775
-0.026103843 0.013446175 0.15781312
-0.026636293 0.010419198 0.15922102
-0.027032031 0.0074081952 0.15985775
-0.027113918 0.004407695 0.16123298
-0.027978862 0.0011311347 0.16290922
-0.028434347 -0.0018108082 0.16480999
-0.026829502 -0.0046342704 0.1660884
-0.021447524 0.034086093 0.14648379
-0.020737404 0.031617317 0.14777219
-0.020741088 0.029248059 0.14822955
-0.020740768 0.026735187 0.1497585
-0.020876398 0.0240677 0.15099721
-0.02156812 0.020687575 0.15406694
-0.022544792 0.016875142 0.15684639
-0.02286147 0.01377931 0.15768002
-0.023213701 0.010982054 0.15867807
-0.024240796 0.0078877099 0.16025034
-0.024509974 0.0045564952 0.16341311
-0.024604248 0.0016177384 0.16489521
-0.024706347 -0.0015995927 0.16673578
-0.02402965 -0.0041345134 0.16747497
-0.02327616 -0.0068455855 0.16824143
-0.01744795 0.033986859 0.1473269
-0.01785537 0.031722777 0.14828363
-0.018048821 0.029282385 0.1484419
-0.018344946 0.027055955 0.15054336
-0.018375229 0.024146173 0.15092318
-0.018768847 0.021190057 0.15370397
-0.020153586 0.017439993 0.15790053
-0.020151598 0.01448121 0.15839764
-0.020580595 0.011460888 0.16022058
-0.021694172 0.0074750083 0.16319744
-0.022426426 0.0046845791 0.16504699
-0.02228231 0.0022033013 0.16648345
-0.022320412 -0.00050170807 0.16793944
-0.021816527 -0.0030879057 0.16846514
-0.021129945 -0.0057831071 0.16992761
-0.014692017 0.034208365 0.14792472
-0.015166124 0.031810336 0.14857192
-0.015235285 0.029561033 0.14846876
-0.015809853 0.026829423 0.15083486
-0.01593953 0.024059039 0.15196906
-0.016283439 0.021282732 0.15427034
-0.017565932 0.017902952 0.1591637
-0.017629622 0.014942303 0.15961698
-0.01796164 0.012375592 0.16166967
-0.01900233 0.0087879179 0.16493081
-0.019456182 0.0056980285 0.16594844
-0.019732824 0.0028421138 0.16811429
-0.019752875 0.00041290338 0.16864564
-0.019321362 -0.002376982 0.16963559
-0.018198466 -0.004858857 0.17036618
-0.012278319 0.03442096 0.1482417
-0.012513983 0.032018159 0.1490355
-0.012807639 0.029226787 0.14984906
-0.013176877 0.026624568 0.15131441
-0.013450008 0.024048008 0.15266301
-0.01367243 0.021526255 0.15439533
-0.014570586 0.018598029 0.158545
-0.014954267 0.015441611 0.16017963
-0.015196119 0.012851562 0.16279267
-0.016514352 0.0092479819 0.16592854
-0.017569777 0.0057124654 0.16703133
-0.017861776 0.0030702809 0.16826399
-0.01723255 0.00094316289 0.16957532
-0.017049344 -0.0017206321 0.16981789
-0.015222159 -0.0044667209 0.16989614
-0.0097799907 0.034520991 0.14796987
-0.0099935317 0.032321107 0.14914064
-0.010291846 0.029072955 0.1509041
-0.01070059 0.026536686 0.15210135
-0.010682803 0.024236266 0.15344173
-0.010856676 0.021765543 0.15591678
-0.010756304 0.019497352 0.15858002
-0.011596945 0.01608382 0.15962435
-0.011678288 0.013616397 0.16349886
-0.013183051 0.010622506 0.16702138
-0.015315037 0.0060380925 0.16673249
-0.015084176 0.0035922343 0.16804385
-0.014525376 0.0013149281 0.16927375
-0.013924885 -0.00089724088 0.16983311
-0.012752311 -0.0037272573 0.16969994
-0.0073073707 0.034542192 0.1478173
-0.0076230946 0.032071579 0.14939195
-0.0078124092 0.029018262 0.15148011
-0.0076752855 0.026402425 0.15213633
-0.0075696027 0.024129098 0.15334067
-0.0075937631 0.021942316 0.15746541
-0.0075858296 0.019571342 0.1598798
-0.0074923486 0.017205177 0.16103818
-0.0077470569 0.014277011 0.16376813
-0.0079937931 0.011954623 0.16812673
-0.010462791 0.0069059734 0.16838433
-0.011872444 0.0040738815 0.16936415
-0.011301464 0.0018365072 0.17004263
-0.010740287 -0.00036670882 0.16989163
-0.01053893 -0.002321616 0.170655
-0.0047088587 0.034051307 0.14738442
-0.005077505 0.03150446 0.14941904
-0.005198712 0.028516674 0.15129943
-0.0049305069 0.026392864 0.15297045
-0.0049441108 0.024160899 0.15475167
-0.0048911343 0.022101855 0.15935694
-0.0049897488 0.020106116 0.16096506
-0.0051985565 0.017630912 0.1623892
-0.0050902413 0.014701757 0.16512498
-0.0049933856 0.011704 0.16917782
-0.0052068694 0.0076077795 0.16994259
-0.0073009632 0.0047386917 0.1711286
-0.008272036 0.0018720176 0.17045921
-0.0081441486 -1.8250401e-05 0.16992274
-0.0055888537 -0.0044241683 0.17370541
-0.0022136921 0.033791993 0.14752522
-0.0025858737 0.031214077 0.14862433
-0.0020454004 0.028170764 0.15063161
-0.0020584902 0.02598626 0.15255803
-0.002023085 0.024136994 0.15508825
-0.0022987325 0.022214741 0.15981573
-0.0023208535 0.020441618 0.16162755
-0.0025415602 0.017867841 0.16379519
-0.0023517346 0.015105807 0.16631953
-0.0016292161 0.011310482 0.17010763
-0.0022939411 0.0082152672 0.17073999
-0.0023777459 0.0053973529 0.17278011
-0.0035684495 0.0029179209 0.17324348
-0.0030273839 -6.9721558e-05 0.17382887
-0.0014695689 -0.0046356842 0.1771746
0.00039600665 0.032729052 0.14809716
0.00089442148 0.030704735 0.14939487
0.00058957579 0.028136844 0.15140972
0.001166465 0.026246211 0.15393551
0.0011025311 0.024020018 0.15676235
0.00062115362 0.022187922 0.15943617
0.00036450516 0.020756125 0.16218148
6.7733963e-05 0.018138006 0.1646394
0.00015336573 0.015480999 0.16674384
0.0014428669 0.011475378 0.17009228
0.00097425561 0.0084333252 0.17120574
0.00084290665 0.0057005449 0.17282072
0.00035553993 0.0031413909 0.17399395
0.00058866019 0.00013069296 0.1761367
0.00086015469 -0.0033034454 0.17755978
0.0029135279 0.03344119 0.1483402
0.0031718931 0.031214122 0.15001069
0.0034365994 0.02895819 0.15179211
0.004140981 0.026268488 0.15478142
0.004071827 0.024441086 0.15682754
0.0035951792 0.022606025 0.15885612
0.0032017163 0.020640533 0.16065674
0.0029447335 0.018017944 0.16446619
0.0027765085 0.015613368 0.1670929
0.004519539 0.011553628 0.16980274
0.0044480595 0.0083493255 0.17105184
0.0039506336 0.0060388781 0.17203516
0.004102089 0.0033931462 0.17372242
0.0033343777 0.00081067305 0.17657121
0.0038016001 -0.0021264208 0.17796987
0.0056372196 0.033819679 0.14789473
0.0058075492 0.03175202 0.14986315
0.0058520357 0.029619232 0.15165651
0.0065565254 0.026351489 0.1550068
0.0063958978 0.024640607 0.15758544
0.0059793908 0.022876266 0.15956452
0.0060357628 0.020809235 0.16160427
0.005717881 0.018427251 0.16333364
0.0067507001 0.014894043 0.16717061
0.0071091186 0.011927583 0.17014165
0.0073207081 0.0089432141 0.17049387
0.0070395619 0.0065031792 0.17251293
0.0064596212 0.0042590834 0.17497599
0.006163951 0.0011320288 0.17800841
0.0062807957 -0.0015133959 0.17977548
0.0080056004 0.034259539 0.14838788
0.0081302086 0.032243554 0.15051828
0.0085330503 0.03008765 0.15146284
0.0091020549 0.027250245 0.15691093
0.0084961941 0.025360042 0.15934579
0.0082336897 0.023265397 0.16040848
0.0080957878 0.021034302 0.1621512
0.010011117 0.017289925 0.16664948
0.0098142494 0.014802843 0.16822247
0.0096743228 0.01209396 0.17000286
0.010154797 0.0095473845 0.17056069
0.0099776397 0.0072023566 0.17244567
0.0090846783 0.0044226316 0.176081
0.0099957725 0.00052406039 0.17985934
0.0098224422 -0.0017461849 0.18125054
0.010538488 0.034628812 0.14829338
0.0108082 0.032659959 0.14961785
0.010958554 0.030470347 0.15193734
0.011272831 0.027913701 0.15800676
0.010981434 0.025501227 0.15985371
0.010862255 0.023324287 0.16071419
0.010230025 0.020989448 0.16301847
0.012128113 0.017577305 0.16713454
0.012094747 0.015129967 0.16870622
0.012241983 0.012590635 0.16961993
0.012823882 0.009978475 0.17054422
0.012592244 0.0075564268 0.17287385
0.012017883 0.0043222527 0.17687164
0.013856517 0.00047790544 0.17896913
0.013070612 0.035053439 0.14763162
0.013451869 0.032929011 0.14917785
0.013712225 0.030323345 0.15456526
0.014220244 0.027699282 0.15919642
0.013888527 0.025753679 0.16063891
0.013666535 0.023799587 0.16209948
0.012826223 0.021395819 0.16538459
0.014246785 0.018146036 0.16752535
0.014254713 0.015709404 0.16902986
0.014347894 0.013278412 0.17006846
0.015288692 0.010517329 0.1709763
0.014714608 0.0077864528 0.17318612
0.014846629 0.0048296759 0.17593446
0.016031012 0.0010194076 0.17664519
0.016547207 -0.0016367203 0.1783396
0.015307012 0.035209395 0.14734066
0.016259514 0.032821734 0.14940402
0.016739449 0.028700579 0.15581588
0.016050633 0.026196439 0.16133508
0 0 0 1 0 0 0 1 0 0 0 1 0 0 0 0 0 240 1 0 0
