ply
format ascii 1.0
comment PCL generated
element vertex 240
property float x
property float y
property float z
element camera 1
property float view_px
property float view_py
property float view_pz
property float x_axisx
property float x_axisy
property float x_axisz
property float y_axisx
property float y_axisy
property float y_axisz
property float z_axisx
property float z_axisy
property float z_axisz
property float focal
property float scalex
property float scaley
property float centerx
property float centery
property int viewportx
property int viewporty
property float k1
property float k2
end_header
-0.026636316 0.034225367 0.14792098
-0.026517106 0.031810082 0.14800936
-0.026296489 0.029381061 0.14953022
-0.026219446 0.026877731 0.1506485
-0.026232349 0.024232058 0.1532221
-0.027093543 0.020502802 0.15586561
-0.030369218 0.015415868 0.1583643
-0.03073593 0.012532765 0.15951173
-0.030666715 0.0096029015 0.16010927
-0.030373722 0.0066433516 0.16022059
-0.030522561 0.0034131417 0.16083373
-0.030863801 0.00044639091 0.16221787
-0.030900637 -0.0021843719 0.16283026
-0.024359835 0.034237526 0.14725938
-0.02395137 0.031650964 0.14788112
-0.023599515 0.029222947 0.14860886
-0.023581879 0.026859373 0.15015997
-0.023462003 0.024545003 0.15192765
-0.024256334 0.021040587 0.15384172
-0.025169868 0.016701438 0.15723395
-0.026206324 0.013593518 0.15834735
-0.026726661 0.010510511 0.15959242
-0.027115155 0.0075569921 0.15997219
-0.027093641 0.0045162607 0.16086978
-0.027819447 0.00098853989 0.16221547
-0.028299956 -0.0020154228 0.16410352
-0.026891347 -0.0048551024 0.16558051
-0.021415249 0.034334991 0.1469965
-0.020777022 0.031810213 0.14822315
-0.02076962 0.029437561 0.14872408
-0.020824488 0.02696453 0.15034293
-0.021018161 0.024298793 0.15170188
-0.021692613 0.020894891 0.15479386
-0.022629941 0.016954789 0.15739393
-0.02299666 0.013866527 0.15818417
-0.023346519 0.011061571 0.15906323
-0.024347411 0.0080226455 0.16044562
-0.024447054 0.0044181035 0.16299523
-0.024553113 0.0012635284 0.16411756
-0.024694052 -0.0018875271 0.16599731
-0.023970505 -0.0044944873 0.16640626
-0.023140967 -0.0072659054 0.16683538
-0.017536834 0.03428356 0.14812458
-0.017943673 0.031998351 0.14899744
-0.018094482 0.029546825 0.149114
-0.018485509 0.027359363 0.15128399
-0.018501341 0.024406752 0.15163192
-0.018890575 0.021381909 0.15434006
-0.0201432 0.017392991 0.15824549
-0.02022885 0.014444753 0.15870358
-0.020636983 0.01140993 0.16044283
-0.021610515 0.0072448836 0.1626699
-0.022251487 0.0043069185 0.16410947
-0.022094391 0.0017468085 0.16529582
-0.022124572 -0.00091320055 0.16679254
-0.021607634 -0.003531178 0.1670502
-0.020792827 -0.006313439 0.16821536
-0.014815344 0.034533929 0.14887324
-0.015279275 0.032122891 0.14945322
-0.015310225 0.029879747 0.14930905
-0.015976856 0.027186293 0.15177719
-0.016091716 0.02436037 0.15278345
-0.016405001 0.021451278 0.15482043
-0.017426524 0.017672675 0.15924859
-0.017590465 0.014757495 0.15961613
-0.017845696 0.012100534 0.1615057
-0.018585619 0.0081840707 0.16378333
-0.019124217 0.0050963773 0.16446561
-0.019318171 0.0022599823 0.16662401
-0.01945428 -5.1626823e-05 0.16694857
-0.018980287 -0.0029105288 0.16777767
-0.017875904 -0.0054381667 0.16840337
-0.01241801 0.03473068 0.14917427
-0.012632719 0.032317117 0.14992215
-0.01294833 0.029570952 0.15083805
-0.013356409 0.027015595 0.15239896
-0.013627205 0.024371887 0.15354829
-0.013792179 0.021690495 0.15489529
-0.014483752 0.018337907 0.15852706
-0.01484867 0.01513427 0.15990317
-0.014939751 0.012366475 0.16226262
-0.016052976 0.0085505992 0.16471165
-0.017171022 0.0051016668 0.16537151
-0.017517088 0.0024813004 0.16652326
-0.016930209 0.00038093954 0.16770853
-0.016743684 -0.0022751957 0.16773021
-0.014975673 -0.0049774228 0.16801482
-0.0099292789 0.034924544 0.1490069
-0.010106588 0.032642569 0.14999947
-0.010394847 0.029401271 0.15188228
-0.010844404 0.026871545 0.15310842
-0.010811319 0.024497578 0.15417832
-0.010872343 0.021727577 0.1561221
-0.010598189 0.019110866 0.15821145
-0.011512394 0.015752925 0.15905523
-0.011340634 0.012971595 0.16255072
-0.012662128 0.0097681619 0.16591218
-0.014951721 0.0055276137 0.16519342
-0.014760823 0.0031088809 0.16649583
-0.014248012 0.00081802916 0.16767003
-0.013737674 -0.001368452 0.16823205
-0.012529103 -0.0041772025 0.16825172
-0.0074651875 0.035079278 0.14905646
-0.0077560851 0.032486446 0.15040717
-0.0079426058 0.029331073 0.15243568
-0.0078179901 0.026783317 0.15292008
-0.0076587889 0.024404589 0.15366188
-0.0074231015 0.021591919 0.15695567
-0.0072204517 0.018846318 0.15868604
-0.0070948736 0.016383601 0.15949546
-0.00739381 0.013427297 0.16227272
-0.0075191548 0.010928183 0.16653593
-0.010048705 0.0063082888 0.16687596
-0.011608098 0.0035891284 0.16794814
-0.011142958 0.0013910095 0.16884156
-0.010599224 -0.00081263157 0.1688692
-0.010486839 -0.0027643526 0.16961044
-0.0048576691 0.034854107 0.14892955
-0.0051955846 0.032072488 0.15063184
-0.0053727902 0.028982112 0.15220797
-0.0050436761 0.026733166 0.15350582
-0.0049419585 0.024236571 0.15477929
-0.0045632473 0.021372562 0.15841059
-0.0045538782 0.019169495 0.159622
-0.0047392366 0.016621789 0.16074683
-0.0046639624 0.013681668 0.16348994
-0.0045473175 0.010712974 0.16743802
-0.0048184041 0.0070100934 0.16867813
-0.0071930257 0.004360693 0.16997361
-0.0081948983 0.0014379491 0.16962042
-0.0080531854 -0.00049047975 0.16931769
-0.0055416715 -0.004703477 0.1729681
-0.0023768828 0.034682609 0.14918536
-0.0027001838 0.031997398 0.15001109
-0.0023002839 0.028984241 0.15148346
-0.0022015488 0.026509183 0.15285307
-0.0019880806 0.024256304 0.15497795
-0.0019874179 0.021389885 0.1587483
-0.001908858 0.019346585 0.16019768
-0.0020661443 0.016721802 0.16209427
-0.0018598934 0.013842371 0.16443473
-0.0013086719 0.010584653 0.16863278
-0.0020051284 0.0077682496 0.1696889
-0.0022918975 0.0052808747 0.17219917
-0.0035303256 0.0028744007 0.17284042
-0.0030155065 -0.0001143121 0.17350486
-0.0014100232 -0.0048289406 0.17640984
0.00016243861 0.033769768 0.14987996
0.00064303685 0.031671647 0.15102459
0.00035593827 0.028982515 0.15266503
0.0010668724 0.026759546 0.15436749
0.00123495 0.024052633 0.15665349
0.00090687454 0.021663342 0.15859859
0.00062491157 0.019777041 0.1609562
0.0004536687 0.016998034 0.16305265
0.00060399238 0.014245422 0.16490692
0.0017381185 0.010844866 0.16884017
0.0011984853 0.0081108324 0.17045504
0.00091867213 0.0056786472 0.17252716
0.00036009992 0.0032048428 0.17384429
0.00054467819 0.00010991734 0.17574225
0.00083131326 -0.0034053023 0.17699483
0.0026944217 0.034406517 0.15002668
0.0029728948 0.032082673 0.15154448
0.0032622013 0.02971888 0.15315273
0.004043547 0.026878456 0.15539271
0.0041249734 0.024635125 0.15691406
0.0038298694 0.022339325 0.1583569
0.0034782281 0.020150481 0.1598551
0.0032723253 0.017166078 0.16323179
0.0031582136 0.01454623 0.16549595
0.0047619431 0.011128192 0.16904646
0.0046730153 0.0081795389 0.17077242
0.0040869392 0.0061117061 0.17204559
0.0041463752 0.0035776035 0.17388038
0.0032273396 0.00086102256 0.17638749
0.003686269 -0.0021443574 0.17766351
0.0053978544 0.034713496 0.14940247
0.0056101489 0.032547392 0.15127523
0.0056873173 0.030325836 0.15295902
0.0064082923 0.027050398 0.15558504
0.0064192731 0.024834836 0.15773068
0.0061093974 0.022738304 0.15935117
0.006139223 0.020512752 0.16120587
0.0059134103 0.017953191 0.16262382
0.0070224009 0.014287116 0.16634813
0.0072031156 0.011754007 0.16973251
0.0075436733 0.0088763656 0.17067149
0.0071047959 0.0067344173 0.17291464
0.0062980065 0.0046980772 0.17544383
0.0059219226 0.0011605369 0.17803788
0.0059586265 -0.0015733895 0.17966408
0.0077968561 0.035013244 0.14971754
0.007973277 0.032900229 0.15177645
0.0083580697 0.030711621 0.15260534
0.0090199932 0.027587518 0.15748368
0.0085796649 0.025264176 0.15946971
0.0083346525 0.023111096 0.16027351
0.0080942092 0.020970415 0.1620058
0.01025827 0.016659783 0.16576692
0.0099884151 0.014427102 0.16766636
0.0097739613 0.012000121 0.16980428
0.010310076 0.0096714525 0.17099309
0.0099995043 0.0076463954 0.17324618
0.0086512137 0.0050422912 0.17685975
0.009556232 0.00035443035 0.18001267
0.009309859 -0.0019587076 0.18127057
0.010316967 0.035218399 0.14935872
0.010578952 0.03318394 0.15057608
0.010787087 0.030902978 0.15282619
0.011245226 0.028061315 0.15850642
0.011087067 0.025360685 0.15984735
0.010956554 0.023166426 0.16054817
0.010292426 0.020850249 0.16287901
0.012273546 0.017127262 0.16639049
0.012179485 0.014932298 0.16828698
0.012368405 0.012598651 0.16960701
0.012927 0.010240015 0.17120694
0.012449879 0.0082970252 0.17421651
0.011444832 0.0049870485 0.17800848
0.013396975 0.0003618729 0.17949459
0.012797954 0.035494354 0.14843974
0.013168314 0.03325424 0.14981663
0.013628094 0.030561741 0.15492748
0.014335383 0.027561551 0.15911525
0.014057445 0.02546259 0.16031486
0.013844463 0.023453709 0.16169356
0.013007603 0.02104225 0.16489846
0.014296357 0.017893273 0.16692048
0.01422159 0.01570102 0.16873765
0.014315936 0.013469261 0.17017515
0.015255819 0.011010629 0.17177279
0.014428074 0.0087797819 0.1748919
0.014301035 0.0057634041 0.17770804
0.015761284 0.0012555107 0.1776365
0.016183224 -0.001680657 0.17890093
0.015002769 0.035495006 0.1479243
0.015960831 0.032829892 0.1496212
0.016683808 0.028894151 0.15569265
0.016273452 0.025784915 0.16084763
0 0 0 1 0 0 0 1 0 0 0 1 0 0 0 0 0 240 1 0 0
