ply
format ascii 1.0
comment PCL generated
element vertex 240
property float x
property float y
property float z
element camera 1
property float view_px
property float view_py
property float view_pz
property float x_axisx
property float x_axisy
property float x_axisz
property float y_axisx
property float y_axisy
property float y_axisz
property float z_axisx
property float z_axisy
property float z_axisz
property float focal
property float scalex
property float scaley
property float centerx
property float centery
property int viewportx
property int viewporty
property float k1
property float k2
end_header
-0.027253604 0.033367667 0.14715023
-0.026973067 0.030972451 0.14734612
-0.026594488 0.02855364 0.14887954
-0.026429081 0.026105547 0.15002424
-0.026457798 0.023466812 0.15223318
-0.027570017 0.020022601 0.15500456
-0.031007139 0.014309683 0.1566302
-0.031515475 0.011549332 0.1579573
-0.03143939 0.0086708628 0.15901481
-0.03118898 0.0057318718 0.15997864
-0.031533416 0.0024520119 0.16108638
-0.031917725 -0.00041192418 0.16284223
-0.032092996 -0.002984517 0.16391623
-0.0249903 0.033457417 0.14652602
-0.024404598 0.030929426 0.14734544
-0.023887124 0.028521499 0.14811113
-0.023757316 0.026170032 0.1496087
-0.023620592 0.023950379 0.15135168
-0.024473423 0.020427303 0.15324612
-0.025707275 0.01633312 0.1571707
-0.026766563 0.01275879 0.15751624
-0.02740998 0.0096002882 0.15845685
-0.02786948 0.0064934231 0.15915127
-0.027955106 0.0033758476 0.1606355
-0.028878184 1.2042985e-05 0.16260475
-0.029394569 -0.0028489933 0.16492799
-0.027469585 -0.0056110951 0.16611283
-0.02203265 0.033734329 0.14643508
-0.021193067 0.031295229 0.14786339
-0.021068137 0.028902134 0.1483146
-0.021019939 0.026417103 0.14992857
-0.02115394 0.023830757 0.15135267
-0.0220851 0.020553499 0.15457155
-0.023211645 0.016728772 0.15774055
-0.023514958 0.013305232 0.15828194
-0.02393108 0.010361433 0.15872686
-0.025097707 0.006861737 0.15958306
-0.024849553 0.0031323961 0.16232172
-0.024842512 0.00017527505 0.1638685
-0.024959456 -0.0027570378 0.1660208
-0.024203815 -0.0051345374 0.16661201
-0.023475876 -0.0076443315 0.16736424
-0.017859206 0.033808604 0.14761026
-0.018300926 0.031584699 0.14861552
-0.018417152 0.029186754 0.14884968
-0.018791487 0.026958734 0.15101084
-0.018762065 0.024055826 0.15156941
-0.019290315 0.021177018 0.15447512
-0.020874251 0.017342517 0.15884332
-0.020857044 0.014147833 0.15932009
-0.021316133 0.010905646 0.16078249
-0.021867545 0.0056957933 0.1620173
-0.022500945 0.0029793971 0.1635264
-0.022384552 0.00068354292 0.16511989
-0.022492684 -0.0016809588 0.16675009
-0.021976072 -0.0040026777 0.16721483
-0.021270709 -0.0065074307 0.16877061
-0.015063428 0.034014564 0.14827323
-0.015609662 0.031700395 0.14906536
-0.015638258 0.02953249 0.14906889
-0.016306551 0.026844844 0.15167287
-0.01644486 0.024085285 0.15282601
-0.016818138 0.021281466 0.15516205
-0.018265441 0.017740296 0.16006826
-0.018363135 0.014559209 0.16056837
-0.018561093 0.011590976 0.16218656
-0.018904615 0.0068733422 0.16400982
-0.019428354 0.0040202369 0.16471146
-0.019851677 0.0013002795 0.16670065
-0.019953303 -0.00080600352 0.16697082
-0.019441141 -0.0033539971 0.16797142
-0.018398702 -0.0055945786 0.16900304
-0.012661776 0.034245219 0.14882132
-0.012904435 0.031822905 0.14955261
-0.013220789 0.029130366 0.15052041
-0.013652668 0.026589656 0.15225486
-0.01399403 0.024084777 0.15366063
-0.01420712 0.021516027 0.1553404
-0.015218952 0.018472591 0.15952285
-0.015651008 0.014951764 0.16097486
-0.015622497 0.011741349 0.16311707
-0.01665616 0.0073146708 0.16520345
-0.017841458 0.0040699402 0.16586377
-0.018210296 0.0016737381 0.16693196
-0.017693929 -0.0001862839 0.16793171
-0.017437387 -0.0027868561 0.16813029
-0.01565459 -0.0051539615 0.16896656
-0.01018491 0.034520041 0.14895505
-0.010382618 0.032208852 0.14992742
-0.010688634 0.028964721 0.15178098
-0.011217128 0.026476327 0.15302743
-0.011237672 0.024229396 0.15432875
-0.011361178 0.021720774 0.15694879
-0.011166573 0.019362517 0.15946455
-0.012212058 0.015627237 0.16019607
-0.01191031 0.012422835 0.16345376
-0.013380138 0.008685925 0.16655765
-0.015703456 0.0046121883 0.16598783
-0.015563589 0.0023056208 0.16726694
-0.015163701 0.00027935792 0.16857205
-0.014641758 -0.0016903256 0.16914162
-0.013462376 -0.0043441937 0.16975045
-0.0077440687 0.034750734 0.14915819
-0.0081174262 0.032089137 0.15063433
-0.0083648218 0.029018791 0.15267736
-0.0083215619 0.026765615 0.15361455
-0.0081999265 0.024541812 0.15453163
-0.0080132866 0.021917524 0.15848754
-0.0077899233 0.019277748 0.16027458
-0.0077146394 0.016727949 0.1609809
-0.0078546312 0.013290514 0.16321853
-0.0076902462 0.010269434 0.16714558
-0.011278346 0.0055971607 0.16812602
-0.012816056 0.003060509 0.16919918
-0.012418932 0.0011348292 0.17031159
-0.011818552 -0.00090981292 0.17056128
-0.011813471 -0.0027321612 0.171426
-0.0051297257 0.034609854 0.14915358
-0.0056436351 0.031798296 0.15138166
-0.0059008617 0.028953718 0.15306775
-0.005663997 0.026923019 0.15454017
-0.0055925124 0.024535991 0.15595178
-0.0050981208 0.021760294 0.15988426
-0.0051051243 0.019582652 0.16113222
-0.0053403061 0.01688043 0.16208035
-0.0050765043 0.013482725 0.16430786
-0.0046869204 0.010114508 0.16782317
-0.0053363759 0.0069248183 0.16919427
-0.0083600227 0.0041837455 0.17094134
-0.0094522145 0.0012522275 0.17097321
-0.0093626408 -0.00051893992 0.17117308
-0.0066587529 -0.0045363642 0.17510243
-0.0027004406 0.034524824 0.14955136
-0.0030900293 0.031913426 0.15086921
-0.0028627026 0.029189531 0.15268318
-0.0028264897 0.026796075 0.15407275
-0.0026692806 0.024569619 0.15623666
-0.0024348118 0.021818954 0.16015242
-0.00230171 0.019776436 0.16160192
-0.0025542406 0.016867207 0.16327445
-0.0022399439 0.013622582 0.16514458
-0.0013711973 0.0097658671 0.16854653
-0.0022820041 0.0073257652 0.16967763
-0.0024582967 0.0048730648 0.1722721
-0.0038705433 0.0025514436 0.17310341
-0.0035723296 -0.00021863462 0.1745005
-0.0019283582 -0.004619292 0.17811517
-0.00010043755 0.03361962 0.14990641
0.00049755926 0.03146071 0.15087785
2.1461979e-05 0.028965639 0.15299283
0.0010537407 0.026440766 0.15470569
0.0012783642 0.02386304 0.15683651
0.00055954146 0.02190835 0.15943848
0.0003414207 0.020076936 0.16193733
0.00011752356 0.016919969 0.16373132
0.00022971666 0.013841704 0.16513115
0.0017202788 0.0097884331 0.16828482
0.0011170119 0.0071699214 0.16987713
0.00081173779 0.004908721 0.17224213
0.00012014563 0.0026314924 0.17386764
0.00031807128 -7.1624148e-05 0.17668901
0.0004256214 -0.0033698287 0.17831478
0.002463659 0.034256268 0.14977635
0.0028201391 0.031919088 0.15125871
0.0032026875 0.02951696 0.15287091
0.0043868339 0.026385777 0.15531884
0.0043427716 0.024400996 0.15699825
0.0036865643 0.022394018 0.15866055
0.0031854354 0.020307662 0.16023003
0.002897911 0.016882382 0.16343209
0.0027987296 0.013896377 0.16522956
0.0048657698 0.0098279398 0.16805984
0.0047133458 0.0070007839 0.16990326
0.0040508159 0.0051532248 0.17156483
0.0040073348 0.002828256 0.17386343
0.0030721908 0.00047409625 0.17684084
0.0034376243 -0.0023746006 0.17845857
0.0051789195 0.034616981 0.14905606
0.005450787 0.032448582 0.15094034
0.0055954265 0.03020215 0.15264049
0.006655884 0.026641898 0.15563203
0.0064500133 0.024746347 0.15788671
0.0059409169 0.022819698 0.15954733
0.0059874309 0.020605233 0.1613957
0.0055958512 0.017999956 0.16266969
0.0067404686 0.013714832 0.16642052
0.0072129238 0.010613668 0.16870339
0.0075902375 0.0077258032 0.1697185
0.0070543224 0.0056623714 0.17219983
0.0063421852 0.0038058725 0.17487188
0.0059738881 0.00067601574 0.17811361
0.0060405992 -0.0018488776 0.17995332
0.0075277169 0.034961496 0.14926781
0.0077870563 0.032846536 0.15131345
0.0082418276 0.030678209 0.15218505
0.0090718837 0.027517112 0.15779792
0.0084392829 0.025385618 0.15973386
0.0081109321 0.023388404 0.16052499
0.0078871939 0.021271784 0.1620566
0.010017753 0.016141759 0.16593044
0.0098186312 0.013639214 0.16747041
0.0097390069 0.01082199 0.168826
0.010281309 0.0086086066 0.17011315
0.010051646 0.0064821341 0.17236239
0.0089183887 0.0038642574 0.17613864
0.0099853221 -0.00049963419 0.17923225
0.0097151864 -0.0026523184 0.18065816
0.0099359518 0.035323683 0.14893615
0.010291747 0.033312455 0.1501742
0.010573382 0.031007862 0.15242648
0.011171649 0.028187037 0.15896426
0.010902458 0.02559283 0.16028172
0.010697608 0.023517633 0.16097754
0.0099924626 0.021120289 0.16315855
0.012049351 0.016432518 0.16620737
0.012027872 0.014012909 0.16775231
0.012255859 0.011530995 0.16883275
0.012820892 0.0092174038 0.17061278
0.012635301 0.0068436596 0.17308691
0.011866958 0.0036208085 0.17667334
0.013770234 -0.00084688852 0.17797011
0.01238646 0.035742402 0.14815646
0.012837348 0.033556141 0.14953151
0.013393378 0.030900085 0.15545784
0.014079946 0.027911155 0.15976392
0.013806329 0.025757708 0.16084835
0.013660116 0.02353669 0.16206971
0.013028669 0.020460658 0.16477913
0.014166747 0.016927568 0.16636476
0.014115361 0.014565791 0.16796151
0.014149276 0.012325344 0.16924468
0.015061679 0.010090357 0.17138824
0.014613655 0.0071773371 0.17354834
0.014685772 0.0039773905 0.17587391
0.015781756 -0.00018357657 0.17580067
0.016270904 -0.003100639 0.17701222
0.01458529 0.035843711 0.14774226
0.015786504 0.033238959 0.1494377
0.016489586 0.029245395 0.15646131
0.015986534 0.026128093 0.16136226
0 0 0 1 0 0 0 1 0 0 0 1 0 0 0 0 0 240 1 0 0
