ply
format ascii 1.0
comment PCL generated
element vertex 240
property float x
property float y
property float z
element camera 1
property float view_px
property float view_py
property float view_pz
property float x_axisx
property float x_axisy
property float x_axisz
property float y_axisx
property float y_axisy
property float y_axisz
property float z_axisx
property float z_axisy
property float z_axisz
property float focal
property float scalex
property float scaley
property float centerx
property float centery
property int viewportx
property int viewporty
property float k1
property float k2
end_header
-0.027161634 0.033904586 0.14779869
-0.02695745 0.031484149 0.14783442
-0.026593197 0.028980272 0.14922926
-0.026448458 0.026495123 0.15028854
-0.026426993 0.023835815 0.1525349
-0.027442466 0.020322081 0.15531857
-0.031014863 0.014569584 0.15718082
-0.03147037 0.011762692 0.1584145
-0.031383928 0.008829819 0.15931733
-0.031105665 0.0058101579 0.16005462
-0.031406995 0.0024974553 0.1610021
-0.031745512 -0.00044890901 0.16253245
-0.031878084 -0.0030825145 0.16340721
-0.0249302 0.033960328 0.14706618
-0.024392176 0.031348057 0.14765653
-0.023929788 0.028872706 0.14825879
-0.023798183 0.026477247 0.14968269
-0.023631535 0.024234967 0.1513958
-0.024507679 0.02068151 0.15328518
-0.025567841 0.016418086 0.15709835
-0.026791796 0.01289194 0.15762386
-0.027446697 0.0097365063 0.15857449
-0.027849177 0.006614327 0.15914111
-0.027805708 0.0033929779 0.16037603
-0.028699314 8.4495568e-06 0.16230209
-0.029202009 -0.0029503114 0.1644578
-0.027310148 -0.0056348592 0.16564918
-0.021959491 0.03414043 0.14680427
-0.021112375 0.031536862 0.14786986
-0.021061033 0.02912586 0.14824703
-0.021020923 0.026606167 0.14981076
-0.021170618 0.023999741 0.15117417
-0.022003423 0.020642232 0.15438138
-0.022988928 0.016651427 0.157326
-0.023402661 0.013249075 0.15785128
-0.02391576 0.010350673 0.15839775
-0.02507478 0.0069384407 0.15943867
-0.024691485 0.0030871092 0.16204934
-0.024692655 0.00023559469 0.16371688
-0.02489676 -0.0026702681 0.1659909
-0.024227571 -0.0050590662 0.16661015
-0.023498423 -0.007595873 0.16730304
-0.01772167 0.034006272 0.14774461
-0.018173892 0.031714365 0.14854978
-0.018360723 0.029302962 0.14865227
-0.018708052 0.027023088 0.150747
-0.018741701 0.024101777 0.15119135
-0.019200098 0.021171944 0.1540651
-0.020535395 0.017082287 0.15814793
-0.020593403 0.01390402 0.15852368
-0.02104374 0.010648512 0.15999459
-0.02174741 0.005609266 0.16185933
-0.02240379 0.0029135661 0.16344725
-0.022345565 0.00072458771 0.16522123
-0.022423865 -0.0016502386 0.16676512
-0.021964833 -0.0039774221 0.16720231
-0.021199761 -0.0065247696 0.16866468
-0.014927675 0.034160551 0.14849968
-0.015475114 0.03177087 0.14902468
-0.015548944 0.029588148 0.14880927
-0.016200077 0.026813999 0.15130737
-0.016369674 0.024027761 0.15235502
-0.016706103 0.021159785 0.15456669
-0.01783797 0.017298356 0.15912476
-0.017995959 0.014130256 0.15951644
-0.018255465 0.01122376 0.16126502
-0.018881936 0.0067810714 0.16387507
-0.019436404 0.0039710659 0.16475993
-0.019865977 0.0013065465 0.16679807
-0.0199765 -0.00083904061 0.16715279
-0.019366117 -0.0034122327 0.16793329
-0.018233782 -0.0056503215 0.16868334
-0.012533035 0.034336574 0.14911941
-0.012763167 0.031844649 0.1495325
-0.013090241 0.029040881 0.1501496
-0.013528488 0.026447808 0.15176739
-0.013893913 0.023942932 0.1531015
-0.014086581 0.021333968 0.15462764
-0.014870165 0.018003499 0.15850152
-0.015308052 0.014475091 0.15990707
-0.015429351 0.011489254 0.16243805
-0.016689245 0.0072784643 0.16504088
-0.01791231 0.0040366398 0.16592629
-0.018186918 0.0016725215 0.16704556
-0.017641254 -0.00024912166 0.16795087
-0.017406775 -0.0028597121 0.16807629
-0.015419994 -0.0052210861 0.16822222
-0.010066687 0.034630138 0.14932927
-0.010226444 0.032195844 0.14994578
-0.010494833 0.028681811 0.15117782
-0.011035933 0.026143849 0.15228839
-0.011086875 0.023924734 0.15354113
-0.011154515 0.021378078 0.15605998
-0.010886786 0.018795457 0.15834965
-0.011892546 0.015122746 0.15932238
-0.011767876 0.012262773 0.1630986
-0.013469999 0.0088023832 0.16637865
-0.01581105 0.0045387056 0.16582361
-0.015571583 0.0022272498 0.16707103
-0.015047408 0.00018166476 0.16829465
-0.014395161 -0.0018001536 0.16849071
-0.013033527 -0.0044464902 0.16831279
-0.0076334244 0.034886889 0.14959832
-0.0079396181 0.031977981 0.1505627
-0.0081262598 0.02861286 0.15193056
-0.0081053907 0.026313029 0.15268336
-0.008024266 0.024077129 0.15353474
-0.0077775284 0.021353967 0.15738808
-0.007533248 0.018625487 0.15913051
-0.0073862104 0.016016193 0.1600218
-0.0075904229 0.012887551 0.16286239
-0.0075256079 0.010380356 0.16714585
-0.011461616 0.0057863207 0.16789372
-0.012650858 0.003007283 0.16872607
-0.011933316 0.00096439343 0.16927773
-0.011241449 -0.0010400624 0.16890277
-0.010958572 -0.0029529172 0.16944402
-0.005015376 0.034877673 0.14964153
-0.0054283715 0.031555053 0.15113577
-0.0056536146 0.028462693 0.15214615
-0.0054286006 0.026388677 0.15351652
-0.0053820992 0.023986066 0.15489741
-0.0048745982 0.021150576 0.15873329
-0.0048899557 0.018974168 0.1600429
-0.005059707 0.016295997 0.16121151
-0.0048352648 0.013223919 0.16399474
-0.0044698045 0.01013687 0.167806
-0.0049554417 0.0067957742 0.16878295
-0.0079301065 0.0041185692 0.16976511
-0.008899074 0.0012057995 0.16917004
-0.0087092668 -0.00056444015 0.16884258
-0.0055353856 -0.0051953597 0.17253631
-0.0025880451 0.034783605 0.15002671
-0.0029049732 0.031864256 0.15070072
-0.0026382948 0.028713424 0.15175642
-0.0026091659 0.026240645 0.15303034
-0.0024500589 0.024001326 0.15520298
-0.0022787498 0.021205781 0.15913488
-0.0021568735 0.019203525 0.16063525
-0.0023745797 0.016503993 0.16265401
-0.0020296061 0.013509198 0.1649494
-0.0011946182 0.0099893408 0.16893408
-0.0019770337 0.0073630135 0.16960251
-0.0021689828 0.0045531848 0.17178132
-0.0033554935 0.0019004814 0.17198008
-0.0027320429 -0.0010286754 0.17261267
-0.0010541973 -0.0056762323 0.17608579
3.8108516e-05 0.03400325 0.15015258
0.00069189898 0.031793393 0.15085199
0.00023184241 0.028870085 0.15242554
0.0010545831 0.026415594 0.15445369
0.0012824272 0.023811141 0.1565918
0.00068677863 0.021537896 0.15882035
0.00039322945 0.019658795 0.16123904
0.00019411146 0.016794637 0.16337277
0.00038822432 0.01393873 0.16521706
0.001840204 0.01032251 0.16915566
0.0013219424 0.007574542 0.17036586
0.0010823188 0.0049075373 0.17211103
0.00051331014 0.0022611313 0.17321354
0.00084821129 -0.00086130569 0.1754308
0.0011841453 -0.0042853807 0.17664662
0.0025753672 0.034807038 0.1502794
0.0029635457 0.032301314 0.15143922
0.0033689153 0.029710028 0.15271921
0.0043083271 0.02641841 0.15520643
0.0043043182 0.024377394 0.15678439
0.0037007418 0.022261871 0.15834342
0.0032450678 0.020093989 0.1598305
0.0029895639 0.016871667 0.16328666
0.0029063437 0.014206473 0.16558009
0.0048762313 0.010544579 0.16922022
0.0048169764 0.0075618192 0.17069508
0.0042859525 0.0055277226 0.1718514
0.0043106899 0.0028497602 0.17366004
0.0034490598 2.7527392e-05 0.17608172
0.004000783 -0.0029237019 0.17741324
0.0053008571 0.03544056 0.14987993
0.0055728373 0.033009961 0.15140933
0.0057373606 0.030525137 0.15273328
0.0065618651 0.026587399 0.15544574
0.0063975225 0.024621336 0.15764681
0.0059205657 0.022689957 0.15928414
0.0060275672 0.020387389 0.16100357
0.0056884275 0.017799633 0.16226012
0.0067671672 0.013744768 0.16671495
0.0072590825 0.011026796 0.16942474
0.007564723 0.0081589241 0.17043591
0.0071875285 0.0061072274 0.17276473
0.0064821383 0.0041520991 0.17524756
0.0061155292 0.00046391139 0.17779493
0.0062769796 -0.0021733108 0.17944534
0.0076284255 0.035843287 0.15027772
0.0078661889 0.033456668 0.15199567
0.0083669871 0.031188067 0.15255219
0.0089903222 0.027367061 0.15756662
0.008435633 0.02516759 0.15947264
0.0081424024 0.023129892 0.16012709
0.0079801446 0.020941138 0.16152951
0.01008182 0.015724976 0.16532169
0.0099055823 0.013454882 0.16723546
0.0097391987 0.010956282 0.16903459
0.010290629 0.0088249268 0.17037697
0.010146057 0.0069110417 0.17277008
0.0090051368 0.004436661 0.17658657
0.010058189 3.7304286e-05 0.17971899
0.0098709883 -0.0022130129 0.18102399
0.01004816 0.036242846 0.15004835
0.010376696 0.034085367 0.15100777
0.010638734 0.031513147 0.15293087
0.011156226 0.027947009 0.1587446
0.010915015 0.025320346 0.15994649
0.010761302 0.023205096 0.16040656
0.010224988 0.020536516 0.16224836
0.012124978 0.015801709 0.16516407
0.012131328 0.013578549 0.16699399
0.012257635 0.01126492 0.1683698
0.012874523 0.0091129709 0.17031701
0.012719434 0.0072526988 0.17330904
0.011919776 0.0043193968 0.1771588
0.013962896 0.00018385943 0.17899555
0.012500649 0.036652852 0.14924654
0.012891413 0.034263697 0.1502748
0.013462542 0.030710692 0.15539479
0.014130288 0.027571222 0.15942419
0.013847332 0.025412459 0.16039994
0.013759384 0.023119826 0.16135179
0.013267546 0.019800754 0.16366605
0.014264412 0.016041957 0.16484839
0.014259078 0.013877633 0.16673525
0.014278182 0.011795239 0.16825891
0.015311106 0.0096331667 0.17046002
0.014737855 0.0075143077 0.17359576
0.014739396 0.004729765 0.17639455
0.0160826 0.00089967938 0.17694363
0.016756056 -0.0018346227 0.17840128
0.014683131 0.036644369 0.14869936
0.015753722 0.033577103 0.1497616
0.016507113 0.028869431 0.15606618
0.016058613 0.025706371 0.16082717
0 0 0 1 0 0 0 1 0 0 0 1 0 0 0 0 0 240 1 0 0
