ply
format ascii 1.0
comment PCL generated
element vertex 240
property float x
property float y
property float z
element camera 1
property float view_px
property float view_py
property float view_pz
property float x_axisx
property float x_axisy
property float x_axisz
property float y_axisx
property float y_axisy
property float y_axisz
property float z_axisx
property float z_axisy
property float z_axisz
property float focal
property float scalex
property float scaley
property float centerx
property float centery
property int viewportx
property int viewporty
property float k1
property float k2
end_header
-0.027582347 0.032789927 0.1458002
-0.02728348 0.030399945 0.14637472
-0.026923729 0.028255826 0.14843671
-0.026757261 0.026205454 0.15032065
-0.026541896 0.024212904 0.15362209
-0.027287709 0.02134786 0.15739039
-0.031192014 0.015840558 0.16169992
-0.031690031 0.013103081 0.1630324
-0.031804476 0.010112329 0.16394866
-0.031876959 0.0069782212 0.16457158
-0.032288302 0.0035599696 0.1654885
-0.032511558 0.00058059429 0.16712496
-0.032621376 -0.0020498445 0.16811135
-0.025302583 0.032874152 0.14522777
-0.024738148 0.03039285 0.14642839
-0.024253128 0.028052198 0.14764684
-0.024054797 0.026105989 0.14969291
-0.023850113 0.024333172 0.15218686
-0.024613842 0.021155166 0.15489013
-0.025414709 0.017525433 0.15977436
-0.027119329 0.013870194 0.1614199
-0.027977854 0.010712527 0.16256987
-0.028815584 0.0075400393 0.16327138
-0.028940717 0.0042434423 0.16457339
-0.029587872 0.00086014712 0.1665843
-0.029801017 -0.0020457213 0.16881053
-0.027623627 -0.0048395824 0.16942781
-0.022342606 0.033311389 0.14531431
-0.021518262 0.030907556 0.14685239
-0.021376055 0.028608371 0.1477529
-0.021322941 0.026482061 0.14988986
-0.021393528 0.024071382 0.15176737
-0.022000968 0.021216592 0.15566722
-0.02285335 0.017550424 0.15922153
-0.023552978 0.014027735 0.16045743
-0.024363393 0.011115356 0.1614994
-0.026029505 0.0076055396 0.16308108
-0.025364075 0.003586214 0.16592871
-0.024761887 0.0007562961 0.16752741
-0.02495715 -0.0021938756 0.16942377
-0.024377428 -0.004550694 0.16996484
-0.023774 -0.0070324489 0.17073005
-0.018126393 0.033752155 0.14685437
-0.01859813 0.031527933 0.14787054
-0.01871084 0.02917869 0.14835253
-0.019072926 0.027243495 0.15081914
-0.018965445 0.024183383 0.15159526
-0.019219754 0.021709332 0.15501873
-0.020365257 0.01777802 0.15940084
-0.020586981 0.014536343 0.16007558
-0.021030715 0.011342058 0.16201478
-0.022158531 0.0052091186 0.16507068
-0.022556232 0.002743948 0.16695361
-0.022396198 0.00091231748 0.16895419
-0.02246506 -0.0012331131 0.17031765
-0.022131057 -0.003557015 0.17067321
-0.021539472 -0.0059981602 0.17222269
-0.015144194 0.034007739 0.14771432
-0.01581125 0.031734239 0.14846955
-0.015930979 0.029592851 0.14859591
-0.01646544 0.02700229 0.15135103
-0.016571663 0.024314225 0.15269212
-0.016820736 0.021918669 0.15528372
-0.017591989 0.017792583 0.1597022
-0.017947292 0.01460692 0.16068859
-0.01824468 0.011676074 0.16280621
-0.018435767 0.0061766072 0.16651326
-0.019249415 0.0035366174 0.16803579
-0.019805705 0.0011600835 0.17019889
-0.020140126 -0.00076489442 0.17066349
-0.019587116 -0.003147233 0.17158024
-0.018584307 -0.0051816776 0.17236592
-0.012648476 0.034004126 0.14816977
-0.012991241 0.031714693 0.1489466
-0.013463347 0.029134801 0.15009175
-0.013804617 0.026695514 0.15188803
-0.014134419 0.024408124 0.15346436
-0.014268398 0.022010313 0.15530482
-0.014855242 0.018683357 0.15916608
-0.015398249 0.01485226 0.16082492
-0.015430938 0.01172151 0.16374777
-0.016337845 0.0067062685 0.16727519
-0.017777488 0.0037007499 0.1692732
-0.018248471 0.0015754773 0.17064974
-0.017962508 -0.00020843213 0.17175964
-0.017780347 -0.0027878156 0.17177446
-0.015974421 -0.0048963339 0.17149338
-0.010150262 0.034111608 0.14816946
-0.010399991 0.031899098 0.14936507
-0.010872275 0.028835474 0.15143682
-0.011433299 0.026370252 0.15266721
-0.011405679 0.024341548 0.15398966
-0.011265057 0.022167282 0.15666966
-0.010920408 0.019708045 0.15918893
-0.012186281 0.015653042 0.16028185
-0.011810108 0.012533069 0.16418317
-0.013052303 0.0084783174 0.16773619
-0.015908776 0.0042132353 0.16936275
-0.015728395 0.002084801 0.17071402
-0.015395436 9.1723785e-05 0.17181063
-0.015037945 -0.0016564287 0.17195652
-0.01369882 -0.0042499476 0.1714661
-0.0077030095 0.034247182 0.14822674
-0.0081545021 0.031691022 0.14997561
-0.0084738098 0.028617719 0.15200248
-0.0083959913 0.02637293 0.15287803
-0.00830027 0.024282886 0.1540326
-0.0079519143 0.022185337 0.15857109
-0.0076794326 0.019351793 0.1603075
-0.0075166682 0.016754851 0.16139263
-0.0077090114 0.013546002 0.164226
-0.0076326965 0.010709591 0.16833958
-0.011844716 0.00506507 0.1698245
-0.013074526 0.0027090088 0.17122839
-0.012517678 0.00096693181 0.17187566
-0.011911974 -0.00094293337 0.17173795
-0.011585871 -0.0028429781 0.17238741
-0.0050722668 0.033872992 0.14780828
-0.0056577474 0.031149652 0.15054271
-0.0059662256 0.028386161 0.15203938
-0.0056736497 0.026466321 0.15365334
-0.0056633861 0.024429446 0.15558937
-0.005068616 0.022026222 0.16015637
-0.0051034149 0.01976667 0.16141118
-0.0052758129 0.017055672 0.16257595
-0.0049976064 0.013829483 0.16539586
-0.0046744645 0.010503998 0.16954133
-0.0052915066 0.0072095012 0.17098227
-0.008576029 0.0041403486 0.17126897
-0.0095828352 0.001146795 0.1713739
-0.0094434256 -0.00060241518 0.17160825
-0.0060790298 -0.0050043105 0.17475182
-0.0027249199 0.033607814 0.14794908
-0.0032456049 0.031021832 0.14964558
-0.0028216427 0.028381146 0.15172482
-0.0028159684 0.026208615 0.15337338
-0.0027682141 0.024554467 0.15623088
-0.0024285319 0.022154139 0.1609343
-0.002354169 0.020133263 0.16238417
-0.0025628167 0.017110296 0.16421245
-0.0022819068 0.014109199 0.16659957
-0.001425324 0.010369698 0.17104472
-0.0022673439 0.0078108483 0.17196575
-0.0025091174 0.0051748627 0.17453852
-0.0038352429 0.0025354205 0.17446758
-0.0033168478 -0.00040155952 0.1748956
-0.0012431814 -0.0055881641 0.17784068
7.264634e-05 0.032713011 0.14869989
0.00071954064 0.030710276 0.15001133
0.0002415901 0.028332995 0.15231183
0.00072509941 0.026620446 0.15568414
0.0011833422 0.024051094 0.15786384
0.00062099559 0.022214999 0.16035756
0.00039299735 0.0204683 0.16288096
-3.7198137e-05 0.017542399 0.16514978
4.765618e-05 0.014630727 0.16712642
0.0015633759 0.010605711 0.17114504
0.00099290046 0.0079596993 0.17264603
0.0007014685 0.0053766994 0.1745625
9.7315758e-05 0.0026761291 0.17550564
0.00057073199 -0.00073080527 0.17737998
0.00086141296 -0.0042425781 0.1781887
0.0027041568 0.033506755 0.14877185
0.003005096 0.031249173 0.15042354
0.003338397 0.028962582 0.15224928
0.0041592042 0.026113449 0.15575953
0.0041760211 0.024333268 0.15742014
0.0036888209 0.022425536 0.15911834
0.0031746612 0.020533497 0.16089116
0.0027918736 0.017629387 0.16519037
0.002493114 0.014972976 0.16763872
0.0046304488 0.010486937 0.17068735
0.0044666482 0.0076707164 0.17236045
0.0037980212 0.0057568741 0.17366111
0.0038320657 0.0030183964 0.17546269
0.0032423844 -7.0162365e-05 0.17749448
0.0037804013 -0.0032162736 0.17833371
0.0054779607 0.033935484 0.14819285
0.0056618159 0.031875461 0.15020314
0.0057268171 0.029714108 0.1520867
0.0064876396 0.026076401 0.15555009
0.0063891411 0.024414157 0.15786865
0.0060027009 0.022675183 0.15951201
0.0061976085 0.020457612 0.16136003
0.0057009328 0.018180033 0.16314247
0.0065007727 0.013524441 0.16808286
0.0069896737 0.010799211 0.17046486
0.0071362196 0.0081399241 0.17159928
0.006834269 0.006002089 0.17395939
0.0063200947 0.0038920823 0.1763123
0.0062795789 -0.00022695764 0.17832796
0.0064815837 -0.0030065905 0.17967622
0.0078538712 0.034345005 0.14846702
0.0079631181 0.032353811 0.15063736
0.0084009357 0.0302651 0.15173472
0.0090336315 0.026982544 0.15743817
0.0084944423 0.025053216 0.15938962
0.0081996713 0.023167577 0.16012341
0.0081626922 0.020935234 0.1613912
0.0099002076 0.0153766 0.1665123
0.0096096098 0.013145658 0.16843675
0.0093666185 0.010599818 0.16987413
0.0099247815 0.0085654454 0.17128587
0.009885083 0.0065113008 0.17360915
0.0089648915 0.0035956416 0.17715827
0.010351892 -0.0017442744 0.17897242
0.01008168 -0.0039719334 0.17998774
0.010273042 0.034701236 0.1481929
0.010515527 0.03277244 0.14958724
0.010685304 0.03063577 0.15200152
0.011105255 0.027686242 0.15822485
0.010941635 0.025220197 0.15953937
0.010761408 0.023232363 0.16012704
0.010321427 0.02062594 0.16213453
0.01192352 0.015600221 0.16652855
0.011833847 0.013356413 0.16823827
0.011880119 0.010956489 0.16932403
0.012501129 0.0088534821 0.17131987
0.012471278 0.006596962 0.17410955
0.011880535 0.0031405555 0.17735454
0.013944638 -0.0019317507 0.17761452
0.012738391 0.035027709 0.14742544
0.013103875 0.032921258 0.14890689
0.013389264 0.030317796 0.15479389
0.014119655 0.027337693 0.15875955
0.013931179 0.025216263 0.15980679
0.013871508 0.023054065 0.16145095
0.013136702 0.020176068 0.16452071
0.014005837 0.016257156 0.16671795
0.013908579 0.013918688 0.16834767
0.013856145 0.011783838 0.16952646
0.014935977 0.0095273526 0.1717021
0.014410649 0.0068942485 0.17424241
0.014567928 0.0035342067 0.17639087
0.015704362 -0.00088825583 0.17564666
0.016196357 -0.0040844637 0.17610848
0.014943452 0.034976188 0.14699575
0.01620519 0.032227613 0.14864539
0.016091116 0.028717518 0.15540487
0.016161498 0.025470963 0.16011493
0 0 0 1 0 0 0 1 0 0 0 1 0 0 0 0 0 240 1 0 0
