ply
format ascii 1.0
comment PCL generated
element vertex 240
property float x
property float y
property float z
element camera 1
property float view_px
property float view_py
property float view_pz
property float x_axisx
property float x_axisy
property float x_axisz
property float y_axisx
property float y_axisy
property float y_axisz
property float z_axisx
property float z_axisy
property float z_axisz
property float focal
property float scalex
property float scaley
property float centerx
property float centery
property int viewportx
property int viewporty
property float k1
property float k2
end_header
-0.027978154 0.033038791 0.14616185
-0.027631549 0.03061212 0.14662829
-0.027192164 0.028320657 0.14855808
-0.026944865 0.026159259 0.15031734
-0.02664094 0.023911105 0.15335265
-0.027340766 0.020890521 0.15696841
-0.03128219 0.015369894 0.16157199
-0.031769026 0.012598298 0.1628456
-0.031884249 0.0095461505 0.16367732
-0.031963464 0.0063023479 0.16417363
-0.032380037 0.0028104123 0.16511299
-0.032579575 -0.00019333954 0.16687678
-0.032613531 -0.0028030344 0.16802378
-0.02571452 0.033172086 0.14552136
-0.025070697 0.030636698 0.14663404
-0.024517912 0.028238209 0.1477571
-0.024240427 0.026208907 0.14970988
-0.023912657 0.024232104 0.1520634
-0.024614148 0.020868929 0.1545129
-0.025409712 0.01718599 0.15944438
-0.027153211 0.013537174 0.16141982
-0.028017096 0.010297783 0.1624472
-0.028889216 0.0069523547 0.16286896
-0.028968701 0.0035301223 0.16400784
-0.029644711 0.00014268888 0.16618894
-0.029768335 -0.0026907597 0.16863924
-0.027188934 -0.0053774938 0.16860409
-0.022699567 0.03359409 0.14547476
-0.021738486 0.031102015 0.14689881
-0.021602063 0.028807964 0.1478125
-0.021503445 0.026656318 0.14993432
-0.021473547 0.02411606 0.15161565
-0.02201901 0.021011187 0.1553185
-0.022840932 0.017301818 0.15886611
-0.023520593 0.013824707 0.16041516
-0.024338478 0.010854401 0.16151257
-0.026095713 0.0070649632 0.16269225
-0.025375504 0.0029921657 0.16545424
-0.024560817 0.00036646027 0.16705772
-0.024586866 -0.0025925268 0.16845044
-0.023929324 -0.0049071973 0.16887011
-0.023296909 -0.0073726722 0.16958171
-0.018181235 0.033841625 0.14678782
-0.018684005 0.03164408 0.14781232
-0.018860873 0.029328467 0.14832304
-0.01921544 0.027397159 0.15080714
-0.019055583 0.024281658 0.15145303
-0.019248202 0.021626029 0.15472792
-0.020386737 0.017662304 0.15908553
-0.020537555 0.014431775 0.15992816
-0.020938484 0.011184472 0.1619627
-0.022407372 0.0049757729 0.16500841
-0.022710185 0.0025620391 0.1669483
-0.022341745 0.00061248068 0.16867414
-0.022241527 -0.0015706576 0.16960974
-0.02182878 -0.0038393773 0.16984363
-0.021298431 -0.0062999763 0.17135911
-0.015126728 0.034106441 0.14780279
-0.015840771 0.031837702 0.1485159
-0.016002905 0.029714869 0.14862533
-0.016593155 0.027136123 0.15134743
-0.016658327 0.024380207 0.15254521
-0.016846418 0.021895308 0.15499182
-0.017632041 0.017829793 0.15945148
-0.017897109 0.014544814 0.16049139
-0.018114431 0.011477167 0.16258803
-0.018532543 0.0060400618 0.16651314
-0.0193827 0.0034537259 0.16805744
-0.019851372 0.0009490457 0.17004111
-0.020036027 -0.00091848383 0.17014942
-0.019370006 -0.0033299499 0.17098871
-0.018454595 -0.0053516077 0.17179959
-0.012644738 0.034105465 0.14832942
-0.013005605 0.03183021 0.14913547
-0.013533441 0.029278794 0.15023264
-0.013892281 0.02679711 0.1518117
-0.014168601 0.024472639 0.15326364
-0.014295752 0.021982528 0.15496749
-0.014854674 0.018727031 0.15890363
-0.015340062 0.014764888 0.16053154
-0.015241343 0.011368399 0.16329862
-0.016266581 0.006380558 0.16707419
-0.017844051 0.0035834506 0.1692398
-0.018297287 0.0014465499 0.17051697
-0.017978141 -0.00034787646 0.17142104
-0.017666683 -0.0028807367 0.17120914
-0.015893681 -0.0049323877 0.17106186
-0.010143877 0.034266341 0.14837457
-0.010380281 0.032020368 0.14948031
-0.01090503 0.028952993 0.15149672
-0.011462316 0.026436955 0.15258124
-0.011428497 0.024356371 0.15373726
-0.011217464 0.022101641 0.15619245
-0.010750884 0.019518204 0.15837467
-0.012106405 0.015480706 0.15980744
-0.011601245 0.012124142 0.16359204
-0.012690163 0.007935252 0.16728735
-0.015888052 0.0040823016 0.16942798
-0.015753478 0.0019761557 0.17082682
-0.015519476 -7.0061142e-05 0.17183661
-0.015147187 -0.0016709846 0.17173579
-0.013692231 -0.0042824685 0.17128581
-0.0077173305 0.034484923 0.1486315
-0.0081692915 0.031853467 0.15021724
-0.0085153114 0.02875937 0.15210077
-0.008407617 0.026523672 0.15288052
-0.0083539328 0.024432465 0.15390366
-0.0077671167 0.022079425 0.15789701
-0.0074368543 0.019126685 0.15937446
-0.0073402203 0.016542707 0.16061087
-0.0076285871 0.01336951 0.16373688
-0.0075217718 0.010444885 0.16776581
-0.011828335 0.0049214531 0.17030174
-0.013158274 0.0025599767 0.17152642
-0.012624769 0.00080136629 0.17205849
-0.011988322 -0.0010508811 0.17174229
-0.011702761 -0.002950869 0.17235187
-0.0050143111 0.034371283 0.14859828
-0.0056854687 0.031373326 0.15091506
-0.005989952 0.028586563 0.15216489
-0.0056666862 0.026602328 0.15362523
-0.0056123324 0.024497248 0.15543313
-0.004940744 0.021870311 0.15954682
-0.0049539162 0.019560808 0.16067936
-0.0051644505 0.016864663 0.16190642
-0.0049175527 0.013651513 0.16487159
-0.0045845537 0.0098971333 0.16864352
-0.0054348772 0.0067404741 0.17056929
-0.0087294588 0.0039700121 0.17194913
-0.0096712681 0.00096154975 0.17188346
-0.0095681772 -0.00074718613 0.17199437
-0.0064572971 -0.0050358688 0.17539491
-0.002643045 0.034181304 0.14887305
-0.003211675 0.031395085 0.15017766
-0.002803884 0.028617747 0.15182294
-0.0028067983 0.026315451 0.15325059
-0.0026902887 0.024543505 0.15601805
-0.0023517669 0.021948438 0.16044138
-0.0022733451 0.019885566 0.16179579
-0.0024681906 0.016874483 0.16358367
-0.0021906772 0.013827112 0.1659383
-0.001398258 0.0097447867 0.17022416
-0.0023743366 0.0073415753 0.17145753
-0.0027000436 0.0049445825 0.17424403
-0.0040813419 0.0023467666 0.17448813
-0.0036860877 -0.00046488486 0.17549767
-0.0017065272 -0.0053716227 0.17883058
0.00021607385 0.033382494 0.14952919
0.00087035802 0.031328347 0.15067908
0.00038085846 0.028747274 0.15261257
0.0010119807 0.026466101 0.15533714
0.0013867985 0.023934275 0.15755074
0.00071432762 0.022105657 0.16001457
0.00039813278 0.020263575 0.16242464
7.7290106e-06 0.0172607 0.16454704
0.00010591384 0.014306805 0.16649337
0.0015946014 0.01007026 0.17052364
0.00091457326 0.0074264463 0.17200638
0.00049664924 0.0050356188 0.17429465
-0.00014956681 0.0025112981 0.1755766
0.00018618339 -0.00063435402 0.17801858
0.00039126581 -0.0040451768 0.17913659
0.002858876 0.034201361 0.14959775
0.0031567537 0.031841092 0.15110503
0.0034857735 0.029434565 0.15280035
0.0043917354 0.026173316 0.15584186
0.0043707048 0.024380863 0.15742505
0.003777358 0.022457443 0.15902692
0.0032661515 0.020541225 0.16075708
0.0027727962 0.017427968 0.1647274
0.0024922998 0.014700936 0.16712599
0.0046945219 0.010047418 0.17033839
0.0044624098 0.007153587 0.17190187
0.0036509742 0.0053139636 0.17345956
0.0035515004 0.0028564606 0.1757087
0.0028322157 -1.4062326e-06 0.17810947
0.0032977415 -0.0030697912 0.17925113
0.0056593963 0.034655429 0.1490092
0.0058212657 0.032473955 0.15090296
0.0058749109 0.030201461 0.15267976
0.0066499058 0.026253711 0.15580899
0.0064684888 0.024554832 0.15807459
0.0060255788 0.0228632 0.15970385
0.0061643408 0.020679908 0.1615729
0.0056455377 0.018314317 0.16316153
0.0066858009 0.013680011 0.16881613
0.0069906544 0.010540594 0.17056909
0.0071100532 0.0077814078 0.17156529
0.0066010929 0.0057060285 0.17403097
0.0059062447 0.0037307516 0.17647523
0.0058337273 -0.00013844421 0.17900559
0.0059652561 -0.0028062982 0.18056992
0.008055185 0.03502588 0.14919785
0.0081721256 0.032889672 0.15132415
0.0085544419 0.030762507 0.15233198
0.0091502247 0.027001686 0.15760662
0.0084861759 0.025187571 0.15959172
0.0081085069 0.023409426 0.16043186
0.0080134729 0.021368712 0.1619492
0.010124331 0.015680717 0.16783139
0.009744077 0.013259198 0.16943559
0.0094323456 0.010492361 0.17035906
0.0098833879 0.0083603999 0.17169249
0.0096357595 0.0063220202 0.17407222
0.0085234903 0.0033315686 0.1776313
0.0097933123 -0.0018496582 0.17951705
0.0094609642 -0.0039759334 0.18070935
0.010535593 0.035278853 0.14888363
0.010730611 0.033282254 0.15017234
0.01085316 0.031049812 0.15252751
0.01123644 0.027600911 0.15824842
0.010927643 0.025347015 0.15982324
0.010641247 0.023519723 0.16068806
0.0099342177 0.021333557 0.16308223
0.012095451 0.01582641 0.16785309
0.011941826 0.013433453 0.16933449
0.011973863 0.01090613 0.17010839
0.012457866 0.0085986005 0.17188467
0.012224765 0.0063030659 0.17469698
0.011488572 0.0027911656 0.17773086
0.013292634 -0.0023400472 0.17793234
0.013044519 0.035518289 0.14804918
0.0133596 0.033311378 0.14939959
0.013654546 0.03022095 0.15501435
0.014183451 0.027426327 0.15919082
0.013905637 0.025397083 0.16034955
0.013746843 0.023386005 0.16219108
0.01301883 0.020453244 0.16529599
0.014165072 0.016328881 0.1679375
0.01400003 0.013882396 0.16940847
0.013892958 0.011660635 0.17040966
0.01488408 0.0091562662 0.17241581
0.014166975 0.0064619076 0.17479156
0.01417395 0.0030488425 0.17671263
0.015005137 -0.0014525236 0.17584796
0.015353687 -0.0046550636 0.17642125
0.015275685 0.035371527 0.14758658
0.016487936 0.032383349 0.14898837
0.016370162 0.028696764 0.15600479
0.016115922 0.025719438 0.16082551
0 0 0 1 0 0 0 1 0 0 0 1 0 0 0 0 0 240 1 0 0
