ply
format ascii 1.0
comment PCL generated
element vertex 240
property float x
property float y
property float z
element camera 1
property float view_px
property float view_py
property float view_pz
property float x_axisx
property float x_axisy
property float x_axisz
property float y_axisx
property float y_axisy
property float y_axisz
property float z_axisx
property float z_axisy
property float z_axisz
property float focal
property float scalex
property float scaley
property float centerx
property float centery
property int viewportx
property int viewporty
property float k1
property float k2
end_header
-0.027884852 0.032741401 0.14532809
-0.027483594 0.030365529 0.14588656
-0.027065434 0.028221192 0.14795619
-0.026840486 0.026169064 0.14984749
-0.026521243 0.024082817 0.15302457
-0.027241381 0.020977896 0.15649153
-0.031438075 0.014892116 0.16016939
-0.031921066 0.012147817 0.1615032
-0.031963509 0.0091300774 0.16249657
-0.031962268 0.0059491363 0.16333993
-0.032362986 0.002461409 0.16444097
-0.032557111 -0.00054734963 0.16621932
-0.032578889 -0.003172416 0.16736634
-0.025603823 0.032919943 0.14478964
-0.02492854 0.030443931 0.14599495
-0.024368305 0.028123448 0.14722183
-0.024127405 0.026218653 0.14931928
-0.023819864 0.024368107 0.15184876
-0.024508474 0.021013414 0.15406846
-0.02541035 0.016965548 0.15841436
-0.027250808 0.013163055 0.16019805
-0.028075967 0.0099350745 0.16130167
-0.028865801 0.0065899058 0.16198257
-0.028951479 0.0032364891 0.16346914
-0.029623209 -0.00015200945 0.1656473
-0.029739957 -0.0030337968 0.16798492
-0.027190074 -0.0055979816 0.16822018
-0.022609919 0.033426881 0.14488971
-0.021615779 0.030952001 0.1463466
-0.021474564 0.028710226 0.14737359
-0.02141306 0.026693193 0.14965957
-0.021385221 0.024279028 0.15149598
-0.021913584 0.021070855 0.154875
-0.022799581 0.017088417 0.15791063
-0.023522694 0.013529994 0.15922531
-0.024348872 0.010555415 0.16041325
-0.026073394 0.0067274664 0.16182303
-0.025306914 0.0027420772 0.16490519
-0.024439821 0.00013146897 0.16654642
-0.024581099 -0.0027548405 0.16809234
-0.023949128 -0.0050522927 0.16860953
-0.023309804 -0.0075105731 0.16933833
-0.018200617 0.033991735 0.14672102
-0.018657137 0.031698529 0.14755183
-0.018786455 0.029327687 0.14801027
-0.019212928 0.027504992 0.15060675
-0.019001868 0.024429496 0.1514086
-0.019179799 0.021718156 0.15451272
-0.020364236 0.017439766 0.15821192
-0.020480705 0.014224563 0.15891244
-0.021001156 0.010994513 0.16114882
-0.022344191 0.0046235216 0.16438727
-0.022600459 0.0022523927 0.16637863
-0.022271236 0.00038647593 0.16819201
-0.022218194 -0.0017298331 0.16921251
-0.021821937 -0.0039858902 0.16952677
-0.021237716 -0.006445427 0.17103319
-0.015181335 0.034344379 0.14796863
-0.015856737 0.031995494 0.14844362
-0.015984247 0.029828981 0.14841022
-0.016560309 0.027252588 0.15131435
-0.016618939 0.024490301 0.15250877
-0.016796304 0.021952113 0.15488535
-0.017666075 0.017723352 0.15883
-0.017911026 0.014435009 0.15989688
-0.018294582 0.011442625 0.16230403
-0.018694263 0.0059100315 0.16635214
-0.019399378 0.0032400009 0.16769227
-0.01989026 0.00075813726 0.16965845
-0.020014245 -0.0011160925 0.169808
-0.019318335 -0.003502354 0.17060825
-0.018338332 -0.0054967026 0.17133369
-0.012683678 0.034232322 0.14835009
-0.013023603 0.031955902 0.14902405
-0.013500548 0.029314028 0.1499624
-0.013858134 0.026868099 0.15171936
-0.014118092 0.024543539 0.15320262
-0.014236825 0.0220442 0.15493006
-0.014917883 0.018861171 0.15881096
-0.015411144 0.014798714 0.16040517
-0.015547271 0.011533536 0.16360058
-0.016665485 0.0064275987 0.16726674
-0.017983854 0.0034653665 0.16899931
-0.01835824 0.0012782805 0.17017114
-0.017940952 -0.00053592428 0.17096739
-0.017621735 -0.0030660634 0.17076214
-0.015784761 -0.0049953554 0.17042872
-0.010187083 0.034258109 0.1482603
-0.010431648 0.032024611 0.1493735
-0.010881864 0.028920107 0.15126692
-0.011420365 0.026380338 0.15229696
-0.01135637 0.024305858 0.1535559
-0.011200291 0.022193545 0.1562956
-0.010916838 0.019804182 0.1588942
-0.012209408 0.015676089 0.16026075
-0.011958597 0.012470289 0.16440699
-0.013378432 0.0083240382 0.16812801
-0.016129579 0.0040919585 0.16926233
-0.015842931 0.0018835076 0.17042817
-0.015482408 -0.00021649389 0.17124148
-0.015105208 -0.0017568186 0.17107685
-0.013573675 -0.0042478442 0.17044431
-0.0077540129 0.034388173 0.14840846
-0.0082499627 0.031816904 0.14999501
-0.0084881037 0.028703853 0.15187475
-0.0083452659 0.02641285 0.1527058
-0.0082980944 0.024348289 0.15387677
-0.0079413718 0.022316147 0.15855078
-0.0077797617 0.019580271 0.16041385
-0.0077381497 0.017081184 0.1617797
-0.0079187509 0.013802566 0.16471381
-0.0077085122 0.010894245 0.1687592
-0.01224537 0.0050358465 0.17012376
-0.013277139 0.0025068983 0.17109695
-0.012624595 0.00080104265 0.17134555
-0.011965483 -0.00093550968 0.17077877
-0.011546429 -0.0028322858 0.1712833
-0.0050524897 0.034128703 0.14812744
-0.005705948 0.031184524 0.15053844
-0.0059381872 0.028470794 0.15203138
-0.0056337574 0.026526822 0.15365046
-0.0056560556 0.024539072 0.15564971
-0.0051974696 0.022261044 0.16040805
-0.00527411 0.020050677 0.1617112
-0.0055287522 0.017395185 0.16301861
-0.005202624 0.014100237 0.16584089
-0.0046043098 0.01052854 0.16963378
-0.0051640403 0.0072187195 0.17090899
-0.0089184232 0.0042679692 0.17117925
-0.0097356541 0.0012566963 0.17072466
-0.0095417378 -0.00044636018 0.17066011
-0.006030811 -0.0050997138 0.17399071
-0.0026792351 0.033863541 0.14826587
-0.0032792268 0.031098954 0.14965096
-0.0027358143 0.028420489 0.15177493
-0.0027631973 0.026213968 0.15344208
-0.0027808733 0.024625259 0.15638024
-0.0025600921 0.022371236 0.16131368
-0.0024951734 0.020341346 0.16271251
-0.0027338464 0.017325092 0.16451177
-0.0024348716 0.014273158 0.16686997
-0.0011478947 0.0099340146 0.17082794
-0.0020139625 0.0075353966 0.17174624
-0.0022282575 0.0047356607 0.17402999
-0.0036395795 0.0022134704 0.17386116
-0.0032324607 -0.00063491013 0.17448513
-0.0011433522 -0.0059411735 0.17767288
0.00017724796 0.033101469 0.14894326
0.0008135236 0.031087071 0.15017004
0.00037362805 0.028494839 0.15226237
0.00093382545 0.026281059 0.15530851
0.001251542 0.023913588 0.15767023
0.00051672244 0.022312416 0.16051058
0.00029463368 0.02054718 0.16301745
-0.00014447104 0.017581295 0.16524614
-5.9287642e-05 0.014626256 0.16721952
0.0018643928 0.0099541312 0.17070678
0.0013192412 0.0072814748 0.17205995
0.00098626816 0.004787765 0.17405924
0.00030568495 0.0022077744 0.17516436
0.00072961563 -0.0011486885 0.17730574
0.0010239027 -0.0046107732 0.17817524
0.0028251368 0.033908471 0.14896999
0.0031198012 0.031573482 0.15052074
0.0034552007 0.029187564 0.15226352
0.0042739133 0.025997693 0.15569775
0.0042718831 0.024254678 0.15736282
0.0036352985 0.022424186 0.15910213
0.0031152596 0.020574696 0.16092739
0.0026375488 0.017588083 0.16518342
0.002408993 0.01484655 0.16756399
0.0049816724 0.0095730973 0.16998497
0.0048704129 0.0067495154 0.17162016
0.0041475012 0.0049543642 0.17312524
0.0040996447 0.0023467052 0.17517507
0.0033640913 -0.00041649697 0.17759079
0.0039540417 -0.0034913702 0.17862538
0.0055903504 0.034255043 0.14824113
0.0057811276 0.032138161 0.15021302
0.0058527929 0.029907893 0.15205836
0.0065551982 0.026053149 0.15558016
0.0063838577 0.024470521 0.15791607
0.0059585241 0.022755397 0.15956652
0.0060950364 0.020574575 0.16146928
0.0055096759 0.018313181 0.1632133
0.0066890852 0.013079967 0.16807911
0.0072619817 0.0099754017 0.16993822
0.0076404181 0.0073240334 0.1713331
0.0071866284 0.0053949575 0.17384742
0.0065174811 0.0033267925 0.17617004
0.006334682 -0.00043791826 0.17869239
0.0065128421 -0.0031009587 0.18026657
0.0079642041 0.034533892 0.14826192
0.008136644 0.032500222 0.1505034
0.0085181305 0.030398093 0.15159577
0.0091204457 0.026850702 0.15730757
0.0085240267 0.025051294 0.15930787
0.0081369337 0.023271682 0.1601589
0.0080303214 0.021187916 0.16167133
0.010075737 0.015054678 0.16686703
0.0098099336 0.012702571 0.16853754
0.0097182458 0.010018467 0.16980146
0.01034366 0.0081196148 0.17152075
0.010202359 0.0062471498 0.17409897
0.008916799 0.0034125929 0.17776634
0.010469597 -0.0014262083 0.18029357
0.0101844 -0.003619428 0.18137296
0.010366733 0.034648534 0.14773186
0.010574441 0.032735549 0.14914313
0.010778711 0.030633548 0.15164632
0.011242094 0.0274616 0.15795389
0.01097288 0.025138184 0.15943122
0.010683087 0.023285067 0.16025077
0.010066312 0.021053342 0.16263686
0.012039833 0.015327128 0.16691376
0.012015541 0.013015292 0.16851677
0.012219197 0.010554098 0.16957626
0.012859644 0.0085658673 0.17175236
0.012582643 0.0068113147 0.17530064
0.011694976 0.0036518858 0.17876929
0.01430769 -0.0010645454 0.18000498
0.012758545 0.034692004 0.14664668
0.013068989 0.032573827 0.14812571
0.013542603 0.02978993 0.15410343
0.014221744 0.026990706 0.15840538
0.013959482 0.025016313 0.15964569
0.013876054 0.022996113 0.16149506
0.013194533 0.020224113 0.16474067
0.014086987 0.016003503 0.16706318
0.014052807 0.013610316 0.16860308
0.014072102 0.011469418 0.16978486
0.015222964 0.0093402341 0.17219846
0.014390224 0.0073611522 0.17571226
0.014411246 0.0044399621 0.17847475
0.016313506 0.00017161926 0.17853229
0.017072003 -0.0029668575 0.17928064
0.014901597 0.034380239 0.14599042
0.016054036 0.031393372 0.14745213
0.016195182 0.028006067 0.15496875
0.016210588 0.025173604 0.15985043
0 0 0 1 0 0 0 1 0 0 0 1 0 0 0 0 0 240 1 0 0
