ply
format ascii 1.0
comment PCL generated
element vertex 240
property float x
property float y
property float z
element camera 1
property float view_px
property float view_py
property float view_pz
property float x_axisx
property float x_axisy
property float x_axisz
property float y_axisx
property float y_axisy
property float y_axisz
property float z_axisx
property float z_axisy
property float z_axisz
property float focal
property float scalex
property float scaley
property float centerx
property float centery
property int viewportx
property int viewporty
property float k1
property float k2
end_header
-0.028407075 0.033082735 0.14658533
-0.027955046 0.030617613 0.1468865
-0.027429821 0.028263742 0.14863655
-0.027145207 0.026116846 0.15040451
-0.0268229 0.023894131 0.15349613
-0.027535401 0.020940252 0.15711628
-0.031712007 0.015387142 0.16207752
-0.03218814 0.012676031 0.16350205
-0.032310359 0.009681358 0.16462703
-0.032392237 0.0064591025 0.16546141
-0.032812372 0.0028866499 0.16636115
-0.032939997 -0.00029263119 0.16786268
-0.032823626 -0.0030768297 0.1686777
-0.026156405 0.03333341 0.14601451
-0.025399197 0.030706659 0.14692566
-0.024746915 0.028242121 0.14789306
-0.024434811 0.026230682 0.14989649
-0.024090847 0.024250258 0.15236263
-0.024762394 0.020937288 0.15474325
-0.025681838 0.017215086 0.15954204
-0.027610967 0.013569804 0.16194144
-0.028483514 0.010402797 0.16327824
-0.029349886 0.0071286042 0.16408214
-0.029432885 0.0037345802 0.16539471
-0.03004206 0.00019262024 0.16725048
-0.029999953 -0.0029296575 0.169167
-0.027411321 -0.0054224697 0.1691007
-0.023172958 0.033865381 0.14607279
-0.022080848 0.031217217 0.14722346
-0.021874372 0.028893786 0.14805849
-0.021712966 0.026733227 0.15021312
-0.021640187 0.024267847 0.15205854
-0.022188881 0.021123661 0.15560241
-0.023062907 0.017348025 0.15900464
-0.023867134 0.013881234 0.16079323
-0.024756985 0.010956815 0.16226278
-0.026571313 0.0072491607 0.163927
-0.02578334 0.0032177262 0.16681908
-0.024937196 0.00055037969 0.16827382
-0.024874609 -0.0025428969 0.16927758
-0.024136484 -0.0048128134 0.16922227
-0.023443965 -0.007311516 0.1694871
-0.018538244 0.034069587 0.14713448
-0.019016409 0.031841423 0.14814137
-0.019161146 0.029499872 0.14861074
-0.019448912 0.027515108 0.15109035
-0.019244041 0.024511427 0.15195039
-0.019413069 0.021846842 0.15517762
-0.02060152 0.017700151 0.15921187
-0.020809086 0.014506818 0.16021982
-0.021317003 0.011363227 0.16270873
-0.022874672 0.0052671889 0.16647592
-0.023083152 0.0027892496 0.16825895
-0.022621721 0.00069065031 0.16970563
-0.0224388 -0.0016240508 0.17031644
-0.021980913 -0.003839178 0.1701512
-0.021355081 -0.0064705182 0.17122978
-0.015315519 0.0341805 0.14766838
-0.016080899 0.031959485 0.14848208
-0.016307438 0.029883793 0.14868705
-0.016793935 0.027335171 0.15173119
-0.016844094 0.024622185 0.15301265
-0.01697615 0.022160834 0.15548073
-0.017822068 0.017840143 0.15954939
-0.018187471 0.014575348 0.16087072
-0.018516464 0.011625957 0.16345809
-0.018908283 0.0064089731 0.16821997
-0.019702997 0.0036025494 0.16942272
-0.020119919 0.00087675604 0.17104425
-0.020214027 -0.00092291064 0.17071594
-0.019466769 -0.003466316 0.17115819
-0.018498559 -0.0055449107 0.17160021
-0.012739774 0.033911712 0.1477942
-0.013143221 0.031707015 0.14861344
-0.013659852 0.02920974 0.14999427
-0.01406398 0.026976163 0.1521551
-0.014331033 0.02471889 0.15371902
-0.014415477 0.022236839 0.15544888
-0.014987097 0.018909806 0.15929911
-0.015632885 0.014731889 0.16102718
-0.015640311 0.011462852 0.16430467
-0.016723119 0.0066705234 0.16888207
-0.01812803 0.0036335087 0.17059679
-0.018526236 0.0013327698 0.17151193
-0.018131599 -0.00059713458 0.17200544
-0.017802209 -0.003050365 0.1713255
-0.015983451 -0.0049447445 0.17082815
-0.010223987 0.033817168 0.14760011
-0.010454334 0.031651784 0.14885192
-0.010950603 0.028858623 0.15138815
-0.011554445 0.026518457 0.15279672
-0.011525496 0.024537433 0.1541331
-0.011281683 0.022311268 0.15664466
-0.010815906 0.019745899 0.15893248
-0.012330515 0.015379949 0.16045257
-0.011856153 0.012175996 0.16460675
-0.01309671 0.0082734916 0.16909885
-0.016129108 0.004187976 0.17083625
-0.015925301 0.0018823434 0.17181034
-0.015650207 -0.00029116785 0.17237493
-0.015291562 -0.0018401218 0.17192936
-0.013778192 -0.0042694011 0.17109038
-0.007803407 0.033905499 0.1476588
-0.0082650371 0.031492759 0.14949574
-0.0085623227 0.028714323 0.15204282
-0.0084369304 0.02655088 0.15307833
-0.0083663659 0.024494447 0.1541902
-0.007734783 0.0221637 0.15838757
-0.0074326359 0.019189987 0.15986298
-0.007323931 0.016508566 0.16111535
-0.0076078163 0.01349693 0.16456875
-0.007511734 0.011059081 0.16906449
-0.012047562 0.0048541101 0.1719968
-0.013310416 0.0023310776 0.17262563
-0.012790108 0.00054002734 0.17275158
-0.012130157 -0.001111238 0.17204596
-0.01180541 -0.0030626841 0.17230974
-0.0050979042 0.03373497 0.14759359
-0.0057361233 0.031081725 0.15033373
-0.0060133385 0.028534779 0.15221342
-0.0056642722 0.026623992 0.15381458
-0.0055989632 0.024564235 0.1556921
-0.0048611718 0.021919565 0.15997061
-0.0048738196 0.019564429 0.16105472
-0.0050914683 0.016809829 0.1622977
-0.0048764208 0.013853368 0.16563086
-0.0046495106 0.010633409 0.17021035
-0.0054214676 0.0071988478 0.17233516
-0.0088905077 0.0037745738 0.17344905
-0.009792896 0.00084082288 0.17268364
-0.0097000096 -0.00080797804 0.17238796
-0.0062436406 -0.0052354299 0.17527317
-0.0027243751 0.033551283 0.14785071
-0.00327499 0.031058628 0.14966938
-0.0027816272 0.02852335 0.15184948
-0.0027908687 0.026302654 0.15344553
-0.0026661677 0.02462358 0.15630959
-0.0021542388 0.02190193 0.1607206
-0.0020748903 0.019753566 0.16193658
-0.0023242945 0.016826525 0.16384384
-0.0020944821 0.013977859 0.1665024
-0.0012928632 0.010152678 0.17163113
-0.0022746404 0.0077379378 0.17304993
-0.0024076086 0.0052290317 0.17574929
-0.0038768826 0.0026714858 0.17578828
-0.0034611407 -0.0004577089 0.17624334
-0.0011603938 -0.0056506121 0.17886934
0.00020602299 0.033200748 0.1489885
0.0010148877 0.031204507 0.15014756
0.00063537637 0.028571604 0.15218116
0.0013783887 0.026016317 0.15490381
0.0017531356 0.023537498 0.15711842
0.00094272237 0.021898996 0.15993485
0.00071446685 0.019928005 0.16228119
0.00029373923 0.017015455 0.16447981
0.00028207904 0.014225859 0.16673441
0.0017556757 0.010201662 0.17156123
0.0011422223 0.0076691117 0.17331585
0.00080031768 0.00528603 0.17550366
0.00015181914 0.0026442169 0.17661092
0.0006569656 -0.00081846607 0.17852426
0.00094555167 -0.0042773411 0.17934299
0.0027360034 0.034334537 0.14934562
0.003189876 0.031943411 0.15076621
0.0036592572 0.029490948 0.15239415
0.0047946069 0.025940277 0.15556556
0.0047630081 0.024100639 0.15710229
0.0040367572 0.022159239 0.15866628
0.0035914741 0.020165188 0.16024783
0.0031243099 0.01697633 0.16434468
0.0027431888 0.014369239 0.16700979
0.0049552354 0.0099883815 0.17126924
0.0047664694 0.0072624171 0.17304465
0.0039482196 0.0054767197 0.17448911
0.0039398153 0.0028207288 0.17647405
0.0032481737 -5.6275345e-05 0.1787758
0.0038282147 -0.0031464759 0.17973705
0.00547696 0.035176259 0.14904895
0.0057606832 0.032899659 0.15082616
0.0059475685 0.03052724 0.15249817
0.0070053353 0.026380813 0.15581088
0.006733329 0.024553763 0.15791737
0.0063406164 0.022648279 0.15927024
0.0065429602 0.02029556 0.16093208
0.0059958845 0.017825553 0.16241348
0.0068879267 0.013193259 0.16902915
0.007236104 0.010460656 0.17131668
0.0073951292 0.0079118591 0.17273691
0.0069480264 0.0060046362 0.17520365
0.0062934058 0.0039724465 0.17756306
0.0061837849 -9.322603e-05 0.17984629
0.0063780849 -0.0027927884 0.18132475
0.0077436757 0.035835814 0.14946906
0.0079784878 0.033582371 0.15146692
0.008549341 0.031427495 0.15239292
0.0091627007 0.027316665 0.15802906
0.0085470155 0.02521638 0.15966608
0.0083194729 0.023275226 0.16016437
0.0083998563 0.020967858 0.16124767
0.010290987 0.014902647 0.16747929
0.0099209715 0.012761424 0.16944161
0.009623819 0.010322395 0.17095959
0.010157908 0.0084992787 0.17270172
0.0099777179 0.0067129987 0.17532775
0.0087929582 0.0039405199 0.17907146
0.010271331 -0.0013462688 0.18099962
0.0099651711 -0.0035076011 0.18205827
0.01012099 0.036410257 0.14935133
0.010464885 0.034381948 0.15055689
0.010715088 0.032014899 0.15279838
0.011056588 0.028091241 0.15909702
0.010898047 0.025570145 0.1602159
0.010786202 0.02356891 0.16062491
0.010284018 0.020759532 0.16231985
0.012241107 0.015102868 0.1674245
0.012107886 0.012959506 0.16923511
0.012149399 0.010702056 0.17057356
0.01268695 0.0089035537 0.17294143
0.012491729 0.0069252662 0.17620687
0.011715346 0.0037052592 0.17958516
0.014060558 -0.0013026793 0.18027517
0.012566903 0.036985096 0.14867568
0.013036739 0.034775265 0.1499535
0.01347443 0.031206192 0.15591013
0.014023659 0.027902419 0.16009034
0.013814481 0.025793469 0.16102591
0.013798269 0.023501635 0.16246668
0.013140899 0.020153886 0.16509682
0.014298982 0.015726237 0.16743191
0.014166741 0.013491467 0.1692239
0.014071274 0.011505796 0.17062357
0.015056 0.0096790949 0.17338832
0.014348136 0.0072695403 0.17640114
0.014440687 0.00412915 0.17887406
0.015944492 -0.00021836084 0.17857814
0.016580923 -0.003367932 0.17918628
0.014785698 0.037099496 0.14830866
0.016237246 0.034186099 0.14960556
0.016430264 0.029459577 0.15722053
0.015981931 0.026193846 0.16168313
0 0 0 1 0 0 0 1 0 0 0 1 0 0 0 0 0 240 1 0 0
