ply
format ascii 1.0
comment PCL generated
element vertex 240
property float x
property float y
property float z
element camera 1
property float view_px
property float view_py
property float view_pz
property float x_axisx
property float x_axisy
property float x_axisz
property float y_axisx
property float y_axisy
property float y_axisz
property float z_axisx
property float z_axisy
property float z_axisz
property float focal
property float scalex
property float scaley
property float centerx
property float centery
property int viewportx
property int viewporty
property float k1
property float k2
end_header
-0.028634267 0.03282069 0.14573883
-0.028198155 0.030455142 0.14637122
-0.027648844 0.028347427 0.14848472
-0.027311258 0.026334442 0.15045331
-0.026764395 0.024309296 0.15385801
-0.02720736 0.021385059 0.15764026
-0.031127086 0.015550246 0.16351461
-0.031579018 0.012782552 0.16482806
-0.031752426 0.0097185373 0.16580935
-0.03198101 0.0064604706 0.16648343
-0.03254547 0.0028398673 0.16720165
-0.032649193 -0.0004467456 0.16845769
-0.03253381 -0.0032924705 0.16906489
-0.026396049 0.032978114 0.14505094
-0.02563875 0.030541938 0.14637871
-0.024992924 0.028241165 0.14764635
-0.024627943 0.026362397 0.14980415
-0.024155231 0.024436181 0.15235172
-0.02475285 0.021251326 0.15489326
-0.025349449 0.017311944 0.15976663
-0.027254289 0.013493299 0.16267641
-0.028178401 0.010235006 0.16393943
-0.029177267 0.0069904998 0.16465746
-0.029360222 0.0035206552 0.16577129
-0.029867023 -5.5138222e-05 0.16746968
-0.02963301 -0.003318334 0.16911384
-0.026483171 -0.0065302975 0.16815835
-0.023388315 0.033481553 0.14498903
-0.022264168 0.031073516 0.14665554
-0.022067133 0.028836029 0.14767148
-0.021868743 0.026805921 0.14994997
-0.021752166 0.024361907 0.15175235
-0.02208613 0.021236483 0.15538141
-0.022812799 0.017254515 0.15860385
-0.023606898 0.013740005 0.1607786
-0.024559908 0.010721918 0.16236001
-0.026508832 0.0068675731 0.1639888
-0.025223965 0.002170136 0.16580804
-0.02350804 -0.0013906281 0.16607238
-0.023728179 -0.0040405951 0.16763198
-0.023044067 -0.0060417717 0.1682516
-0.022444049 -0.0083122561 0.16903217
-0.018620325 0.03393589 0.14645237
-0.019105801 0.0317467 0.14751361
-0.01928102 0.029430026 0.1480893
-0.019545117 0.027609056 0.1506637
-0.019337429 0.024565507 0.15151109
-0.01933096 0.021918157 0.15472367
-0.020351298 0.017459003 0.15832473
-0.020569367 0.01421143 0.15946984
-0.02094361 0.010811346 0.16202143
-0.02164026 0.0036420841 0.16470909
-0.021686068 0.0011012318 0.16607709
-0.02158729 -0.00069233554 0.16786057
-0.021693746 -0.0027218636 0.1689918
-0.021249477 -0.00472508 0.16944231
-0.020895837 -0.007068512 0.1709339
-0.015414257 0.034191623 0.14726357
-0.01616112 0.031944241 0.14801016
-0.016383456 0.029854605 0.14822342
-0.016866077 0.027400762 0.15117875
-0.016880097 0.02471669 0.15247376
-0.016920792 0.02239605 0.15497778
-0.017569834 0.017610671 0.15833789
-0.01788995 0.014064397 0.15968746
-0.018157164 0.010882043 0.16245697
-0.017778495 0.0051559554 0.16679418
-0.018846417 0.0025297501 0.16809458
-0.019718779 0.00011055199 0.1699371
-0.019668603 -0.0017008731 0.16984947
-0.01911092 -0.0039992984 0.17096218
-0.018280838 -0.0059181498 0.17186803
-0.012843418 0.034010004 0.14755487
-0.013216084 0.031802937 0.14833291
-0.013735044 0.02928911 0.14960715
-0.014108407 0.026998905 0.15148181
-0.014333338 0.024818635 0.15306196
-0.01436322 0.022438552 0.15477462
-0.014779803 0.018916624 0.15834196
-0.015373206 0.014156028 0.15978865
-0.015399411 0.010742151 0.16337597
-0.015881788 0.0056812153 0.16804884
-0.01763491 0.0029210935 0.16964447
-0.018283315 0.00080502738 0.17073075
-0.018094759 -0.0009771008 0.17163873
-0.017630596 -0.0034794647 0.17163119
-0.015685044 -0.0052379579 0.17176728
-0.010329566 0.033953439 0.14731912
-0.010510108 0.031774074 0.14851378
-0.010978987 0.028845668 0.15079962
-0.011525187 0.026456073 0.15201771
-0.011470815 0.024541004 0.15326594
-0.011139779 0.022439783 0.15569314
-0.010506999 0.019799354 0.15761605
-0.01214756 0.015068762 0.15951592
-0.011835776 0.011873895 0.16402502
-0.012764301 0.0077998531 0.16893803
-0.015730055 0.0037086857 0.17059143
-0.015911194 0.001598406 0.17196336
-0.015895585 -0.00045353561 0.17287424
-0.015514679 -0.0020910068 0.17289062
-0.013776351 -0.0044229631 0.17273384
-0.0079441778 0.034031436 0.14734508
-0.0083040334 0.031626582 0.14914045
-0.0085327625 0.028716272 0.1513581
-0.0082861045 0.026540918 0.15229088
-0.0081401812 0.02450767 0.15332086
-0.0073669897 0.022124305 0.15706775
-0.0071288184 0.019222178 0.15847902
-0.0073905452 0.01673026 0.16024876
-0.0079016862 0.013788477 0.1641849
-0.0077598109 0.011398391 0.16884673
-0.012327668 0.0046064742 0.17294012
-0.013692824 0.0021625881 0.17352757
-0.013252945 0.00041426363 0.17402442
-0.012527783 -0.0012631442 0.17389728
-0.012406567 -0.0030929479 0.17447564
-0.0052070376 0.033921774 0.14733012
-0.0057551758 0.031249825 0.14998111
-0.0058866227 0.028652305 0.1515929
-0.0054637566 0.026741507 0.15314686
-0.0053693987 0.024622047 0.15496659
-0.0045509008 0.021847324 0.15876482
-0.0046555153 0.019540753 0.15983881
-0.0052118097 0.016995672 0.16153218
-0.0051516737 0.014068857 0.16518155
-0.0048529515 0.010797634 0.17000043
-0.0056081545 0.0074086627 0.17235623
-0.0096507855 0.0040450636 0.17505749
-0.010285593 0.00099489908 0.17458378
-0.010215881 -0.00071841513 0.17472073
-0.0070665837 -0.0049813571 0.17694034
-0.0028394605 0.033708576 0.14750688
-0.0033352948 0.031196041 0.14925331
-0.0025748701 0.028775197 0.1514551
-0.0025239203 0.026544191 0.15294968
-0.0024181481 0.024787987 0.15582031
-0.0020339277 0.021748163 0.1598085
-0.002036727 0.019543188 0.16085985
-0.002479888 0.01685705 0.16317947
-0.0023885642 0.014098482 0.16600639
-0.0014611841 0.010166304 0.17143916
-0.0024018101 0.0078028617 0.17289045
-0.0024172554 0.0052779578 0.17539488
-0.0040781959 0.0030631931 0.17575948
-0.0037857967 2.6730084e-05 0.17708282
-0.0014391958 -0.0056513571 0.17881083
0.00038791419 0.032872416 0.14872433
0.0012205893 0.030899495 0.15008944
0.00072638382 0.028507458 0.15222843
0.0013870723 0.026455045 0.15553933
0.0017470476 0.023912061 0.15778264
0.00099216693 0.022017194 0.1598025
0.00055267796 0.01991808 0.16191012
0.00010007016 0.016977871 0.16389751
-1.1005599e-05 0.014273436 0.16628894
0.0016015064 0.010137697 0.17130494
0.0010218178 0.0074934163 0.17288782
0.00070636213 0.0050993715 0.1749121
-0.000129767 0.00263532 0.17617795
0.00044675448 -0.00089401385 0.17818235
0.00064792874 -0.0044315509 0.17889199
0.0030303644 0.033942301 0.14917637
0.003411876 0.031600378 0.15069602
0.0037839338 0.02920948 0.15245304
0.0047386317 0.026120046 0.15613057
0.0047034994 0.024393348 0.15771931
0.0040564509 0.022373939 0.15908651
0.0035100672 0.020493878 0.16067764
0.0029121579 0.017026862 0.16405401
0.0024348018 0.014415151 0.16664527
0.0048254863 0.009740524 0.17095444
0.0046284329 0.0069221989 0.17239104
0.0037777922 0.0051052375 0.17365168
0.0037447128 0.0023658057 0.1755587
0.0031217276 -0.00046370921 0.17790049
0.0035721106 -0.0036304323 0.17872375
0.0058054626 0.034766007 0.14893161
0.006006442 0.032514408 0.15076044
0.0061064358 0.030173365 0.15250853
0.0069484254 0.026219094 0.15612271
0.0066326633 0.02462415 0.15837385
0.0062118056 0.022977142 0.15985766
0.0062209428 0.020975145 0.16186105
0.0056508859 0.018501354 0.16326302
0.0068543237 0.013247482 0.16947088
0.0070773084 0.01028733 0.17129669
0.0072528445 0.0076409108 0.17223904
0.0068205963 0.0052989088 0.17413113
0.0062120371 0.0029483489 0.17609788
0.0062116268 -0.00085404457 0.17841604
0.0063612242 -0.0036228008 0.17978461
0.0080993688 0.035409059 0.14939876
0.0082383901 0.033183504 0.151426
0.0087342123 0.031021131 0.15240993
0.0093277851 0.02691623 0.15794131
0.0085538514 0.025248047 0.15985408
0.0081318785 0.023578465 0.16067317
0.0079048518 0.021868477 0.16245206
0.010131786 0.015446153 0.16884503
0.0097665293 0.012978788 0.17031778
0.0094099762 0.010417226 0.17122617
0.009967301 0.0082785273 0.17241712
0.0098570185 0.0059348773 0.17445478
0.0088587888 0.0024366165 0.17746037
0.010188964 -0.002744281 0.17866965
0.0098377671 -0.0049257884 0.17959198
0.010517379 0.035874434 0.14926578
0.010763476 0.033864755 0.15051259
0.010914082 0.031550273 0.15281065
0.011383039 0.02746976 0.15861525
0.010921739 0.025402218 0.16029258
0.010578623 0.023747187 0.16120392
0.0096300337 0.021880999 0.16382383
0.011968229 0.015755694 0.16897368
0.011806156 0.013344754 0.17040271
0.011899727 0.010990573 0.17113054
0.012473756 0.0086037153 0.1726812
0.012455513 0.0058904598 0.17521672
0.011816042 0.0020465537 0.17773004
0.013777298 -0.0029674398 0.17726235
0.012992495 0.036226068 0.14848691
0.013340226 0.033997927 0.14978121
0.013909838 0.030203698 0.15550469
0.014371861 0.027293548 0.15979096
0.01394372 0.025461888 0.16104218
0.013713988 0.023728011 0.16301176
0.01283168 0.020974195 0.1662678
0.013900934 0.016440606 0.16917762
0.01379357 0.013950972 0.17055146
0.013738168 0.011763809 0.17146406
0.014852115 0.0091966493 0.17325157
0.014358112 0.0060410225 0.17534189
0.014477764 0.0025017203 0.17679708
0.015502629 -0.0017605759 0.17545201
0.015879896 -0.0050116223 0.17547837
0.015202024 0.036091153 0.1479843
0.016456721 0.032928448 0.14912525
0.016733512 0.028370738 0.15680739
0.016209649 0.025732335 0.16156554
0 0 0 1 0 0 0 1 0 0 0 1 0 0 0 0 0 240 1 0 0
