ply
format ascii 1.0
comment PCL generated
element vertex 240
property float x
property float y
property float z
element camera 1
property float view_px
property float view_py
property float view_pz
property float x_axisx
property float x_axisy
property float x_axisz
property float y_axisx
property float y_axisy
property float y_axisz
property float z_axisx
property float z_axisy
property float z_axisz
property float focal
property float scalex
property float scaley
property float centerx
property float centery
property int viewportx
property int viewporty
property float k1
property float k2
end_header
-0.024682267 0.034897424 0.1462211
-0.024678301 0.032599725 0.14637646
-0.024813944 0.030635646 0.14853381
-0.024972949 0.028437974 0.15018567
-0.025145935 0.026407406 0.15235911
-0.025752461 0.023918513 0.15612252
-0.027180988 0.021835107 0.16094124
-0.027478525 0.019473394 0.16307591
-0.027657673 0.016875993 0.16423613
-0.027562225 0.014201595 0.16530384
-0.027604947 0.011456224 0.16615233
-0.027832547 0.0085875355 0.16798699
-0.027788758 0.005798867 0.16776492
-0.022282286 0.034731299 0.14560042
-0.022188125 0.032555345 0.14664537
-0.022272997 0.030567661 0.14845932
-0.022464933 0.028385133 0.1500866
-0.022519797 0.02634478 0.15188698
-0.022961793 0.023835063 0.15458372
-0.023544997 0.021146538 0.15852763
-0.023983644 0.019024918 0.1606037
-0.024306417 0.016713645 0.16300811
-0.024516398 0.014176893 0.16417646
-0.024607537 0.01154732 0.16524139
-0.024937052 0.0087087834 0.16752136
-0.025092222 0.0057612243 0.16950913
-0.024620054 0.0027626604 0.1712174
-0.019676611 0.034866482 0.14575304
-0.019659514 0.032952327 0.14793323
-0.019744348 0.030687338 0.14884925
-0.019876614 0.02838248 0.15028737
-0.020059472 0.026210016 0.15171799
-0.020347325 0.023858035 0.15517086
-0.020896511 0.021348726 0.15887453
-0.0211458 0.018953834 0.16059509
-0.021375114 0.016652441 0.16254574
-0.021803448 0.014416452 0.16465993
-0.022022255 0.011681706 0.16752885
-0.022012103 0.008669192 0.16919272
-0.021892762 0.0055203 0.17093936
-0.021892514 0.0025990454 0.1716812
-0.021854591 -0.00024636841 0.17250372
-0.016834131 0.035097763 0.14689995
-0.017169749 0.03298907 0.14834148
-0.017137701 0.030612692 0.14874287
-0.017312801 0.028653672 0.15093254
-0.017465612 0.02628036 0.15183251
-0.017709583 0.023897704 0.15494025
-0.018211452 0.021596853 0.15940349
-0.018323613 0.01897471 0.1602851
-0.018687077 0.016594646 0.16285989
-0.018799806 0.014320832 0.16552596
-0.019184649 0.011464496 0.16907398
-0.019204253 0.0086266836 0.17013307
-0.01926603 0.0057709501 0.17218734
-0.01937109 0.0029241927 0.17344104
-0.019637484 -7.4192889e-05 0.17474091
-0.014280636 0.035178915 0.14708197
-0.014574888 0.033014398 0.14845191
-0.01456748 0.030693805 0.14860098
-0.014845213 0.0286032 0.15099014
-0.014993804 0.026268329 0.15263461
-0.015159598 0.023939451 0.15526918
-0.01546615 0.021776242 0.16015673
-0.015585387 0.019025255 0.16057478
-0.015870295 0.016622819 0.16290729
-0.016009424 0.013996646 0.16565524
-0.016032837 0.011179389 0.1680958
-0.016445821 0.0086639188 0.17119762
-0.016903372 0.0059857601 0.17451888
-0.017013598 0.0029386547 0.17558011
-0.016600356 -0.00015098283 0.17494331
-0.01186598 0.035167679 0.14705177
-0.012050495 0.033007286 0.1485077
-0.012072606 0.030732362 0.14974566
-0.01220768 0.028283907 0.1513561
-0.012383533 0.026096892 0.15300338
-0.012553889 0.023909351 0.15523942
-0.012795131 0.021664808 0.15911746
-0.01281351 0.019063905 0.16050945
-0.012915101 0.016547929 0.16252078
-0.013194101 0.013936859 0.16615088
-0.013225487 0.011068447 0.16998683
-0.01377171 0.0088283736 0.17376284
-0.014116315 0.0060677868 0.17616881
-0.014229912 0.0031915219 0.17593448
-0.013087417 -0.00025672404 0.17383911
-0.0093970727 0.035169702 0.14680535
-0.0095072007 0.033109151 0.14821555
-0.009597105 0.0308342 0.15067461
-0.0096878409 0.028177159 0.15168159
-0.0096037555 0.026013574 0.15349028
-0.0097854231 0.023940833 0.15591633
-0.0097425859 0.021538684 0.15843828
-0.0099139465 0.019038931 0.15924665
-0.010057269 0.016551966 0.16261588
-0.010571994 0.014253132 0.16686121
-0.010377032 0.011166236 0.17198041
-0.01113775 0.0089631714 0.1749924
-0.011028362 0.0060557984 0.17573211
-0.010881488 0.0031967231 0.17560214
-0.010604398 8.6712971e-06 0.17508055
-0.006875765 0.035286933 0.14694785
-0.006961355 0.03311279 0.14850664
-0.0070663793 0.03091375 0.15110907
-0.0068574101 0.028296813 0.1516282
-0.0068442919 0.02607798 0.15344545
-0.0070647402 0.024282072 0.15708065
-0.0071057756 0.021590861 0.15938097
-0.0068270201 0.018908456 0.16010499
-0.0071731089 0.016621156 0.16325672
-0.0077392757 0.014444497 0.16793735
-0.0073521454 0.011449133 0.17222527
-0.0080749579 0.0089448299 0.17514193
-0.0081697013 0.0061814957 0.17637041
-0.0081262644 0.0033070603 0.17682154
-0.0086443946 0.0010305968 0.17874677
-0.0043973853 0.035298895 0.14726441
-0.004444866 0.033135891 0.14895248
-0.004373644 0.030896377 0.15090743
-0.0042031799 0.028609918 0.15289345
-0.0043244823 0.026595855 0.15531574
-0.0046249912 0.024655294 0.15978201
-0.0044950843 0.02197784 0.1607652
-0.0045107324 0.019348545 0.16190149
-0.0046927677 0.016975977 0.16482358
-0.0049287514 0.014678095 0.16935052
-0.0046608425 0.011854159 0.1734411
-0.005025926 0.0093665691 0.17633979
-0.0052859969 0.0065524131 0.17720824
-0.0052954182 0.0036697832 0.1775097
-0.0050159376 0.00042487829 0.18079509
-0.0019242781 0.035384335 0.14778747
-0.0019258461 0.033082034 0.14906543
-0.0015595672 0.030478917 0.15037198
-0.0015659644 0.02837671 0.15244861
-0.001554669 0.026516192 0.15503141
-0.0018081884 0.024849869 0.15964572
-0.0018855069 0.022290833 0.16115089
-0.00186025 0.019826069 0.16340771
-0.0017641453 0.017430717 0.16586244
-0.0019655093 0.01504876 0.1710365
-0.0018312216 0.012264573 0.17428459
-0.0019428764 0.0097014317 0.17680378
-0.0020813777 0.0068387105 0.17818503
-0.0019501559 0.0037202439 0.17844491
-0.0017361558 0.0005668361 0.18223375
0.0004544229 0.035297379 0.14899275
0.00065596943 0.033110715 0.15026239
0.0007632607 0.030650482 0.15169841
0.0010993415 0.028658535 0.15364999
0.0009772667 0.026624983 0.1566117
0.00090026914 0.024628801 0.1593647
0.00088240061 0.02241067 0.16174173
0.00078725856 0.020171877 0.16427712
0.00083966885 0.017865499 0.16679369
0.0009148629 0.015193446 0.17101458
0.0010009081 0.012409224 0.17435695
0.0011863114 0.0097201141 0.17621395
0.001038887 0.006777246 0.17748807
0.00106039 0.0039007831 0.17912914
0.0011360511 0.00082391035 0.18122043
0.0029379562 0.035694893 0.14938881
0.003038503 0.033422027 0.15102281
0.0032595 0.031048961 0.15235807
0.0036689998 0.028711876 0.15439475
0.0036903762 0.026551262 0.1566063
0.0036227766 0.024548937 0.1589545
0.0036167465 0.02217344 0.1606749
0.0035928832 0.020134056 0.16434163
0.0036100559 0.017887978 0.16717765
0.003726678 0.015348488 0.17065446
0.0038688488 0.012298343 0.1736739
0.0038903386 0.0094856974 0.1748382
0.0040114154 0.0066735712 0.17553014
0.0039746272 0.0038356292 0.1786249
0.0040032463 0.00092397275 0.179629
0.0054790047 0.035875842 0.14880557
0.0055893227 0.0336737 0.15068696
0.0058181407 0.031386543 0.15239945
0.006077026 0.029336685 0.15519837
0.0061561326 0.026881972 0.15779679
0.0062929504 0.0245755 0.1597451
0.0063557704 0.02217171 0.16141796
0.0064296876 0.01994817 0.16344714
0.0065095937 0.017411998 0.16638872
0.0066438057 0.015224736 0.17075576
0.0066006905 0.012107152 0.17231841
0.0066750357 0.0093244631 0.17372771
0.0067540463 0.0065808613 0.17603703
0.006959327 0.0036643692 0.17878082
0.0069892085 0.00074886048 0.18075106
0.0079171248 0.036193144 0.14960346
0.0080863554 0.034029823 0.15161417
0.0084033199 0.031643994 0.1519943
0.008935553 0.029467814 0.15661609
0.0086980984 0.027241105 0.15941006
0.0088237589 0.024740057 0.16025105
0.0090484368 0.022058856 0.16199926
0.0095068514 0.019437993 0.16484144
0.0094117038 0.017080281 0.1670327
0.0093958899 0.014802374 0.17016549
0.0093821948 0.011880109 0.17096286
0.0094976192 0.0092916712 0.17274565
0.0095442627 0.0064982618 0.17665289
0.010513117 0.0028937024 0.18005995
0.010507798 9.6602009e-05 0.18207896
0.010410577 0.036349185 0.14924946
0.01065803 0.034103241 0.15061891
0.010845494 0.031790677 0.15260555
0.011534273 0.029621592 0.15748616
0.011277985 0.027454842 0.15981536
0.011621302 0.024934072 0.16005053
0.011554995 0.022039894 0.16208535
0.01212674 0.019444615 0.1652661
0.012157815 0.01708225 0.1672346
0.012115132 0.014607278 0.16871999
0.012235897 0.011806064 0.16993168
0.012263165 0.0092832381 0.17247099
0.012597973 0.0062003043 0.17715509
0.01378407 0.0025893941 0.17922215
0.012952953 0.036457554 0.14840758
0.013222834 0.034189392 0.15004146
0.013492189 0.031934481 0.1540422
0.014014818 0.029817948 0.15884651
0.014067548 0.027544938 0.16037029
0.014186797 0.025117259 0.16093199
0.01416346 0.022316143 0.16388412
0.014736182 0.01958891 0.16535956
0.014865493 0.017212491 0.16712813
0.014839065 0.01469881 0.16870941
0.015034842 0.011921689 0.16982429
0.014911862 0.0092139915 0.17272481
0.015382306 0.005955142 0.17573139
0.015818845 0.0029457114 0.17644361
0.016232166 -0.00019493884 0.17816481
0.015211288 0.036293488 0.1469695
0.015507783 0.034030825 0.14974084
0.015998174 0.032050095 0.15530854
0.016263599 0.027800284 0.1604131
0 0 0 1 0 0 0 1 0 0 0 1 0 0 0 0 0 240 1 0 0
