ply
format ascii 1.0
comment PCL generated
element vertex 240
property float x
property float y
property float z
element camera 1
property float view_px
property float view_py
property float view_pz
property float x_axisx
property float x_axisy
property float x_axisz
property float y_axisx
property float y_axisy
property float y_axisz
property float z_axisx
property float z_axisy
property float z_axisz
property float focal
property float scalex
property float scaley
property float centerx
property float centery
property int viewportx
property int viewporty
property float k1
property float k2
end_header
-0.029493632 0.032369044 0.14692138
-0.028943177 0.030009897 0.14767195
-0.028184254 0.027966125 0.14982189
-0.027703522 0.026103504 0.1519364
-0.027061716 0.024434218 0.15569697
-0.027405715 0.022326581 0.1600741
-0.031731371 0.015897674 0.16703534
-0.032085132 0.013307058 0.16875829
-0.03216273 0.010245922 0.17026673
-0.032354001 0.0068189055 0.17151265
-0.032841597 0.0032059916 0.17274776
-0.032517809 9.2138456e-05 0.17449833
-0.032143515 -0.0026029274 0.17557935
-0.027322121 0.032519553 0.14610653
-0.026356822 0.030117687 0.14755538
-0.025551965 0.027804889 0.14888264
-0.024995131 0.026046921 0.15120299
-0.024487449 0.024338733 0.15396656
-0.025087805 0.021620149 0.15726946
-0.025681466 0.018343844 0.16270685
-0.027821999 0.014031149 0.16639529
-0.028644046 0.010769119 0.16821329
-0.029915959 0.0071770144 0.16924089
-0.030324724 0.0034529213 0.1705579
-0.030321611 0.00010126494 0.17259642
-0.029306874 -0.0029403039 0.17451891
-0.026754536 -0.0065748421 0.17247985
-0.024310244 0.033094291 0.14589718
-0.022857858 0.030738324 0.14780848
-0.022568 0.028501045 0.1488234
-0.022233535 0.026529985 0.15118268
-0.022057701 0.024232257 0.15333459
-0.022380829 0.021688031 0.15760951
-0.023157299 0.018251158 0.16158591
-0.02405208 0.014614579 0.16442564
-0.024958812 0.011474311 0.1664694
-0.027339723 0.0069222711 0.16838163
-0.026003528 0.00069655012 0.16976848
-0.023943791 -0.0028935599 0.16912496
-0.024253735 -0.0047391877 0.17126505
-0.023441119 -0.0064959181 0.17148401
-0.022418298 -0.0085878037 0.17146204
-0.019068841 0.033815816 0.14750363
-0.019542428 0.03154809 0.14852233
-0.019729361 0.029162664 0.1490512
-0.019815581 0.02733396 0.1515651
-0.019650253 0.024449255 0.15284084
-0.019586837 0.02231049 0.15665506
-0.020814521 0.01853664 0.16135289
-0.021037761 0.015312104 0.1632337
-0.021426346 0.012080584 0.1663259
-0.023981284 0.0026341116 0.16914681
-0.022802988 -0.00021895327 0.16894563
-0.021953024 -0.0018958974 0.17038089
-0.021931576 -0.0033197929 0.17171969
-0.021451956 -0.0050168065 0.17183892
-0.020214293 -0.0073505887 0.17234433
-0.015685098 0.034178779 0.14818619
-0.016461816 0.031860821 0.14882988
-0.016745823 0.029715514 0.14901729
-0.017079953 0.027125966 0.15185992
-0.017078051 0.024629075 0.15350451
-0.017122572 0.022755103 0.1564738
-0.018094603 0.018775271 0.16142477
-0.018530676 0.015461557 0.16374643
-0.018868662 0.012373417 0.16693138
-0.020515863 0.0053601903 0.17056848
-0.020595167 0.0022263061 0.17101206
-0.02012993 -0.00060394098 0.1720988
-0.019914288 -0.0019865183 0.17164704
-0.018878134 -0.0041287988 0.17228682
-0.01754041 -0.005787068 0.17206608
-0.013083302 0.033998206 0.14844346
-0.013440926 0.031765811 0.14904964
-0.013976142 0.029029073 0.15012999
-0.014316345 0.026687754 0.15205258
-0.01452384 0.024671854 0.15393797
-0.014617394 0.022671737 0.15624152
-0.015215064 0.020071292 0.16097721
-0.016141504 0.015660787 0.16398634
-0.016255183 0.012275595 0.16785683
-0.018157765 0.0063253646 0.17153665
-0.01926136 0.0028456356 0.17223701
-0.018907096 0.00050136243 0.17266567
-0.018171657 -0.0011869642 0.17313828
-0.017321229 -0.0034758188 0.17265935
-0.015247409 -0.0040674177 0.17132083
-0.010558344 0.033923067 0.14810599
-0.010751989 0.031709831 0.14918749
-0.011157955 0.028486805 0.15101676
-0.011719846 0.026229709 0.15251431
-0.011661194 0.024428297 0.1541269
-0.01132274 0.02284121 0.15717481
-0.010671105 0.020602001 0.15960163
-0.012870005 0.016537474 0.16348478
-0.012521672 0.013442792 0.1684178
-0.014086117 0.0087586511 0.17337142
-0.017160617 0.0040351129 0.173437
-0.016558228 0.001651463 0.17402825
-0.015895033 -0.00044377014 0.17414892
-0.015414777 -0.0017235276 0.17377269
-0.013342851 -0.0030798782 0.17244415
-0.0081989802 0.033997644 0.14798592
-0.0085423933 0.031452652 0.14962406
-0.0086984169 0.028276999 0.15135916
-0.0084509635 0.026255649 0.15258369
-0.0083163232 0.024404099 0.15393347
-0.0074774688 0.022273235 0.1581399
-0.0072918944 0.019728061 0.16014309
-0.007661921 0.017683357 0.16259161
-0.0080766231 0.015049511 0.16730757
-0.0075875097 0.013379882 0.17230943
-0.013508009 0.0047416133 0.17635185
-0.014301612 0.0020904513 0.17594402
-0.01343858 0.00063345296 0.17556627
-0.01250267 -0.00031774264 0.17462005
-0.011928074 -0.0021556956 0.17432235
-0.0054091681 0.033673968 0.14761005
-0.0060006008 0.030911833 0.15027185
-0.0060548489 0.02817446 0.1515746
-0.005601461 0.026486099 0.15334132
-0.0054746941 0.024567446 0.15548244
-0.0045341277 0.021985268 0.15970846
-0.0046675839 0.020018043 0.16118477
-0.0053691594 0.01789636 0.1635569
-0.0052130152 0.015333204 0.1680728
-0.0047370032 0.012495916 0.17330597
-0.0056342036 0.0086216545 0.17518938
-0.010253637 0.0042535979 0.17780632
-0.010371139 0.0015944045 0.17639378
-0.010124092 0.00014141102 0.17562754
-0.0067022331 -0.0044946936 0.17649516
-0.0030695065 0.033299707 0.14756724
-0.0036058074 0.030806977 0.14942725
-0.0027127184 0.028382177 0.15163264
-0.0026384278 0.026281146 0.15323429
-0.0024810734 0.024741149 0.15640499
-0.0019900689 0.021778598 0.16048068
-0.0020123026 0.01988749 0.16200182
-0.0025925874 0.017755497 0.16531619
-0.0024587319 0.015503294 0.16870606
-0.0012275021 0.011163364 0.17425375
-0.0023623661 0.0086780796 0.17538036
-0.002416542 0.0055516022 0.17682396
-0.0042403429 0.0032993814 0.17664054
-0.003896842 8.4043037e-05 0.17765738
-0.0015044148 -0.0058531957 0.17876996
0.0001382515 0.032449521 0.14902501
0.0010807698 0.030649692 0.15072252
0.00061486359 0.028532119 0.15308921
0.0014782124 0.026816661 0.1569397
0.001835108 0.024009466 0.15868683
0.0010383622 0.022073768 0.16053933
0.00058526511 0.020440178 0.16309297
5.3264339e-05 0.017949777 0.16586255
-5.8497066e-05 0.015652668 0.16892357
0.0018202109 0.010670728 0.1735303
0.001106607 0.0079620695 0.17478532
0.00060755317 0.0051985993 0.17597002
-0.00031469442 0.0025833347 0.17683391
0.00025953093 -0.0011210735 0.17871653
0.00044623745 -0.0046860599 0.17901929
0.002897508 0.033519793 0.1494014
0.0033174763 0.03132467 0.15112235
0.0037169917 0.029093692 0.15312667
0.0048029916 0.026319962 0.15713026
0.0048041586 0.024453536 0.15845837
0.004079767 0.022349905 0.15961289
0.0035353079 0.020567892 0.16136439
0.0029023963 0.017823689 0.16573559
0.0023909712 0.015644766 0.16892961
0.0049572056 0.0097631905 0.17239797
0.0046687014 0.0069630109 0.17365791
0.003731126 0.0051756715 0.1746641
0.0036794613 0.0022660766 0.17640384
0.002933654 -0.00069438486 0.17854334
0.0033163037 -0.00388515 0.17919785
0.0057362202 0.034327246 0.1490051
0.0059348 0.032195084 0.15096997
0.0060544908 0.029991185 0.15292698
0.0068818429 0.026291853 0.1568642
0.0067096832 0.024536686 0.15889899
0.0063238516 0.0227834 0.16000511
0.0064760251 0.020669637 0.16183391
0.0058046654 0.018491067 0.1636713
0.0068845651 0.012781248 0.1704414
0.0071629235 0.0098336143 0.17207713
0.0073043471 0.0074337474 0.1733793
0.0068646804 0.0052252361 0.17521539
0.0061935196 0.0029564665 0.17713225
0.0059760027 -0.0010478117 0.17938042
0.0060398933 -0.0038247965 0.18067345
0.0080328519 0.035017245 0.14935057
0.0082071954 0.032881115 0.15146713
0.0086962422 0.030780282 0.15258615
0.0095400205 0.026553342 0.15829943
0.0088127814 0.024836099 0.16000696
0.0083102472 0.023185985 0.16063441
0.0082096392 0.021285484 0.16197498
0.010463523 0.014287901 0.16868804
0.0099139446 0.011999606 0.17039125
0.0094424458 0.0095614512 0.17150138
0.010034323 0.007667629 0.17302966
0.0099270195 0.0056491131 0.17531435
0.0087868236 0.0026532602 0.17875928
0.010057933 -0.0023711193 0.18088742
0.0096214078 -0.0045389356 0.18173072
0.010441817 0.035489202 0.14912416
0.010707205 0.033533175 0.15044022
0.010896188 0.031316113 0.152843
0.011658902 0.026932543 0.15869603
0.011173975 0.024780609 0.16010764
0.010800765 0.023119515 0.16079417
0.010041592 0.020848306 0.16302241
0.012279202 0.014206246 0.16831084
0.01201552 0.01198515 0.16996695
0.011958446 0.0097762924 0.17095634
0.012569967 0.0077101998 0.17297702
0.012492846 0.0057065198 0.17620717
0.011657762 0.0025360449 0.17950307
0.013922688 -0.0023287649 0.18049318
0.012871671 0.035848849 0.14824407
0.013249614 0.033671446 0.14963962
0.014157461 0.029870141 0.15586333
0.014852013 0.026449898 0.15984018
0.014311966 0.024516756 0.16064492
0.014222299 0.022558412 0.16233593
0.013571915 0.019402172 0.16529775
0.014289659 0.014511034 0.16791575
0.013999048 0.012295519 0.16958858
0.013806071 0.010256615 0.17083853
0.015024993 0.0081298575 0.17315988
0.014318683 0.0058774445 0.17629904
0.014391149 0.0029284544 0.17876108
0.015825123 -0.0012500283 0.17884502
0.016400576 -0.0044188872 0.17943764
0.015066756 0.035698883 0.14772518
0.016410612 0.032604009 0.14897098
0.017051976 0.028057747 0.15710972
0.016719285 0.024476249 0.16106641
0 0 0 1 0 0 0 1 0 0 0 1 0 0 0 0 0 240 1 0 0
