ply
format ascii 1.0
comment PCL generated
element vertex 240
property float x
property float y
property float z
element camera 1
property float view_px
property float view_py
property float view_pz
property float x_axisx
property float x_axisy
property float x_axisz
property float y_axisx
property float y_axisy
property float y_axisz
property float z_axisx
property float z_axisy
property float z_axisz
property float focal
property float scalex
property float scaley
property float centerx
property float centery
property int viewportx
property int viewporty
property float k1
property float k2
end_header
-0.024728965 0.034572169 0.14529489
-0.024673488 0.032276101 0.14558573
-0.024797928 0.030355556 0.14781433
-0.025006192 0.028264048 0.14955102
-0.025206415 0.026359037 0.15208618
-0.025781073 0.024093613 0.15603575
-0.027009649 0.022216471 0.16135418
-0.027322482 0.019854501 0.16348749
-0.027484648 0.01724913 0.16457523
-0.027467107 0.014542799 0.16569725
-0.027590655 0.011812369 0.16651447
-0.027822919 0.0089042569 0.16829978
-0.027975835 0.0061588632 0.16802976
-0.022276241 0.034516495 0.14485067
-0.022157136 0.032336112 0.14601439
-0.022238234 0.030389488 0.14788239
-0.022498528 0.028306428 0.14965183
-0.022552947 0.026324403 0.15156618
-0.022989381 0.023966551 0.15444437
-0.02356728 0.02140874 0.15861548
-0.02395664 0.019256631 0.16070162
-0.024241325 0.016922327 0.16306192
-0.024504691 0.014339058 0.1641849
-0.024640519 0.011717207 0.16524278
-0.024936931 0.0088856416 0.16752277
-0.025127735 0.0059127375 0.16947894
-0.024679013 0.0028722126 0.17096688
-0.019635709 0.034770623 0.14511968
-0.019634221 0.032831684 0.1472732
-0.019762773 0.030638322 0.1483406
-0.01983786 0.028389765 0.14994849
-0.020072181 0.026223177 0.1514511
-0.020402137 0.023994269 0.15508898
-0.02090138 0.021579787 0.15894048
-0.02114645 0.0191749 0.16056295
-0.021316485 0.016843546 0.16248003
-0.021754302 0.014427127 0.16437726
-0.021878092 0.011625551 0.16720507
-0.02201085 0.008633934 0.16879766
-0.022005036 0.0054442002 0.17049389
-0.02184115 0.0024413699 0.17072318
-0.021698328 -0.00048637314 0.1712961
-0.016823005 0.035072681 0.14630759
-0.017150003 0.032993749 0.14774738
-0.017114453 0.030600121 0.14828633
-0.017319683 0.028758829 0.15059498
-0.017462309 0.026369488 0.15160529
-0.017735276 0.024056405 0.15483564
-0.018217836 0.021758001 0.15929379
-0.018315585 0.019151084 0.16019885
-0.018649887 0.016750425 0.1626931
-0.018706145 0.014202407 0.16506545
-0.019133579 0.011402583 0.16855808
-0.019266631 0.0085778274 0.16946751
-0.019243728 0.0056470898 0.17137121
-0.019224713 0.0026987554 0.17228714
-0.019414151 -0.00038058887 0.17342414
-0.014197317 0.03526694 0.14658874
-0.014546174 0.033085939 0.14791732
-0.014481923 0.030787358 0.14817338
-0.014881983 0.02876544 0.15077871
-0.014987037 0.026473442 0.1525346
-0.015198439 0.024240715 0.15521713
-0.01540846 0.021895615 0.15991148
-0.015571172 0.019107141 0.16029696
-0.015863033 0.016617816 0.16252215
-0.016059009 0.013892191 0.16521527
-0.016142206 0.011308052 0.1675014
-0.016374853 0.0085165603 0.17035349
-0.016732106 0.0057197912 0.17327105
-0.016792296 0.0026401356 0.17418639
-0.016418874 -0.00044488287 0.17359626
-0.011808847 0.035319123 0.14676006
-0.011991057 0.033172652 0.14814968
-0.012082349 0.030896187 0.14951625
-0.012247387 0.02854071 0.15122375
-0.012431648 0.02644527 0.15299354
-0.012604584 0.02422181 0.15517132
-0.012749152 0.021707341 0.15885514
-0.012817486 0.018988647 0.16008358
-0.012927545 0.016301749 0.16188659
-0.01322556 0.013644138 0.16543585
-0.013253541 0.010873203 0.16890657
-0.013694592 0.0084254835 0.17206095
-0.013865315 0.0057793092 0.17434242
-0.014053227 0.0029157428 0.17428449
-0.012989302 -0.00057887798 0.1724388
-0.0092968838 0.035369959 0.14660886
-0.0094264243 0.033282269 0.14809825
-0.0095993141 0.031038396 0.15060301
-0.009732658 0.028422987 0.15164129
-0.0096624009 0.026332952 0.15351745
-0.0098089445 0.024156367 0.15571623
-0.009676747 0.021516318 0.15786615
-0.0099747106 0.018851766 0.15851513
-0.010068323 0.01612987 0.16174424
-0.010488398 0.01358316 0.16577454
-0.010260508 0.010630992 0.17013521
-0.010909617 0.0085650971 0.17318951
-0.010879726 0.0057170643 0.17398539
-0.010769791 0.002886269 0.17410141
-0.010498582 -0.00025155253 0.1737044
-0.0067850328 0.035506409 0.14683931
-0.0069383001 0.03331228 0.14840397
-0.0071054734 0.03113934 0.15110591
-0.0069020209 0.028617773 0.15170313
-0.0069047012 0.026371013 0.15339071
-0.0069898963 0.024285857 0.15672071
-0.007041588 0.02137607 0.15864047
-0.0068155723 0.018644672 0.15923807
-0.0072074383 0.016100109 0.16232294
-0.00767161 0.013648063 0.16679414
-0.0070973486 0.010782714 0.17045429
-0.0078659113 0.008424066 0.17341225
-0.0080152536 0.0057767071 0.17484598
-0.008019031 0.0030173159 0.17543785
-0.0085630072 0.00084098632 0.17728461
-0.0042945468 0.035610396 0.14724641
-0.0043660766 0.033288248 0.14888354
-0.0044285888 0.031135678 0.1510099
-0.0042403755 0.028864745 0.15296228
-0.0043057981 0.02667162 0.15522969
-0.0045372145 0.024395525 0.15941875
-0.0044694841 0.021653952 0.16014217
-0.0045297658 0.018935218 0.16114552
-0.0047221179 0.016365793 0.16390307
-0.0049079959 0.013926337 0.16842459
-0.0045977756 0.011356311 0.17229486
-0.0048182621 0.0088122208 0.17479317
-0.0050848234 0.0060599986 0.1756417
-0.0051474851 0.0033048855 0.17610407
-0.0051771374 6.0770399e-05 0.17971973
-0.0018769981 0.035830576 0.14794478
-0.0018573531 0.033364885 0.14913283
-0.0016248543 0.030751105 0.15037215
-0.0016220255 0.028557822 0.15239547
-0.0015675965 0.026555611 0.15483436
-0.0017058559 0.024562024 0.15940601
-0.0018108019 0.021862192 0.16067505
-0.001836046 0.01923438 0.1626953
-0.0017503833 0.016647084 0.16501556
-0.0019032854 0.014469436 0.17027062
-0.0018538199 0.011833302 0.17330551
-0.0020666809 0.0092118708 0.17576919
-0.0023507967 0.0061026509 0.176475
-0.002157232 0.0030026664 0.17647149
-0.0018749399 4.0263032e-05 0.18093495
0.00030011559 0.035065215 0.14875884
0.00050592015 0.032816596 0.14997244
0.00066563202 0.030354898 0.15138647
0.0010620339 0.028665101 0.15344515
0.0010215103 0.026423905 0.15637614
0.0010001085 0.024272801 0.15897632
0.0010390854 0.021823578 0.16112266
0.00089374924 0.019305905 0.16336693
0.00092924968 0.016810484 0.16566609
0.00099293783 0.014634428 0.17028302
0.00096020894 0.011982614 0.1735301
0.0011013347 0.0092552733 0.17533629
0.00080405682 0.0061448873 0.17605522
0.00082706893 0.0031424414 0.17735237
0.00092794694 0.00012119955 0.17973761
0.0027649368 0.035371259 0.14903213
0.0028650779 0.033114877 0.15061575
0.0031635684 0.030719999 0.15197782
0.0036211603 0.028545722 0.15409482
0.0037074536 0.026272822 0.15615514
0.0037102818 0.024104709 0.1583105
0.0037243296 0.021589246 0.15992099
0.0037280179 0.019184543 0.16332656
0.0036703332 0.016734928 0.16608657
0.0037170816 0.014742573 0.16976991
0.0038285584 0.011793689 0.17288277
0.0037959949 0.0090477597 0.17388639
0.003883573 0.0062078931 0.1742648
0.0037614931 0.0031620467 0.17708646
0.0037746178 0.00024035622 0.17819872
0.005233502 0.035471682 0.14834251
0.0054182266 0.033310663 0.15023932
0.0057102889 0.03108065 0.15196157
0.0061891316 0.029035393 0.15480219
0.0062969225 0.026471434 0.15713505
0.0064340094 0.023997219 0.15893565
0.0064887339 0.021504182 0.16052555
0.0065278779 0.019112749 0.16243812
0.0064283116 0.016728109 0.16566537
0.006583211 0.01459438 0.16988087
0.0065219593 0.01159744 0.17135526
0.0065463097 0.008884253 0.17278251
0.0065616649 0.0061013554 0.17502016
0.0066964868 0.0031136544 0.17763972
0.006609058 0.00016045106 0.17948279
0.0076822122 0.035673834 0.14886971
0.0079356469 0.033583041 0.15097128
0.0082501797 0.031230878 0.15144254
0.0090886727 0.028999846 0.15599531
0.0088688908 0.026678016 0.15852962
0.0089716986 0.024139531 0.15949473
0.009138572 0.02161411 0.16137257
0.0094322795 0.019034669 0.16444975
0.0093014957 0.016714806 0.16648699
0.00933854 0.014372998 0.16958995
0.0093259038 0.011452494 0.17018497
0.0093084779 0.0088595822 0.17187491
0.0093027791 0.0060598906 0.17568579
0.01009859 0.0024445013 0.17917067
0.01005211 -0.00042084363 0.1810443
0.010079934 0.035619091 0.14821495
0.010336612 0.03341097 0.14959763
0.010619223 0.031198815 0.1517957
0.01170222 0.029079549 0.15672885
0.011534104 0.026832348 0.15898263
0.011771965 0.024343168 0.15954384
0.01151406 0.02178286 0.16195415
0.012035145 0.019227715 0.16499069
0.012055071 0.016819658 0.16687165
0.012028985 0.014308739 0.16828568
0.012177668 0.011471022 0.16927572
0.012048915 0.0088271908 0.17155223
0.01229591 0.0057544014 0.17625055
0.013361392 0.0021980205 0.17834623
0.012500082 0.03549014 0.14710017
0.012763778 0.033214182 0.1486958
0.013390034 0.031019295 0.15272248
0.014235724 0.02907856 0.15779075
0.014248602 0.026874203 0.15953465
0.014306549 0.024581656 0.16041942
0.014084394 0.022127537 0.16367596
0.014628245 0.019470207 0.16525006
0.014754831 0.017035274 0.16691987
0.014708964 0.014439691 0.16835208
0.014941353 0.011545092 0.16920736
0.014680271 0.0087262606 0.17187586
0.015059778 0.0054958058 0.1746992
0.015435022 0.0025012672 0.17552657
0.015858024 -0.00059426948 0.17731312
0.014532169 0.03505417 0.14538512
0.01487569 0.032668419 0.14797741
0.016093478 0.031051561 0.15396914
0.016449295 0.027102962 0.15955503
0 0 0 1 0 0 0 1 0 0 0 1 0 0 0 0 0 240 1 0 0
