ply
format ascii 1.0
comment PCL generated
element vertex 240
property float x
property float y
property float z
element camera 1
property float view_px
property float view_py
property float view_pz
property float x_axisx
property float x_axisy
property float x_axisz
property float y_axisx
property float y_axisy
property float y_axisz
property float z_axisx
property float z_axisy
property float z_axisz
property float focal
property float scalex
property float scaley
property float centerx
property float centery
property int viewportx
property int viewporty
property float k1
property float k2
end_header
-0.024884377 0.035094481 0.14663599
-0.024842495 0.032750946 0.14672907
-0.024932072 0.030647783 0.14857972
-0.025119197 0.028391827 0.15010951
-0.02527526 0.026364224 0.15262696
-0.025861286 0.023962747 0.15651818
-0.027391141 0.021715786 0.16141646
-0.027791034 0.019449545 0.16367151
-0.027893033 0.016851708 0.16482957
-0.027877163 0.014099252 0.16622575
-0.027957061 0.011415182 0.16750015
-0.028246745 0.0088325506 0.16982879
-0.028445657 0.00618038 0.17024243
-0.022474047 0.035012022 0.14612639
-0.022332571 0.032752655 0.14708275
-0.022337409 0.030603718 0.14863673
-0.022566296 0.02842528 0.1502091
-0.022614844 0.026372295 0.15215954
-0.023071518 0.023849951 0.15489134
-0.023731846 0.021087222 0.15903948
-0.024152143 0.018855311 0.16110764
-0.02452505 0.016573798 0.16356435
-0.02478775 0.013874566 0.16499415
-0.024981178 0.011303552 0.16654386
-0.025399428 0.0086949039 0.16928104
-0.025698006 0.0061327177 0.17193633
-0.025445936 0.0035075329 0.17484833
-0.019783519 0.035162076 0.14628315
-0.019706385 0.033070687 0.14828742
-0.019846581 0.030794067 0.14911141
-0.019894086 0.028415851 0.15051942
-0.020141948 0.02623781 0.15203686
-0.020475471 0.023829548 0.15560241
-0.021041611 0.021299135 0.15935814
-0.021339888 0.018859183 0.16104163
-0.021545757 0.016574524 0.16309991
-0.02206411 0.01408142 0.16535075
-0.022404544 0.011516776 0.16874753
-0.022582674 0.0084916838 0.1710449
-0.022677077 0.0056431508 0.17391481
-0.022497693 0.0026535927 0.17485613
-0.022237217 -0.00026489052 0.17563593
-0.016902195 0.035309564 0.14745261
-0.017194863 0.033122223 0.14877492
-0.017215462 0.030707769 0.14904523
-0.01737733 0.028651083 0.15110174
-0.017529434 0.026261307 0.1520396
-0.017807001 0.023873355 0.15523942
-0.018380005 0.021547517 0.15982658
-0.018510334 0.018957807 0.16080686
-0.018871885 0.016586479 0.16339521
-0.019051408 0.013837843 0.16643773
-0.019658726 0.011088436 0.17042485
-0.019811103 0.0083228685 0.17185357
-0.019830791 0.0058725579 0.17453873
-0.019802749 0.0030932985 0.17615421
-0.019862758 0.00010827572 0.17760222
-0.014268648 0.035426643 0.14764804
-0.014606151 0.033179212 0.14886788
-0.014546974 0.03088022 0.14893757
-0.014909625 0.028598536 0.15125808
-0.015029836 0.026221139 0.15292746
-0.015253861 0.023862954 0.15557003
-0.015606591 0.02169322 0.16048588
-0.015739106 0.018965956 0.16093962
-0.016053291 0.016551763 0.16326243
-0.016314151 0.013542901 0.16633467
-0.016609423 0.01071858 0.16949557
-0.016901741 0.0084422436 0.17277524
-0.017201744 0.0061746123 0.17637318
-0.017305955 0.0033291706 0.17793915
-0.0168825 7.9055601e-05 0.17777984
-0.011850013 0.035334535 0.14753039
-0.012063783 0.033206727 0.14896254
-0.012100558 0.030824564 0.15013237
-0.012256612 0.028349213 0.15168239
-0.012427471 0.02611823 0.15333667
-0.012644981 0.023833903 0.15561016
-0.012912546 0.021566682 0.15948999
-0.013004456 0.018959744 0.16092022
-0.013066275 0.016370457 0.16281484
-0.013459632 0.013495357 0.16656548
-0.013717376 0.010466981 0.17099801
-0.014205677 0.0085072871 0.17450605
-0.014322997 0.0064105005 0.17736571
-0.014570268 0.0036142415 0.17817649
-0.013542381 -0.00027305118 0.17660113
-0.0093578985 0.035271108 0.14719263
-0.0094940215 0.033309676 0.14879569
-0.0096231652 0.030988414 0.15123315
-0.0097317379 0.028337291 0.15224883
-0.0096520344 0.026114631 0.15407504
-0.0098961536 0.023848876 0.15645739
-0.0098722382 0.021425987 0.15888032
-0.010077483 0.018926218 0.15956587
-0.010215109 0.016370056 0.16283454
-0.010696276 0.013912149 0.16688187
-0.010719453 0.010450642 0.17235652
-0.01136713 0.0088891936 0.17571488
-0.011376753 0.0061883843 0.17706874
-0.011318306 0.0034054022 0.17770296
-0.011030045 0.00018733933 0.17762354
-0.0068697836 0.035390779 0.14731617
-0.006995087 0.03334371 0.14913346
-0.007142663 0.031123629 0.15178388
-0.0068983226 0.028612509 0.15237589
-0.0069329697 0.026349129 0.15400113
-0.0071638701 0.024144603 0.15745452
-0.0072874525 0.021353515 0.15972224
-0.0070456988 0.018752204 0.16039601
-0.007430519 0.01646868 0.16357781
-0.0079055093 0.014230879 0.16808321
-0.0075349594 0.010682659 0.17277254
-0.0083716558 0.008740033 0.17622112
-0.0085479384 0.0063328138 0.17820191
-0.0086447904 0.0036621306 0.179178
-0.0090989312 0.0017266314 0.18102169
-0.0043425625 0.03534602 0.14754042
-0.0044213454 0.033330247 0.14956507
-0.0044775656 0.031168409 0.15176167
-0.0042861295 0.028920298 0.15375091
-0.0044139912 0.026704511 0.15593518
-0.0047417246 0.024432123 0.1601577
-0.0046418654 0.021745546 0.16096406
-0.00469553 0.019145923 0.16212367
-0.0049495641 0.01679359 0.16511719
-0.005136604 0.014420219 0.16965236
-0.0049164328 0.011563445 0.17387298
-0.0051578414 0.0092107449 0.17714471
-0.0056169131 0.0066687921 0.17884132
-0.0057740472 0.0040126238 0.1797635
-0.0048610256 -6.7369023e-05 0.18182766
-0.0018727264 0.035463132 0.14807872
-0.0019121611 0.033169299 0.1495014
-0.0016371906 0.030974878 0.15132184
-0.0016271519 0.028818805 0.1533013
-0.0016201853 0.026814733 0.1556894
-0.0019290239 0.024647811 0.15993544
-0.0019459269 0.021954281 0.16122328
-0.0020118821 0.01948083 0.16360624
-0.0019498075 0.017022654 0.16611093
-0.002117251 0.014611532 0.17120723
-0.002102236 0.012018087 0.17441228
-0.0021198527 0.0095021361 0.17709656
-0.0023911465 0.0065798396 0.17864014
-0.0022592454 0.0034501548 0.17871445
-0.0012487328 -0.0003175805 0.18212786
0.00032044118 0.034651898 0.14862052
0.00047388131 0.032678448 0.15005217
0.00058336818 0.030445198 0.15185943
0.00099767349 0.029138124 0.15454109
0.00085749623 0.026825406 0.15718758
0.00081154937 0.024571914 0.15972103
0.00083894376 0.022153089 0.16190749
0.00068720395 0.019671477 0.16421825
0.00073742593 0.017194765 0.16662656
0.00077908108 0.014642982 0.17105196
0.00076298759 0.01204116 0.17428823
0.00095456094 0.0093675936 0.17618828
0.0007343312 0.0063493103 0.17726611
0.00089438213 0.0033311369 0.17861092
0.0012348976 7.79564e-05 0.18052389
0.0028044262 0.035082426 0.14880174
0.0028409928 0.033023771 0.15060495
0.0031466885 0.030803151 0.15231471
0.0034992399 0.029113114 0.15511441
0.0036295103 0.026857175 0.15714361
0.0035783371 0.024635462 0.15929966
0.003567751 0.022211976 0.16104379
0.0035453513 0.019767556 0.16443001
0.0035534911 0.017165355 0.167114
0.0036591061 0.014709702 0.17046462
0.003703713 0.011843768 0.17351522
0.0035811977 0.0091388738 0.17458428
0.0036468639 0.0062768091 0.17505175
0.0037799056 0.0032615224 0.17785504
0.0038921523 0.00027706817 0.17875962
0.0053229616 0.035132725 0.14810134
0.0054779071 0.033152096 0.1501762
0.0056766407 0.031135783 0.15213308
0.0061736056 0.029276781 0.15549789
0.0061365068 0.027082922 0.15817395
0.0062081292 0.024831446 0.16023637
0.0062504797 0.022396492 0.16190676
0.0063092145 0.02004884 0.16398244
0.0065728575 0.017259598 0.16685043
0.006664671 0.014786675 0.17079864
0.0065984214 0.011934329 0.17240511
0.0065420894 0.0092283236 0.17378716
0.0065212119 0.0063764076 0.17584552
0.0067874761 0.00324357 0.17815523
0.0067846286 0.0002748307 0.17988922
0.0077481936 0.035519108 0.14878826
0.0079236701 0.033570889 0.15099855
0.0083168466 0.03130183 0.1516829
0.0089187045 0.029595185 0.15700422
0.0085913604 0.027540417 0.1598518
0.0087017231 0.025071083 0.16101196
0.0088452529 0.022570241 0.16288091
0.0095863985 0.019775916 0.16592833
0.0094481492 0.017299918 0.16782254
0.0095133316 0.014751082 0.17080663
0.0095301541 0.011872873 0.17156297
0.0093731871 0.0093603125 0.17313173
0.0092792045 0.0063722716 0.17657121
0.010216213 0.0026755191 0.17999092
0.010245584 -0.00020851774 0.18174067
0.010210859 0.035735808 0.14848959
0.010516101 0.033664551 0.150059
0.010752505 0.03167396 0.15241064
0.011391493 0.029875377 0.15789358
0.011244991 0.027715322 0.160327
0.011506113 0.025269158 0.16090979
0.011386652 0.022443354 0.16287787
0.012175725 0.019647704 0.16601147
0.012194084 0.017187608 0.16786593
0.012168626 0.014666947 0.16939484
0.012281375 0.011881498 0.17058548
0.012116808 0.0093969209 0.17288245
0.012274045 0.0061090873 0.17720369
0.013479964 0.0025464215 0.17930515
0.012747169 0.035895206 0.14775315
0.013063687 0.033880774 0.1496374
0.013290186 0.032228988 0.1542193
0.01391174 0.030005364 0.1591205
0.013991144 0.027707292 0.1607469
0.014187695 0.025251474 0.16121818
0.014187671 0.02223598 0.16384654
0.014668445 0.019343035 0.16541207
0.014821522 0.016985064 0.16726045
0.014725571 0.014429232 0.16890064
0.015020221 0.011753587 0.17015974
0.014706993 0.0092876637 0.17297576
0.015042022 0.0059813606 0.17568313
0.015523458 0.002865318 0.17648891
0.016012527 -0.00017549787 0.17820893
0.015028935 0.035723485 0.14647499
0.015404622 0.033981971 0.14966717
0.015772985 0.032160729 0.15546891
0.01618973 0.027952818 0.16069525
0 0 0 1 0 0 0 1 0 0 0 1 0 0 0 0 0 240 1 0 0
