ply
format ascii 1.0
comment PCL generated
element vertex 240
property float x
property float y
property float z
element camera 1
property float view_px
property float view_py
property float view_pz
property float x_axisx
property float x_axisy
property float x_axisz
property float y_axisx
property float y_axisy
property float y_axisz
property float z_axisx
property float z_axisy
property float z_axisz
property float focal
property float scalex
property float scaley
property float centerx
property float centery
property int viewportx
property int viewporty
property float k1
property float k2
end_header
-0.025060004 0.034654427 0.14553505
-0.025001261 0.032260176 0.14568886
-0.025100904 0.030059068 0.14744495
-0.025335316 0.02772579 0.14887539
-0.025520567 0.025593856 0.15181588
-0.026213111 0.022825729 0.15576872
-0.028343055 0.019024275 0.16023868
-0.028612141 0.016263748 0.16176808
-0.028547542 0.013456543 0.16232456
-0.028299678 0.010561421 0.16246758
-0.028362563 0.0076159113 0.16320363
-0.028609127 0.004854159 0.16507041
-0.028728049 0.0023156614 0.16586569
-0.022647455 0.034598187 0.14518782
-0.022536987 0.03222933 0.14620043
-0.02246999 0.030014429 0.1474199
-0.022766201 0.0277767 0.14907794
-0.022792703 0.025477858 0.15097998
-0.023428842 0.022856614 0.15393294
-0.024109609 0.019467277 0.157804
-0.024627287 0.016587 0.15938346
-0.024935398 0.013711393 0.16119619
-0.025122713 0.010874526 0.16144583
-0.025154144 0.0080104768 0.16249384
-0.025667857 0.0048473622 0.16448812
-0.025904909 0.002359763 0.16692688
-0.024988858 -0.0010221528 0.16842088
-0.01992939 0.034810457 0.14560315
-0.019847443 0.032600593 0.14742818
-0.019934753 0.030245576 0.14809357
-0.020074472 0.027809257 0.14957781
-0.020311859 0.025380086 0.15103351
-0.020814555 0.022762297 0.15467064
-0.021437457 0.019534592 0.15779114
-0.021676702 0.016685287 0.15885793
-0.021882549 0.013927457 0.16035374
-0.022392163 0.011029702 0.16157046
-0.022392277 0.0078407684 0.16423263
-0.022152936 0.004442513 0.16541792
-0.022380037 0.0013568222 0.1676164
-0.022086928 -0.0012217584 0.16885485
-0.021736341 -0.0040139384 0.16989435
-0.016947664 0.035056669 0.14727305
-0.017307958 0.032756638 0.14825037
-0.017340602 0.030275874 0.14837591
-0.017678898 0.02810283 0.15037994
-0.017768804 0.025472501 0.15116991
-0.018139739 0.022839859 0.15425083
-0.018867075 0.019803418 0.15855463
-0.018867696 0.017013049 0.1590751
-0.019246805 0.014200286 0.16111208
-0.019189801 0.010548232 0.16300309
-0.019745169 0.0074843392 0.16536447
-0.019619055 0.0047832332 0.16658323
-0.019908823 0.0022564942 0.16906859
-0.019807117 -0.00035271264 0.17018618
-0.019710856 -0.0031486589 0.17178909
-0.014265063 0.035238359 0.14769094
-0.014688371 0.032852028 0.14844929
-0.01466646 0.030598449 0.14842285
-0.015078414 0.027931649 0.150676
-0.015254157 0.025297655 0.15208559
-0.015447617 0.022755167 0.15468046
-0.016229765 0.020271679 0.15969983
-0.016187582 0.017377708 0.15982582
-0.016486384 0.014858044 0.16183823
-0.016798431 0.011669434 0.16462354
-0.016775711 0.0082705552 0.16583313
-0.01724387 0.0055844663 0.16843925
-0.017499445 0.0031320066 0.17068495
-0.017495116 0.0002282827 0.17194885
-0.016844833 -0.0025988456 0.17253578
-0.011864536 0.035127528 0.1475918
-0.01210023 0.032911617 0.14863037
-0.012244627 0.030302785 0.14964609
-0.012439073 0.027625144 0.15105098
-0.012646032 0.025092013 0.15251903
-0.012792822 0.022751726 0.15478741
-0.013380284 0.020671228 0.15914522
-0.013465089 0.017667957 0.16021013
-0.013571992 0.015062925 0.16220972
-0.014205124 0.012075603 0.1656668
-0.01450401 0.0084446259 0.16763853
-0.015228842 0.0057816692 0.16978252
-0.015180791 0.0035013021 0.17199169
-0.015164146 0.00066513283 0.17230155
-0.013871845 -0.0025850802 0.17221589
-0.0092766508 0.034986284 0.14711653
-0.0095050614 0.032964494 0.14861266
-0.009762248 0.030245339 0.1507268
-0.0099420007 0.027560083 0.15166789
-0.0098344544 0.025166063 0.15340345
-0.0099785123 0.02289124 0.15604348
-0.0099447407 0.020754714 0.15874161
-0.010369422 0.017849945 0.15921946
-0.01047463 0.015409794 0.16252825
-0.011193917 0.013030476 0.16676606
-0.01198727 0.0085141761 0.16881356
-0.012565233 0.0062029436 0.17129061
-0.012425242 0.0035862953 0.17233261
-0.012160205 0.0010383993 0.17278545
-0.011543977 -0.0020364432 0.17277156
-0.006836493 0.034899216 0.14703353
-0.0070835021 0.032763317 0.14884938
-0.0072409436 0.0302168 0.15125746
-0.0070746904 0.02761521 0.15194175
-0.0070026685 0.02536919 0.1534408
-0.0071175573 0.023280818 0.15714881
-0.0070960019 0.020730646 0.15940486
-0.0069974088 0.018390149 0.16021074
-0.0074713286 0.0158877 0.16329928
-0.0078442767 0.013543904 0.16756102
-0.0085274437 0.0091276765 0.17029507
-0.0099593597 0.0063691982 0.17286691
-0.0098573351 0.0037172856 0.17390013
-0.0094399936 0.0011562858 0.17407618
-0.0097018909 -0.00087534555 0.17527272
-0.0041869227 0.034584031 0.14711328
-0.0044604195 0.032439955 0.14911644
-0.0046526408 0.029980946 0.15123318
-0.0044286172 0.027859364 0.15319973
-0.0044422043 0.025710421 0.15526067
-0.0045133042 0.02356063 0.15952146
-0.004511191 0.021145251 0.16044466
-0.0046604965 0.018619796 0.16170301
-0.0048091458 0.016077461 0.1647459
-0.0050355797 0.013339589 0.16872329
-0.0055763447 0.0096066575 0.17096935
-0.00641528 0.006835063 0.17372505
-0.0070241448 0.0038756179 0.17429048
-0.0067489343 0.0014017995 0.17408872
-0.005568184 -0.0025455346 0.17728135
-0.0017265835 0.034554258 0.1475886
-0.0019304635 0.032165471 0.14888053
-0.0016256699 0.029922904 0.15079348
-0.0016378394 0.027750721 0.152977
-0.0016188193 0.025891202 0.15542431
-0.0018360155 0.023766069 0.15988371
-0.0017779315 0.021376438 0.16106561
-0.0019199604 0.018788619 0.16308489
-0.0018464804 0.016174139 0.16576831
-0.002092744 0.012991194 0.16993824
-0.0026726159 0.0099998806 0.17157377
-0.0029167815 0.0072133318 0.17372669
-0.0036869748 0.0045099142 0.17484786
-0.0032063264 0.0015096634 0.17520405
-0.0020260601 -0.0025759372 0.17889252
0.00060391525 0.034067061 0.14809887
0.00099230383 0.032173898 0.14928378
0.00083778391 0.029680921 0.15129358
0.0010154521 0.02821066 0.15404055
0.00098167511 0.025749063 0.15663493
0.00089915626 0.023610365 0.15924779
0.00095147197 0.0214459 0.16152549
0.00083312794 0.018969601 0.16377783
0.00089412503 0.016397718 0.16608998
0.0008577574 0.01314579 0.16989635
0.00036132528 0.010204103 0.17183575
0.00027234387 0.0073659001 0.17342964
1.8044132e-07 0.0046163029 0.17451088
0.00027476353 0.0016373497 0.17633684
0.00051075674 -0.0016426879 0.17822221
0.0030557357 0.034918107 0.14846367
0.0032711194 0.032615237 0.1500375
0.0035329 0.03026404 0.15167375
0.0036499866 0.02795968 0.15435976
0.0037742867 0.025723066 0.15630017
0.003717155 0.02357886 0.15839429
0.0036665476 0.021294791 0.16010793
0.0037238842 0.018939227 0.16372
0.0035756209 0.016416673 0.16639762
0.0037095225 0.013490505 0.16959102
0.0035681985 0.010292267 0.171643
0.0032049129 0.0075416421 0.17231224
0.0034387372 0.0047799973 0.17322677
0.0031592641 0.0019713431 0.17611766
0.0034280333 -0.0010743024 0.17731132
0.0056681135 0.035321556 0.14822368
0.0058678146 0.033143699 0.14994888
0.0060155955 0.030850841 0.15164623
0.0060971086 0.027934086 0.15452117
0.0061955969 0.025777489 0.15708058
0.0062790276 0.023603689 0.15907659
0.0064294352 0.02134081 0.16078363
0.0064802445 0.018999731 0.16277264
0.0066443561 0.016275452 0.16597874
0.0065715029 0.013776109 0.16991991
0.0063635856 0.010758667 0.17074434
0.0062215868 0.0079711033 0.17214961
0.0060317689 0.0051712869 0.17427638
0.006221015 0.001941515 0.17663406
0.0062110615 -0.0009958311 0.17823333
0.0079152761 0.03582301 0.14898778
0.0081296917 0.033644628 0.15096171
0.0086335056 0.0313094 0.15154973
0.0089189894 0.02838175 0.15598693
0.0085878558 0.026330631 0.15881318
0.0086004594 0.023907119 0.15975671
0.0087268259 0.021433335 0.16142607
0.009779782 0.01857654 0.16478769
0.0095323976 0.016219595 0.16662273
0.0092327986 0.013664304 0.16956365
0.0093574943 0.010878318 0.17009081
0.0091709634 0.0083687454 0.171756
0.008742597 0.005250257 0.17494687
0.0095119262 0.00076412858 0.17762467
0.0096201124 -0.0021695392 0.17908439
0.010420996 0.036324333 0.14906552
0.010743691 0.034124169 0.1502572
0.010974109 0.031753547 0.15221176
0.01137791 0.028707009 0.15708724
0.011096599 0.026594354 0.15933464
0.011246489 0.024115849 0.15993774
0.011001091 0.021558924 0.16193704
0.012121777 0.018794449 0.16549437
0.012016579 0.016428083 0.16741577
0.012034793 0.014002519 0.16866814
0.012264913 0.011176409 0.16955815
0.011855989 0.008533882 0.17162789
0.011544527 0.0048282314 0.17539446
0.012922688 0.0006544881 0.17637503
0.012909392 0.036829118 0.14859575
0.013315054 0.034551315 0.14995565
0.013334374 0.031636264 0.15381256
0.013951471 0.028889095 0.15834236
0.013976873 0.02675253 0.15981239
0.01394826 0.024556264 0.16063723
0.013609096 0.021911502 0.16370763
0.014476725 0.019217379 0.16577311
0.014448177 0.016826024 0.16759011
0.014437741 0.014412777 0.1689482
0.014926304 0.011543823 0.16985156
0.014311484 0.0085172718 0.17196876
0.014378123 0.0051192883 0.17413679
0.014847944 0.0015630805 0.17393343
0.015477336 -0.0016977028 0.17508605
0.01512737 0.037114576 0.14815786
0.015705694 0.034659442 0.15005989
0.015783522 0.030773714 0.15461759
0.016165022 0.027045768 0.15999568
0 0 0 1 0 0 0 1 0 0 0 1 0 0 0 0 0 240 1 0 0
