ply
format ascii 1.0
comment PCL generated
element vertex 240
property float x
property float y
property float z
element camera 1
property float view_px
property float view_py
property float view_pz
property float x_axisx
property float x_axisy
property float x_axisz
property float y_axisx
property float y_axisy
property float y_axisz
property float z_axisx
property float z_axisy
property float z_axisz
property float focal
property float scalex
property float scaley
property float centerx
property float centery
property int viewportx
property int viewporty
property float k1
property float k2
end_header
-0.025558168 0.034151301 0.14554229
-0.025414297 0.031785592 0.14566217
-0.025400979 0.029537207 0.14724119
-0.025516214 0.027112788 0.1484689
-0.025784714 0.024631871 0.15143029
-0.026659597 0.021313179 0.15470053
-0.029256532 0.01695757 0.15868221
-0.029498877 0.014104038 0.15997289
-0.029358676 0.011304453 0.16074558
-0.029036187 0.0085605504 0.16118528
-0.029190965 0.0055191484 0.16175081
-0.029442381 0.0024041191 0.16267875
-0.029247541 -0.00027039406 0.16251603
-0.023176529 0.034170166 0.14522864
-0.022920715 0.031730071 0.14605704
-0.022678139 0.02947679 0.14695062
-0.022927849 0.027194647 0.14864884
-0.022969766 0.024819816 0.15060724
-0.023740336 0.02165436 0.15298955
-0.024588782 0.017885901 0.15684254
-0.025225166 0.01492682 0.15827063
-0.025563747 0.011957567 0.1598172
-0.025767675 0.0092232851 0.16032632
-0.025795225 0.0063380199 0.16150355
-0.026465636 0.0030367973 0.16291064
-0.026756035 -0.00016716351 0.16408342
-0.02556861 -0.0032185826 0.16544244
-0.020326063 0.034330219 0.14540222
-0.020036545 0.032118745 0.14702332
-0.020076634 0.029780703 0.14767668
-0.0202909 0.02735002 0.14931808
-0.020496873 0.024745582 0.15078257
-0.021215558 0.021668451 0.15405624
-0.022004144 0.018144682 0.15708904
-0.022151111 0.015168865 0.15799636
-0.022348262 0.012412119 0.1591004
-0.022996623 0.0095299678 0.16046622
-0.0231479 0.0062326719 0.16329986
-0.023268014 0.00309494 0.16444424
-0.023572752 -0.00024108162 0.16619965
-0.022911713 -0.0030455012 0.16676696
-0.022189623 -0.0059407633 0.16740352
-0.017040173 0.034669247 0.14703065
-0.01746789 0.032369841 0.14803438
-0.017494965 0.029922761 0.1482721
-0.01799497 0.027772401 0.15035704
-0.018013699 0.024872011 0.1509745
-0.018462384 0.022054287 0.15376242
-0.019559763 0.018607415 0.15808442
-0.019474909 0.015790759 0.15864201
-0.019800596 0.012840473 0.16043568
-0.020141283 0.0090851318 0.16241437
-0.020896794 0.006127201 0.16416879
-0.020881487 0.003548993 0.16548151
-0.021087533 0.00068000151 0.16743261
-0.020602178 -0.0021238416 0.16782106
-0.020054458 -0.0050032306 0.16916393
-0.01444908 0.035019565 0.14783499
-0.014842477 0.03259775 0.14848813
-0.014784727 0.030331464 0.14854899
-0.015454572 0.027565444 0.15088393
-0.015616524 0.024791345 0.15212187
-0.015955288 0.022130789 0.15446891
-0.016972126 0.019101243 0.15938073
-0.016913943 0.016213264 0.15953375
-0.017162669 0.01359416 0.16139048
-0.017706214 0.010141131 0.1637796
-0.01798912 0.007062484 0.16473858
-0.018363254 0.0042049703 0.16708969
-0.01856401 0.0014845807 0.16827598
-0.018212602 -0.0015094902 0.16919084
-0.017149795 -0.0042452412 0.16972438
-0.012067394 0.035303477 0.14834248
-0.012257217 0.032894585 0.14904775
-0.012485939 0.030213764 0.15007669
-0.012831498 0.027382202 0.15139474
-0.013093916 0.02475662 0.15276335
-0.013326898 0.022212163 0.15460999
-0.014066401 0.019611225 0.15874657
-0.014237982 0.016483717 0.15973862
-0.014289516 0.013701292 0.16163662
-0.015099138 0.010622695 0.16488463
-0.016137738 0.0072211749 0.16641527
-0.016536811 0.0044160108 0.16776693
-0.016021075 0.0018852158 0.16918227
-0.015895506 -0.0008637362 0.16915047
-0.014231591 -0.0038542233 0.16886188
-0.0095192567 0.035511784 0.14838593
-0.0097433478 0.033250846 0.14947022
-0.010049223 0.030046966 0.15124734
-0.010327176 0.027312037 0.1520008
-0.010308515 0.024801036 0.15340528
-0.010502257 0.022322459 0.15590836
-0.010496311 0.020000435 0.15834396
-0.011079824 0.016787488 0.15864803
-0.010921777 0.01392863 0.16161828
-0.011790818 0.011317408 0.16553698
-0.013769003 0.0075500701 0.16664116
-0.01363497 0.0047954544 0.16814113
-0.013231947 0.0022000251 0.16875379
-0.01274321 -0.00023048099 0.16920425
-0.011813954 -0.0032099201 0.16903648
-0.0070802956 0.03563273 0.14856008
-0.0073834639 0.033091478 0.14992334
-0.0076008611 0.030012209 0.15190241
-0.007474212 0.027312215 0.15216653
-0.0074153193 0.024915267 0.15325563
-0.0073944186 0.022384962 0.15672836
-0.0072886082 0.01956296 0.15855975
-0.0071001248 0.017149566 0.15913418
-0.0074260323 0.014268008 0.16159037
-0.0075966814 0.011382254 0.16554037
-0.008867885 0.0074324426 0.16733691
-0.010494258 0.0047648544 0.16923846
-0.010258213 0.0022898295 0.17022793
-0.0097856484 -7.7757919e-05 0.17031333
-0.0097747482 -0.0021020931 0.17112145
-0.0044203196 0.035438642 0.14854066
-0.0047859838 0.032718707 0.15014747
-0.0050451993 0.029699078 0.15173458
-0.0048084711 0.027360981 0.15317716
-0.0047612465 0.024938494 0.1547486
-0.0046374379 0.022276385 0.15857418
-0.004617427 0.019864505 0.15951265
-0.0047388668 0.017255254 0.16047421
-0.004710644 0.014356991 0.16291343
-0.0047314917 0.011152994 0.16647714
-0.005000486 0.0071696467 0.168161
-0.0064276364 0.0048372331 0.17066288
-0.0073878835 0.0021100657 0.17089327
-0.0072171325 -9.8626524e-06 0.17058435
-0.0052730311 -0.0043045739 0.17351174
-0.0019353516 0.035379834 0.14906001
-0.0021724587 0.032654654 0.14974627
-0.0020426887 0.029587694 0.15094976
-0.0020188158 0.027153574 0.15265723
-0.0018691336 0.025028763 0.15489316
-0.0020564552 0.022317024 0.15888701
-0.001917384 0.019958742 0.15993819
-0.0019979931 0.017346995 0.16163057
-0.0018399714 0.014378641 0.16380408
-0.0015489955 0.01083106 0.16734228
-0.0022029008 0.0078184446 0.16882332
-0.0024078549 0.0052011288 0.17113127
-0.0033755333 0.0026925192 0.17209131
-0.0027266117 -0.00023493143 0.17277659
-0.0013195053 -0.0045298389 0.17605528
0.00068503158 0.034273513 0.14903814
0.001184301 0.032120746 0.15003102
0.00081271451 0.029364161 0.15174189
0.0011374572 0.027451079 0.15373139
0.0011101562 0.024837732 0.15617572
0.00081750104 0.022410642 0.15836282
0.00072018465 0.020172987 0.16039923
0.00064076355 0.017419983 0.16231146
0.00079722289 0.014646609 0.164148
0.0014374695 0.011173546 0.16753422
0.00093670376 0.0083137965 0.16934383
0.00077735138 0.0057112915 0.17146806
0.00045370989 0.0031639759 0.17279215
0.00074889342 0.00019491882 0.17478733
0.0010852618 -0.0032325326 0.17637601
0.0031876797 0.034972832 0.14942379
0.0034058476 0.032600049 0.15087199
0.0036408415 0.030147091 0.15237863
0.0039980677 0.027391821 0.15458786
0.0040126718 0.025129806 0.15626763
0.0037625269 0.022744285 0.15785623
0.0035486356 0.020464089 0.15936969
0.0034754246 0.017598834 0.16248195
0.0034253278 0.014874209 0.16468292
0.0043339925 0.011750409 0.16775468
0.0042522983 0.0087280162 0.16969711
0.0038718805 0.006299891 0.17114204
0.0041076913 0.003765374 0.17268696
0.0034771969 0.0010049334 0.17549045
0.0039450801 -0.0019636957 0.17680934
0.0058506881 0.035455313 0.14922963
0.0059963232 0.033201102 0.1509174
0.0060545872 0.030835347 0.15245342
0.0065842811 0.027298244 0.15489979
0.0064065228 0.025154896 0.15730883
0.0061598141 0.023036631 0.15908623
0.0061382102 0.020834159 0.16081369
0.0060133678 0.018366206 0.16234557
0.0069059944 0.015624985 0.16576307
0.0068785804 0.0126087 0.16907871
0.0071697053 0.0096036168 0.16977587
0.0068446174 0.0070902333 0.17166851
0.0062667443 0.004792328 0.17424303
0.0061985706 0.0013791623 0.17691676
0.0062200772 -0.0014184823 0.17858407
0.0081465412 0.035866246 0.14992438
0.0082633235 0.033629932 0.15187062
0.0087390803 0.031340919 0.15249678
0.0091223568 0.027842725 0.15681425
0.0084849233 0.025766194 0.1593309
0.0082440739 0.023530789 0.16038583
0.0079871845 0.021365041 0.16214354
0.0097529804 0.018428251 0.16572498
0.0096270135 0.015879227 0.16733657
0.009525558 0.013059631 0.16966012
0.010053554 0.010384311 0.17026231
0.0097625861 0.007918206 0.17201611
0.0087254569 0.0051424536 0.17556494
0.009450485 0.00074292131 0.17894074
0.0094351228 -0.0019469495 0.1804727
0.010709981 0.036201719 0.14991257
0.010981168 0.03404887 0.15100488
0.011119962 0.031611182 0.15302792
0.011305328 0.028364193 0.15814851
0.010896463 0.026020775 0.16006388
0.010806682 0.023767272 0.16106485
0.010024965 0.021583792 0.16333273
0.011931641 0.01877143 0.16662534
0.011969158 0.016316693 0.1683508
0.012267609 0.013780631 0.16944122
0.01283805 0.01092469 0.17038871
0.012379295 0.0083808424 0.17256048
0.011479226 0.0050896122 0.17669894
0.013162882 0.0010993044 0.17866701
0.013269722 0.036593974 0.14931501
0.013594584 0.034194488 0.15049006
0.013673479 0.031053217 0.15472127
0.013906802 0.028273154 0.15937011
0.013715574 0.026206911 0.16078225
0.013556373 0.024258487 0.16184917
0.012834013 0.021974884 0.16497588
0.014133609 0.019348647 0.16706285
0.014231277 0.016993122 0.16881856
0.014452189 0.014480948 0.17002416
0.015326796 0.011515725 0.17095117
0.014604188 0.008621729 0.17327484
0.014449596 0.0056638131 0.17609543
0.01555586 0.0021013021 0.17662473
0.016199341 -0.00093031698 0.17827393
0.015521491 0.03663756 0.14881161
0.01619076 0.03380128 0.1502585
0.016258067 0.029900396 0.15590104
0.015853971 0.026543139 0.16124615
0 0 0 1 0 0 0 1 0 0 0 1 0 0 0 0 0 240 1 0 0
