ply
format ascii 1.0
comment PCL generated
element vertex 240
property float x
property float y
property float z
element camera 1
property float view_px
property float view_py
property float view_pz
property float x_axisx
property float x_axisy
property float x_axisz
property float y_axisx
property float y_axisy
property float y_axisz
property float z_axisx
property float z_axisy
property float z_axisz
property float focal
property float scalex
property float scaley
property float centerx
property float centery
property int viewportx
property int viewporty
property float k1
property float k2
end_header
-0.025732076 0.03416466 0.14587417
-0.025618993 0.031784121 0.14602283
-0.025551274 0.029565105 0.14766783
-0.02564805 0.027195191 0.14902428
-0.025834834 0.024755763 0.15239117
-0.026584215 0.021027025 0.155386
-0.029425541 0.016466636 0.15894078
-0.029759299 0.013704653 0.1603862
-0.029708484 0.010875004 0.16128136
-0.029531168 0.0080387378 0.16198947
-0.02987634 0.0049960134 0.16300778
-0.030291414 0.0020296215 0.16445881
-0.030314934 -0.00066274562 0.16479421
-0.023404596 0.034112748 0.14544156
-0.023091588 0.031645998 0.14620613
-0.022826077 0.029371182 0.1470934
-0.023040786 0.027160786 0.14893131
-0.023067676 0.024868052 0.15120345
-0.02380847 0.021506542 0.15346585
-0.024538327 0.01729322 0.1568702
-0.025364203 0.014360351 0.15836069
-0.025788959 0.011397304 0.15998381
-0.026198128 0.0085126515 0.1607537
-0.026391929 0.0056382087 0.16229828
-0.027235365 0.0024785763 0.16420907
-0.027648 -0.00055257865 0.16600694
-0.026079575 -0.003674689 0.1671032
-0.020497227 0.03423775 0.14544587
-0.020080362 0.031939585 0.14687958
-0.020136666 0.029611636 0.14758864
-0.020363327 0.02726219 0.1493807
-0.020597002 0.024659161 0.15115894
-0.021206036 0.021327754 0.15431392
-0.021942833 0.017501233 0.15695764
-0.022208765 0.014544743 0.15785699
-0.022508176 0.011803035 0.15902914
-0.023361186 0.0087682949 0.16067663
-0.023600038 0.0055681374 0.16396187
-0.023716174 0.0024716363 0.16526248
-0.023868974 -0.00078208477 0.16721979
-0.023242882 -0.0034071899 0.16817208
-0.022520959 -0.0061645452 0.16919009
-0.017067434 0.034575287 0.14711092
-0.017488308 0.032233626 0.14796863
-0.017541697 0.029759377 0.14817922
-0.018063594 0.027668556 0.15042838
-0.01810655 0.024694499 0.1511464
-0.018449718 0.021714367 0.15382239
-0.019459136 0.017888004 0.15786655
-0.019460438 0.015082014 0.15840045
-0.019851806 0.012202614 0.16030926
-0.020557737 0.008307483 0.16285759
-0.021374039 0.0055408664 0.16486099
-0.021340786 0.0031082998 0.166394
-0.021494934 0.00037596302 0.16842027
-0.02100097 -0.0023023481 0.16916433
-0.020410439 -0.00497807 0.17082791
-0.014467329 0.034916289 0.14802739
-0.014868853 0.032462195 0.14852789
-0.014836901 0.030171754 0.14849861
-0.015527274 0.027393157 0.15104564
-0.015648073 0.024568437 0.152169
-0.015897958 0.021589974 0.1543473
-0.016814569 0.018306224 0.15905516
-0.01688488 0.01551793 0.15932781
-0.017205862 0.013102522 0.16148469
-0.018064164 0.0098722763 0.16441695
-0.018543761 0.0066374466 0.16554031
-0.018811611 0.0039122947 0.16797855
-0.019036207 0.001371725 0.16924308
-0.018607756 -0.0015302591 0.1703531
-0.017474804 -0.0040589832 0.17131416
-0.012045086 0.035078973 0.1483261
-0.012271107 0.032708619 0.14908899
-0.012532428 0.029993124 0.1501281
-0.0129016 0.027204787 0.15156272
-0.013119102 0.024489006 0.15278848
-0.013258088 0.021766618 0.15440874
-0.013922292 0.018825641 0.15834939
-0.014223465 0.015884109 0.15964293
-0.014419944 0.013466108 0.16208671
-0.015565609 0.010563315 0.16564164
-0.016806129 0.0069010109 0.16713384
-0.017140714 0.0042286245 0.1685577
-0.016511731 0.0018785534 0.17002346
-0.01630781 -0.00084904541 0.17013086
-0.014593246 -0.0037912927 0.17025274
-0.0094784396 0.035175808 0.14814489
-0.0097229099 0.032958191 0.1493087
-0.01006989 0.029839044 0.1513368
-0.010411805 0.027196301 0.15235682
-0.010346467 0.024659628 0.15364543
-0.010417738 0.021864751 0.15568596
-0.010348228 0.019461012 0.15807009
-0.011042615 0.01632411 0.15874356
-0.011027809 0.013894654 0.16220489
-0.012170603 0.011511176 0.16623865
-0.014615393 0.0073607634 0.1671795
-0.014360484 0.0047281412 0.1685331
-0.013808042 0.0021575605 0.16922036
-0.013172179 -0.00018652382 0.16984634
-0.012144448 -0.0031315165 0.16989352
-0.0070397784 0.035249293 0.14824222
-0.0073631494 0.032760642 0.14968914
-0.007604551 0.029783044 0.15193509
-0.0074933963 0.027142743 0.1524014
-0.0073942416 0.024789276 0.15347764
-0.0073415278 0.022130178 0.15674144
-0.0072557796 0.019420473 0.15869564
-0.0070790653 0.017133383 0.15951563
-0.0074738478 0.014336847 0.16208813
-0.007770346 0.011560736 0.16614103
-0.0096635669 0.0076486478 0.16740268
-0.011065352 0.0048384499 0.16912727
-0.010604546 0.0024366737 0.16998482
-0.010051864 0.00011661647 0.17010768
-0.0098593943 -0.001807297 0.17114046
-0.004410774 0.035013206 0.14813247
-0.0047821463 0.032327723 0.14981565
-0.0050430815 0.029432913 0.15176745
-0.0047761188 0.027186928 0.15331973
-0.0047323531 0.024802113 0.1548634
-0.0046892771 0.022176396 0.15869726
-0.0046675974 0.019875471 0.1597856
-0.0048242342 0.017381538 0.16097872
-0.0048660929 0.014585396 0.16360457
-0.0049890862 0.011626544 0.1674827
-0.0052812514 0.0077632414 0.1689674
-0.006819285 0.0051540979 0.17078012
-0.007676939 0.0023546165 0.17052375
-0.0074708234 0.00026350087 0.17007805
-0.0055526085 -0.0038973158 0.17398602
-0.0019101223 0.034903683 0.14853995
-0.0021956002 0.032212023 0.14934869
-0.0020121653 0.029347859 0.15103102
-0.0019765215 0.02698073 0.15281466
-0.0018387998 0.024881132 0.15507385
-0.0021285387 0.022342602 0.15921654
-0.0020270308 0.020094607 0.16046461
-0.0022098105 0.017630544 0.1623814
-0.0021131125 0.014823209 0.16476621
-0.0017064933 0.011314968 0.16831946
-0.0024019144 0.0082993163 0.16960646
-0.0025755279 0.0055743717 0.17177837
-0.0036022665 0.00301905 0.17251776
-0.0030465883 7.4611598e-05 0.1731699
-0.0018281807 -0.0040195701 0.17706989
0.00055122061 0.034152012 0.14905679
0.00091246428 0.032061141 0.15017532
0.00057979726 0.029338645 0.15192012
0.00081191538 0.027327603 0.15417318
0.00083587848 0.024826048 0.15680346
0.00071488821 0.022448782 0.15886556
0.00057908945 0.020464731 0.16113815
0.00039179422 0.017845454 0.16324832
0.00051019207 0.015140381 0.16516119
0.0013038759 0.01148927 0.16833735
0.00080500892 0.008611165 0.17004056
0.00066470273 0.0058915121 0.17189427
0.00030103259 0.003288829 0.17308925
0.00047436554 0.00043336573 0.1753425
0.00062540983 -0.0028319329 0.17722455
0.0030406315 0.03475317 0.14934905
0.0032198175 0.03239876 0.1508255
0.003407757 0.029951841 0.15235551
0.0035141062 0.027284198 0.15496178
0.003656423 0.025035078 0.15665714
0.003527937 0.022708295 0.15828955
0.0033320826 0.020614145 0.16002057
0.0032490036 0.017946947 0.16335194
0.003137375 0.015313957 0.16557913
0.0042148042 0.011887774 0.16827306
0.0041791098 0.0088247703 0.17018858
0.0037891269 0.0063475422 0.17137669
0.0040158685 0.0037416844 0.17281142
0.0032969632 0.0010754098 0.17574657
0.0036321199 -0.0017871428 0.17731923
0.0056901663 0.035095725 0.14897941
0.0058297752 0.03283488 0.15066431
0.005864094 0.030476343 0.15221375
0.0058855163 0.027152954 0.15496303
0.0060539069 0.02499401 0.15733065
0.0060065305 0.022914931 0.15913174
0.0060800691 0.020884611 0.16110374
0.0059138797 0.018565785 0.16290806
0.006632871 0.015250227 0.16523877
0.0069713108 0.012395856 0.16867827
0.007038156 0.0093888193 0.16960476
0.0068552466 0.0069794804 0.17159951
0.0063643632 0.0047253626 0.174215
0.0061249426 0.0013972502 0.17703256
0.0061028227 -0.0012467687 0.17887615
0.0080480864 0.035343621 0.14941661
0.0081885112 0.033104043 0.15136024
0.0085477689 0.030797621 0.15199384
0.0087727215 0.027391361 0.15624358
0.0086075673 0.025277454 0.158758
0.0083437571 0.023116248 0.15982898
0.0082077328 0.021143248 0.16184437
0.0097575197 0.01750103 0.16411617
0.00963064 0.015046815 0.16586897
0.0096249534 0.012364808 0.16822861
0.0099963155 0.0097853662 0.16926315
0.0098291375 0.0076643857 0.17150895
0.0089349747 0.0050677694 0.17524411
0.0095685776 0.00071082491 0.17872439
0.0094683701 -0.0016712756 0.18027277
0.010559311 0.035442393 0.1490452
0.010725754 0.033265971 0.1501161
0.010913474 0.030834306 0.15214328
0.011207103 0.027542178 0.15680067
0.011085698 0.025113998 0.15862702
0.010949974 0.022935886 0.15961796
0.010565426 0.020800902 0.16206616
0.012091969 0.017465297 0.16429013
0.012111627 0.015095417 0.16600522
0.012210209 0.012541885 0.16710263
0.01270186 0.0099127293 0.16850948
0.012438061 0.0080305608 0.17185196
0.011714681 0.0049498412 0.17612225
0.013322153 0.00079035631 0.17802264
0.012981975 0.035553303 0.1480131
0.013177047 0.033109616 0.14909533
0.013164124 0.029525897 0.15260601
0.014006743 0.026447261 0.15637605
0.013933226 0.024653185 0.15809543
0.013757342 0.022862572 0.15942721
0.013492917 0.020716527 0.1627212
0.014408684 0.017635435 0.16409589
0.01446551 0.01529263 0.16574073
0.01451633 0.012895074 0.1669673
0.015248317 0.010174952 0.16823047
0.014736666 0.0082368609 0.17208809
0.01462722 0.0054406296 0.1753366
0.015594808 0.0015981434 0.17579776
0.016120143 -0.001278044 0.17719924
0.015064078 0.035320215 0.14708063
0.01552211 0.032318514 0.14823225
0.015362283 0.027076358 0.15210837
0.016133459 0.024520151 0.15781684
0 0 0 1 0 0 0 1 0 0 0 1 0 0 0 0 0 240 1 0 0
