ply
format ascii 1.0
comment PCL generated
element vertex 240
property float x
property float y
property float z
element camera 1
property float view_px
property float view_py
property float view_pz
property float x_axisx
property float x_axisy
property float x_axisz
property float y_axisx
property float y_axisy
property float y_axisz
property float z_axisx
property float z_axisy
property float z_axisz
property float focal
property float scalex
property float scaley
property float centerx
property float centery
property int viewportx
property int viewporty
property float k1
property float k2
end_header
-0.026549369 0.034233712 0.14735653
-0.026415318 0.031856641 0.14743176
-0.026145035 0.029447841 0.1488774
-0.026069604 0.026880318 0.14979874
-0.026077157 0.024009908 0.15196438
-0.026906339 0.020495145 0.15485406
-0.030189294 0.015381648 0.15735823
-0.030547339 0.012547658 0.15863667
-0.030461801 0.0096715437 0.15945613
-0.030120425 0.0067236214 0.15984209
-0.030196579 0.0035375669 0.16058511
-0.030493278 0.00061352929 0.16212086
-0.030449869 -0.0020033605 0.16276427
-0.024290271 0.034229264 0.1466258
-0.023869896 0.031697821 0.14725702
-0.023476519 0.029334147 0.14793628
-0.0234593 0.026898041 0.14936292
-0.023320111 0.024327658 0.15076624
-0.024021579 0.020929599 0.15290768
-0.024955766 0.016830899 0.15666257
-0.025957508 0.0136637 0.15774287
-0.026493546 0.010625532 0.15905374
-0.026899083 0.0077096643 0.15954225
-0.026849499 0.004703288 0.16063014
-0.027474266 0.0012455521 0.16206168
-0.027837986 -0.0017263136 0.16403455
-0.026399294 -0.0044914158 0.16557562
-0.021357775 0.034307327 0.14622791
-0.020695159 0.031876739 0.14749865
-0.020693777 0.029523496 0.14803113
-0.020743413 0.027038494 0.1496295
-0.020879418 0.024238782 0.15083523
-0.021487158 0.020868635 0.15392308
-0.022415502 0.017105371 0.15690742
-0.022722404 0.013999755 0.15769024
-0.023069214 0.011209078 0.15863149
-0.024131531 0.0082355011 0.15998544
-0.024222124 0.0047591166 0.16257453
-0.024252558 0.0016128659 0.16373126
-0.024293089 -0.0015587233 0.16565156
-0.023552136 -0.0042013256 0.16618289
-0.022684814 -0.0069602579 0.16690141
-0.01743285 0.034349937 0.14724082
-0.017844664 0.032062944 0.14816011
-0.018007074 0.029600792 0.14833345
-0.018366035 0.027413866 0.150543
-0.01836931 0.024438091 0.15095192
-0.018726543 0.021341203 0.15353855
-0.020007094 0.017542364 0.15785827
-0.019976342 0.014610437 0.15827583
-0.020373972 0.011578429 0.1599465
-0.021401044 0.007515098 0.16164358
-0.021975815 0.0046382677 0.16322446
-0.021759275 0.0021181523 0.16446753
-0.021676097 -0.0005366687 0.166153
-0.021141713 -0.0032093464 0.16661549
-0.020261358 -0.0058644675 0.16807112
-0.014723144 0.034638654 0.14799997
-0.015171587 0.032213472 0.14857231
-0.015206154 0.029947104 0.14848678
-0.015822209 0.027178084 0.15096587
-0.015918776 0.024350801 0.15199532
-0.01619882 0.021426445 0.15403217
-0.017356377 0.017955802 0.15900601
-0.017401567 0.015007497 0.15919244
-0.017654466 0.012338359 0.16093473
-0.018274453 0.0084864469 0.16241837
-0.018783452 0.0053351759 0.16295308
-0.018826243 0.0026526521 0.16538285
-0.018975936 0.00030439836 0.16593748
-0.018470852 -0.0025143048 0.16708907
-0.017325293 -0.0050455234 0.16792502
-0.012326813 0.034867294 0.14837821
-0.012548793 0.032469686 0.14915271
-0.012821872 0.029728839 0.14999789
-0.013177086 0.026995467 0.1513892
-0.013416584 0.024344159 0.1526019
-0.013581187 0.021673238 0.15405995
-0.014333395 0.018462019 0.15805526
-0.014683217 0.015427059 0.15945973
-0.014855652 0.012681638 0.16164528
-0.015708214 0.0090018334 0.16373087
-0.016637981 0.0054813321 0.16399263
-0.016969791 0.0028855558 0.16535044
-0.016366234 0.00078856386 0.16671285
-0.016148752 -0.0018945807 0.16677555
-0.014409648 -0.0046846205 0.16710424
-0.0097944755 0.035016645 0.14817271
-0.010016112 0.032793887 0.14932591
-0.010323929 0.029552523 0.15099843
-0.010669789 0.026922913 0.15203793
-0.010615042 0.024523506 0.15329075
-0.010706193 0.021759342 0.15534447
-0.010552119 0.019253297 0.15771687
-0.011330736 0.016053431 0.15850146
-0.011359725 0.013318495 0.16207606
-0.012596241 0.010217608 0.16538598
-0.014352205 0.0060521071 0.16427496
-0.014219111 0.0035839707 0.16565843
-0.013719894 0.0012145865 0.1666446
-0.013166285 -0.0010233556 0.16725864
-0.011980242 -0.003866642 0.16732442
-0.0073470366 0.035055559 0.1481574
-0.0076437793 0.032615207 0.14969559
-0.0078340089 0.029501475 0.15155168
-0.0076616346 0.026883883 0.15214463
-0.0074918559 0.024581615 0.15332501
-0.0075340704 0.022095326 0.15705109
-0.007455756 0.019444644 0.15908942
-0.0072232531 0.016996525 0.1598065
-0.0075268149 0.013990958 0.16228373
-0.0079364721 0.011443071 0.16651271
-0.0096998038 0.0069931904 0.16614538
-0.011225708 0.0041395184 0.16723652
-0.010775955 0.0018621242 0.16813453
-0.010159165 -0.00043586976 0.16819273
-0.010034394 -0.0024512908 0.16894814
-0.0047021797 0.034798007 0.14802153
-0.0050783334 0.032159492 0.14987642
-0.0052084099 0.029158557 0.15153018
-0.0049110712 0.026982613 0.15322214
-0.0048937523 0.02463425 0.15484454
-0.0048847077 0.022146339 0.15904078
-0.0049312296 0.019967346 0.1603307
-0.0050092554 0.017309407 0.16131033
-0.0049564061 0.014399785 0.16384198
-0.0050047114 0.011547578 0.16785635
-0.005225318 0.0077568358 0.16878678
-0.0070426613 0.0048190928 0.1695388
-0.0078887725 0.0019225023 0.1690345
-0.0076395562 -8.7490153e-05 0.16866159
-0.0056651635 -0.00441632 0.17248018
-0.0022100895 0.034631584 0.14831029
-0.0025382924 0.032000177 0.1492621
-0.0020727701 0.02912003 0.15118967
-0.0020313384 0.026771128 0.1529184
-0.001983087 0.024669828 0.15521583
-0.0023096704 0.022231169 0.15954162
-0.002272039 0.020240836 0.16110499
-0.0024109005 0.017607972 0.1627934
-0.0022525382 0.014760252 0.16509008
-0.0016366751 0.011256798 0.16875122
-0.0023312266 0.0082994075 0.16960837
-0.0024632073 0.0054394123 0.1715353
-0.0036255994 0.0029311157 0.17183982
-0.0031381056 -5.2006679e-05 0.17246956
-0.0019024045 -0.0045853858 0.17591493
0.00020526438 0.033774707 0.14918129
0.00056581065 0.031726733 0.15046899
0.00028890584 0.029215798 0.15242168
0.00097367214 0.027098399 0.15445238
0.00096790295 0.024458658 0.15684848
0.0006133024 0.022284608 0.15915747
0.00036410536 0.020573782 0.16166314
0.00012630854 0.017881751 0.1637557
0.00028046939 0.015207883 0.16557106
0.0014108828 0.011298409 0.16853817
0.00092403748 0.0083867749 0.16985761
0.00078424823 0.0056363354 0.17154072
0.00029333599 0.003063255 0.1726401
0.00040680091 7.8597404e-05 0.17479812
0.00049186137 -0.0033663758 0.17629263
0.0027510878 0.034255095 0.14923494
0.0029272323 0.031998888 0.1508984
0.0031412952 0.029703861 0.15266028
0.0038882855 0.027076107 0.15529957
0.0039057513 0.024914389 0.15698051
0.0035758661 0.022762096 0.15868163
0.0032110773 0.02069027 0.16035931
0.0029753984 0.017925931 0.16380525
0.0028826494 0.015379721 0.16601212
0.0044371043 0.011231675 0.1679098
0.0043561212 0.0080787707 0.16932496
0.0039434605 0.0058577447 0.170727
0.0040617869 0.0032473549 0.17242444
0.0032155148 0.00060034735 0.17523178
0.0035349599 -0.0023983065 0.17654225
0.005452435 0.034376595 0.14857626
0.0055863094 0.032280356 0.15052588
0.0055658664 0.03012557 0.15227771
0.006346799 0.027043791 0.15546316
0.006244217 0.025047667 0.15785033
0.0058967303 0.023109686 0.15963393
0.0059347674 0.020936362 0.16154319
0.0056603402 0.018495804 0.16309953
0.0067523052 0.014868148 0.16574229
0.0071000899 0.011643384 0.16844639
0.0073759397 0.0086738868 0.16906731
0.0070772711 0.0063263164 0.17127176
0.0064356457 0.004142995 0.17380975
0.0060837748 0.00075085496 0.17659375
0.0060963067 -0.0020347042 0.17821245
0.0078828176 0.034571476 0.14888503
0.0079919538 0.032537621 0.15101054
0.0082604298 0.030337777 0.15188159
0.0090604853 0.027502179 0.15715833
0.0084389569 0.02554897 0.15963887
0.008176256 0.023386672 0.16058595
0.0079613877 0.021172764 0.16230017
0.0099697905 0.017269894 0.16534989
0.0097909132 0.014758156 0.16687568
0.0097274175 0.011937779 0.16864978
0.010250443 0.0093771927 0.16938721
0.01002207 0.0070456401 0.17132992
0.0090077166 0.0042691543 0.17494987
0.0098502655 -0.00028640084 0.17808415
0.0096091619 -0.0026701265 0.17939194
0.010422027 0.034654524 0.14857014
0.010609279 0.032660596 0.14987788
0.010737696 0.030450914 0.15215287
0.011385491 0.027824352 0.1580808
0.010955343 0.025585718 0.1601267
0.010770391 0.023382723 0.16091965
0.010183452 0.020918407 0.16298777
0.012143164 0.017490108 0.16583849
0.012124157 0.015057158 0.16746749
0.012325745 0.01260137 0.16853593
0.012937078 0.01000207 0.16969238
0.012611099 0.00744149 0.17189574
0.011910021 0.0039841128 0.17571361
0.013682113 -0.00042747668 0.17702453
0.012919671 0.034788635 0.1476817
0.0132052 0.03258777 0.149184
0.013772528 0.029997781 0.15445241
0.014272391 0.027527651 0.15924786
0.013883457 0.025630139 0.16071028
0.01363462 0.023626739 0.16187136
0.012964875 0.021006083 0.16470148
0.014315682 0.017960198 0.16616794
0.014320042 0.015624193 0.16777687
0.014410938 0.013261008 0.16899917
0.01531598 0.010706996 0.17041156
0.014700033 0.0077658514 0.17243271
0.014767563 0.0045357365 0.17497225
0.015843352 0.00028843858 0.1748943
0.016247645 -0.0026154313 0.17622539
0.015111879 0.034645364 0.14708728
0.015948448 0.03206259 0.14901797
0.016720768 0.028469916 0.15574169
0.01609413 0.025871608 0.16116944
0 0 0 1 0 0 0 1 0 0 0 1 0 0 0 0 0 240 1 0 0
