ply
format ascii 1.0
comment PCL generated
element vertex 240
property float x
property float y
property float z
element camera 1
property float view_px
property float view_py
property float view_pz
property float x_axisx
property float x_axisy
property float x_axisz
property float y_axisx
property float y_axisy
property float y_axisz
property float z_axisx
property float z_axisy
property float z_axisz
property float focal
property float scalex
property float scaley
property float centerx
property float centery
property int viewportx
property int viewporty
property float k1
property float k2
end_header
-0.026453853 0.034136154 0.14733982
-0.026307574 0.031772427 0.1474444
-0.026033536 0.029386392 0.14892015
-0.02594131 0.02681368 0.14976658
-0.025985241 0.023969103 0.15174001
-0.026842583 0.020378036 0.15450436
-0.029982302 0.015008107 0.1566468
-0.030325191 0.012189632 0.15796006
-0.030156994 0.0092991283 0.15876596
-0.029751392 0.0062988736 0.15914364
-0.029846646 0.003108623 0.15998587
-0.030260006 0.00036838761 0.16179176
-0.030375022 -0.0020998663 0.16284455
-0.024192519 0.034128752 0.14661042
-0.023748023 0.031642962 0.14726187
-0.023343535 0.029277006 0.14797495
-0.023310704 0.026835604 0.14932008
-0.023166718 0.024329847 0.15056826
-0.023912182 0.020924544 0.15265664
-0.024805835 0.016658662 0.15609258
-0.025709732 0.013382077 0.15699005
-0.026187571 0.010309734 0.15835175
-0.026500596 0.007254173 0.15886126
-0.026497602 0.0042124796 0.16011707
-0.027229864 0.00087768777 0.16179718
-0.027812166 -0.0017473295 0.1641987
-0.02644363 -0.0045013959 0.16595684
-0.021260662 0.034199562 0.14623758
-0.020578133 0.031793337 0.14758272
-0.020550711 0.029442148 0.14807472
-0.020593304 0.026949883 0.14960462
-0.020720294 0.024252774 0.15070738
-0.021414222 0.020897433 0.15376253
-0.022263492 0.016991483 0.15639439
-0.022443198 0.01379697 0.15682176
-0.022744281 0.010948782 0.1577277
-0.023725202 0.0077781873 0.15921894
-0.023866337 0.0042986069 0.16205682
-0.024033111 0.0012493345 0.16347322
-0.02425091 -0.0017056443 0.16580029
-0.023590898 -0.0042345286 0.16666412
-0.02281183 -0.0068927272 0.16767357
-0.017404107 0.034258828 0.14748302
-0.017785719 0.03198519 0.14838389
-0.017895801 0.02953583 0.14849576
-0.018269615 0.027341241 0.15058593
-0.018222393 0.024451762 0.15094563
-0.018671382 0.021438442 0.15355906
-0.019916194 0.017476257 0.1575315
-0.01973954 0.014487766 0.15761371
-0.020072334 0.011344759 0.15911815
-0.020940231 0.0069479421 0.16108391
-0.021659615 0.0042166496 0.16292246
-0.02159835 0.0018574422 0.16448587
-0.021694096 -0.00061424833 0.16643667
-0.021227311 -0.003188171 0.16718756
-0.020462625 -0.0057070521 0.16890147
-0.014735966 0.034555811 0.14828542
-0.015155127 0.032146942 0.14889081
-0.015139423 0.029899633 0.14878608
-0.015753424 0.027218698 0.15110193
-0.015851747 0.024435708 0.15216559
-0.016204676 0.021634681 0.15432389
-0.017356923 0.017991779 0.15890314
-0.01722786 0.014973325 0.15884894
-0.017434841 0.012222532 0.16047347
-0.018059094 0.0081584677 0.1622548
-0.018530434 0.0050496995 0.16315465
-0.018837688 0.0025781852 0.1657739
-0.019024754 0.00026268105 0.16645445
-0.018601282 -0.0024495448 0.16780877
-0.017500538 -0.0049040625 0.1688346
-0.012343884 0.034769144 0.14854696
-0.012551587 0.032405738 0.14943881
-0.012828504 0.029697713 0.15035293
-0.013150475 0.027101649 0.15173559
-0.013385795 0.024478326 0.15292814
-0.013588949 0.021881029 0.15446129
-0.014404546 0.018821346 0.15835717
-0.01457838 0.015546067 0.15941291
-0.014696954 0.012705068 0.1614807
-0.015620697 0.0087970942 0.16363662
-0.016608583 0.0053030881 0.16438054
-0.017037295 0.00283206 0.16591172
-0.016503621 0.00081240467 0.16739236
-0.016317341 -0.0018533486 0.16768421
-0.01454481 -0.0046190796 0.16806635
-0.0098184245 0.034874965 0.14816447
-0.010015082 0.032667365 0.14935032
-0.010306156 0.029538194 0.15124641
-0.010659314 0.026978599 0.1523958
-0.010587879 0.024616407 0.15362225
-0.010737008 0.022000691 0.15580703
-0.010598189 0.019570634 0.15820269
-0.011255817 0.016302874 0.15881106
-0.011236431 0.013501093 0.1621719
-0.012537033 0.010241107 0.16535345
-0.014363475 0.0057907142 0.16453043
-0.01428862 0.0034521162 0.16608934
-0.013828481 0.0012003473 0.1672914
-0.013299854 -0.00098754803 0.16800009
-0.012093437 -0.0038160698 0.16815989
-0.0073538241 0.034935385 0.14805257
-0.0076334146 0.03248062 0.14964382
-0.0077981367 0.02946707 0.15171199
-0.0076243677 0.026867384 0.1522592
-0.0074857012 0.024542483 0.15337691
-0.0074093584 0.022023581 0.15699622
-0.0072985352 0.019388402 0.15899579
-0.0071498724 0.017012203 0.15981635
-0.0074636401 0.014048694 0.16228667
-0.0077447658 0.011354264 0.16637281
-0.0097849909 0.006820058 0.16654912
-0.011300496 0.0040471791 0.16766557
-0.010847739 0.0018702426 0.16859604
-0.010238955 -0.00036771555 0.16873358
-0.010100128 -0.0023234307 0.16958159
-0.0047174073 0.034670342 0.14786193
-0.0050656628 0.032024875 0.14976642
-0.0051708738 0.029042372 0.1514802
-0.0048412723 0.026845219 0.15307443
-0.0048082247 0.024498791 0.15468347
-0.0046345936 0.021948759 0.15870921
-0.0046830275 0.019825215 0.16002594
-0.0048568957 0.01725895 0.1611798
-0.0048055896 0.014298489 0.16366023
-0.004808763 0.011215174 0.16741058
-0.005073355 0.0076258602 0.16861513
-0.007072187 0.0049057403 0.16988553
-0.0079372441 0.0019947358 0.16946827
-0.007697395 1.1069167e-05 0.16914701
-0.0057273973 -0.0040880423 0.17330207
-0.0022201831 0.034537502 0.14812569
-0.0025203479 0.031914141 0.14914703
-0.0020112689 0.028828174 0.15080248
-0.0019834063 0.026479902 0.15253763
-0.0018734495 0.024431936 0.15488228
-0.0020683398 0.021990953 0.15912141
-0.0020165648 0.020010857 0.16067277
-0.0021965951 0.017411489 0.16248852
-0.0020368963 0.014492616 0.16473836
-0.0015984902 0.01114604 0.16861415
-0.0022725551 0.0083293589 0.16962537
-0.0025421288 0.0057278587 0.17193098
-0.0036409288 0.0031847663 0.17228515
-0.0031342343 0.00026384724 0.17307264
-0.0021207419 -0.0040058508 0.17699686
0.00042327377 0.033908244 0.14906503
0.00089871866 0.031873588 0.15031122
0.0006023458 0.029097721 0.15199403
0.0012403304 0.02678504 0.15392877
0.0012118438 0.024321079 0.15652837
0.00082286412 0.022138109 0.15885226
0.00055079267 0.020368285 0.16134046
0.00034475059 0.017616732 0.1633915
0.00047464125 0.014911992 0.16521364
0.0014134039 0.011459151 0.16891196
0.00088465965 0.0086693401 0.17039169
0.00066353573 0.006092702 0.17228501
0.00015286313 0.0035586555 0.17346281
0.00018181813 0.00064788101 0.17576711
0.00022568625 -0.0027250831 0.17741625
0.0029254854 0.03467121 0.14944932
0.003147359 0.032371592 0.15104079
0.0034001789 0.030022798 0.15273601
0.0040740711 0.027109783 0.15519808
0.0041099163 0.024916392 0.15685172
0.0037404944 0.022773169 0.15855198
0.0034056085 0.020604337 0.16010395
0.0031853647 0.017694302 0.16347386
0.0030324392 0.015167763 0.16581672
0.0044294335 0.011723196 0.16900572
0.0042949449 0.0086370222 0.17052528
0.0037944261 0.0064237658 0.17177419
0.0038434467 0.0039030374 0.173591
0.0029365325 0.0012231434 0.17627439
0.0032249072 -0.0017344787 0.17768896
0.0056409338 0.035079289 0.14910768
0.0057787653 0.032930121 0.15099989
0.0057888841 0.030719038 0.15269303
0.0063611506 0.027472306 0.15571693
0.0063300012 0.025286751 0.15792172
0.0060319994 0.023171155 0.15954182
0.0060972502 0.020897703 0.16136514
0.0058719721 0.018361812 0.16280241
0.0068602441 0.015053961 0.16661489
0.0069695408 0.012205476 0.16977246
0.0070879161 0.0092745787 0.17028046
0.0067742434 0.0068659727 0.17232475
0.0061037866 0.0047436859 0.17489046
0.0057975138 0.0013770224 0.17760804
0.0057897805 -0.0013839167 0.17925648
0.0079959752 0.035445936 0.14961654
0.0080834497 0.033371259 0.15171629
0.0084649269 0.031192942 0.15258843
0.0089441389 0.028046275 0.15764125
0.008448719 0.025751788 0.15980732
0.0082624443 0.023504367 0.16055971
0.0080954367 0.021179972 0.16215652
0.010017792 0.017557824 0.166348
0.0097753396 0.015056743 0.16791101
0.0095713027 0.01235953 0.16981955
0.009973783 0.0098043988 0.17043357
0.0097022643 0.0074574579 0.17224783
0.008783591 0.0046240482 0.17580602
0.0095612118 -3.5292901e-06 0.17862469
0.0093052723 -0.0023304936 0.17998701
0.010526288 0.035654888 0.14939129
0.010752291 0.033645824 0.15066983
0.010873031 0.031416528 0.15295538
0.011195184 0.028454278 0.15865384
0.010945239 0.025870346 0.16029994
0.010839642 0.023576958 0.16092996
0.010273109 0.021036066 0.16296703
0.012159934 0.017727025 0.16674905
0.012082767 0.015289519 0.16838925
0.012191606 0.012774166 0.1693887
0.012666819 0.010123542 0.17033157
0.012325909 0.0075724479 0.1724294
0.011732067 0.0040090638 0.17608838
0.013285125 -0.00043783235 0.17709504
0.013042773 0.035886861 0.1485377
0.013356444 0.033637643 0.14997764
0.013700703 0.030819492 0.15498061
0.014207545 0.027952915 0.15952069
0.013881445 0.025948536 0.16087829
0.013677038 0.023892466 0.16206993
0.012993742 0.021299316 0.16509213
0.01435307 0.018094864 0.16689827
0.014308587 0.015711483 0.16852732
0.014326472 0.013298501 0.16966441
0.015159842 0.01053001 0.17070891
0.014486286 0.007624804 0.17264222
0.014531191 0.0043005408 0.17493285
0.015273689 0.00015225649 0.17471562
0.015651911 -0.0027411012 0.17601605
0.01524837 0.035811882 0.14796981
0.016083181 0.033080552 0.14968264
0.016687142 0.029080248 0.15607834
0.016080245 0.02624106 0.16140553
0 0 0 1 0 0 0 1 0 0 0 1 0 0 0 0 0 240 1 0 0
