ply
format ascii 1.0
comment PCL generated
element vertex 240
property float x
property float y
property float z
element camera 1
property float view_px
property float view_py
property float view_pz
property float x_axisx
property float x_axisy
property float x_axisz
property float y_axisx
property float y_axisy
property float y_axisz
property float z_axisx
property float z_axisy
property float z_axisz
property float focal
property float scalex
property float scaley
property float centerx
property float centery
property int viewportx
property int viewporty
property float k1
property float k2
end_header
-0.026673799 0.034187425 0.14759368
-0.026524395 0.031822905 0.14774965
-0.026245376 0.029461375 0.14930476
-0.026148541 0.026941432 0.15031706
-0.026173972 0.024216454 0.15262561
-0.026965788 0.020566341 0.15541355
-0.030047912 0.015299891 0.1577542
-0.030374741 0.012376405 0.15881245
-0.030248426 0.009449617 0.15929784
-0.029944515 0.0065023168 0.15925814
-0.030114425 0.0032696982 0.15980536
-0.030408248 0.0002886625 0.16128178
-0.030412123 -0.0023439345 0.16193196
-0.024414608 0.034182765 0.14686547
-0.023966253 0.031703934 0.14758252
-0.023565082 0.029340127 0.1483691
-0.023526279 0.026947856 0.149831
-0.023399739 0.024555009 0.15134086
-0.024124585 0.021110356 0.15342052
-0.024914682 0.016783087 0.15692031
-0.025815567 0.013529194 0.15776189
-0.026276261 0.010392689 0.1588404
-0.026652506 0.0073899212 0.15884297
-0.026617948 0.0042853137 0.1595794
-0.027352298 0.00081880373 0.16099702
-0.027700601 -0.0021614702 0.1629643
-0.025928769 -0.0051498986 0.16344148
-0.021476986 0.034288704 0.14654399
-0.020779101 0.031901296 0.14796972
-0.020761099 0.029540952 0.14845462
-0.020791244 0.02705046 0.15000488
-0.020952126 0.024392113 0.15124507
-0.021569459 0.021040123 0.15439542
-0.022374468 0.017058713 0.15708275
-0.022596922 0.013848188 0.15751396
-0.02288154 0.010994595 0.15821682
-0.023820678 0.0078215078 0.15912995
-0.023706576 0.0041183364 0.16114083
-0.023726061 0.0010338572 0.16209798
-0.023649981 -0.0022187287 0.16338114
-0.022862213 -0.0048080208 0.16379915
-0.022110768 -0.0075289761 0.16458844
-0.017524248 0.03434528 0.14781423
-0.01792529 0.032068808 0.14870699
-0.018082622 0.029618053 0.148799
-0.018417012 0.027411809 0.15086748
-0.018431483 0.024524534 0.1512242
-0.018802168 0.021556059 0.15398364
-0.019954678 0.017469287 0.15803854
-0.019863917 0.014453836 0.15812197
-0.020164536 0.011265475 0.15953214
-0.020677246 0.0068164854 0.16036545
-0.021325298 0.0039527239 0.16184296
-0.021255195 0.0015517968 0.16319764
-0.021297555 -0.0011262848 0.16455701
-0.020676492 -0.003751535 0.1648342
-0.020087322 -0.0064326716 0.16638196
-0.014782944 0.034587059 0.14852825
-0.015242724 0.032179698 0.14912257
-0.015288477 0.029932732 0.1489757
-0.015866516 0.027224218 0.15118407
-0.015988003 0.024462774 0.15228456
-0.016295075 0.021644915 0.15444632
-0.017270664 0.017827585 0.1591284
-0.017290546 0.014799696 0.15907784
-0.017498828 0.012034731 0.16071852
-0.017944062 0.0080410596 0.16216585
-0.018182706 0.0048650391 0.16239788
-0.018591015 0.0021206343 0.16469203
-0.018670514 -0.00011887945 0.16512245
-0.018236389 -0.0030009099 0.16602944
-0.017216036 -0.0054962588 0.16699772
-0.012360662 0.034800537 0.14879054
-0.012589187 0.032391481 0.14959215
-0.01287956 0.029629866 0.15031686
-0.013216555 0.027012529 0.15160631
-0.013492285 0.024450906 0.15289997
-0.013673828 0.021842189 0.15438785
-0.014298913 0.018495547 0.15819547
-0.0145944 0.015234841 0.15938409
-0.014740623 0.012424616 0.16157636
-0.015675051 0.0086752791 0.16387472
-0.016445966 0.0051560611 0.16400757
-0.016842814 0.0025003986 0.16515183
-0.016350467 0.00038679206 0.16645904
-0.016029876 -0.0022567699 0.16648754
-0.014229916 -0.0049610483 0.16698435
-0.0098345233 0.034936346 0.14842598
-0.010031059 0.03270068 0.14955522
-0.010321798 0.02942859 0.15112332
-0.01069312 0.026850667 0.15221
-0.01066173 0.024534767 0.15345213
-0.010731081 0.021844709 0.15549654
-0.010429812 0.019166065 0.15754965
-0.011261273 0.015871655 0.15849894
-0.011207986 0.013097641 0.16203986
-0.012602376 0.010026478 0.16564867
-0.014399193 0.0059047104 0.16479024
-0.014258314 0.0033603949 0.16593845
-0.013713188 0.00094531727 0.16680419
-0.013154934 -0.0012872943 0.1673663
-0.0118672 -0.0040826253 0.16749595
-0.0073711681 0.034957144 0.14822295
-0.0076453364 0.032472011 0.14977206
-0.0078141689 0.02934128 0.15158835
-0.0076625193 0.026770145 0.15212168
-0.0075215329 0.02445508 0.15320866
-0.0073528793 0.021852827 0.15666685
-0.0071560652 0.018979717 0.15836424
-0.0069715651 0.016498726 0.15921469
-0.0073123695 0.013530405 0.16191073
-0.0075779222 0.010969137 0.16614115
-0.0099676112 0.0067476192 0.16722712
-0.011404491 0.003809385 0.1678431
-0.01088285 0.0015515097 0.16849083
-0.010222832 -0.00064551405 0.16846593
-0.010112564 -0.0026440362 0.16919427
-0.0047708093 0.034512397 0.14774621
-0.0050913533 0.031931173 0.14970718
-0.0052027744 0.028943781 0.15136333
-0.0048781466 0.026763855 0.15294528
-0.0048299623 0.024413876 0.1545231
-0.0046212669 0.021733837 0.15842256
-0.0046126009 0.019453542 0.15958278
-0.0047599161 0.016826523 0.1606973
-0.0046586753 0.013845854 0.16326526
-0.0046962472 0.010799045 0.1671368
-0.0049688173 0.0070972838 0.16828012
-0.0070854011 0.0044876169 0.16994692
-0.0079471543 0.0016490417 0.16935332
-0.0077006565 -0.00024920789 0.16898344
-0.0052107638 -0.0047897748 0.17239365
-0.0022724951 0.034254864 0.14781755
-0.0026183857 0.031658132 0.1488242
-0.0020536087 0.028745994 0.15067197
-0.0020194 0.026432075 0.15241601
-0.0018969327 0.024361316 0.15475458
-0.0020675063 0.021843715 0.15894598
-0.0020411301 0.019854771 0.16048303
-0.0021578795 0.017071258 0.16216117
-0.0019304763 0.014066752 0.16430408
-0.0014055327 0.010570792 0.16804382
-0.0020778314 0.007719689 0.16904593
-0.002188253 0.0049643167 0.17116679
-0.0032295408 0.0024123408 0.17153102
-0.0025523712 -0.00055074744 0.17215157
-0.0010518864 -0.0050428179 0.17559512
0.00040196488 0.033185706 0.14827518
0.00090170506 0.031137576 0.14953545
0.00062041718 0.028572083 0.15144932
0.0013012463 0.026457153 0.15364972
0.001258939 0.024071686 0.1563317
0.0008319203 0.022024581 0.15875442
0.00052193529 0.020265698 0.16123036
0.00036224382 0.017322801 0.16312775
0.00054618815 0.014512243 0.16479878
0.0016529757 0.010837568 0.16814375
0.0011747588 0.0079998132 0.16955529
0.0010113851 0.0053758686 0.17143133
0.00059737521 0.0028277265 0.17261244
0.0008047655 -0.00019073249 0.17478053
0.0011431192 -0.0036067856 0.17621991
0.002926426 0.033896625 0.148545
0.0031729247 0.031639796 0.15018648
0.0034563132 0.029341547 0.15194081
0.0042438935 0.026521567 0.15461481
0.0041873883 0.02456075 0.15654445
0.0037636103 0.022608262 0.15841827
0.0034006059 0.020517303 0.16005653
0.0031834911 0.017525023 0.16331647
0.0031007207 0.014771149 0.16538264
0.0046739602 0.011227782 0.16836606
0.0046184408 0.0081629539 0.1698757
0.0041504484 0.0059239995 0.17109732
0.0042676311 0.0033919304 0.17290743
0.0033874423 0.00070593704 0.1756189
0.0038686688 -0.0022075516 0.17705709
0.0056314557 0.034226563 0.14808702
0.005804244 0.032159537 0.15005389
0.0058455137 0.030014211 0.15182042
0.0066122781 0.026719993 0.15496397
0.0064626304 0.024850259 0.15744291
0.0060767331 0.022964099 0.15933785
0.0061038467 0.020839114 0.16129981
0.0058453227 0.018374925 0.16284876
0.0069282874 0.014722448 0.16619132
0.0070825075 0.01193324 0.16939439
0.0073401025 0.0090634488 0.17001337
0.0070221862 0.0066516711 0.17202206
0.0063025216 0.0044649453 0.17448683
0.0059818975 0.0012310809 0.17739204
0.0060808496 -0.0014663727 0.17911296
0.0079896683 0.034590922 0.14852034
0.0081226667 0.032606959 0.15069525
0.0085185049 0.030459749 0.1516394
0.0091828788 0.027475337 0.15686785
0.0085892742 0.025448442 0.15923518
0.0083281631 0.023304427 0.16021623
0.0081008365 0.021154067 0.16205411
0.010012108 0.017332764 0.16600692
0.0098112524 0.014884243 0.16764076
0.0096393079 0.012281069 0.16965879
0.010135563 0.0098243225 0.17045635
0.0098538511 0.0075615686 0.17232315
0.0088087358 0.0047677397 0.17584608
0.0096783051 0.00066337333 0.17933753
0.0095135178 -0.0016424151 0.1807318
0.010500089 0.034829542 0.14828341
0.010763905 0.03288655 0.14965416
0.010928152 0.030750185 0.152024
0.011367273 0.02804119 0.15801951
0.011071579 0.025551522 0.15976356
0.01091233 0.023321725 0.16055223
0.010279284 0.021004351 0.16282897
0.01213342 0.017610934 0.16648814
0.012079948 0.01525112 0.16821413
0.012231148 0.01279123 0.16934302
0.012796625 0.010256819 0.17045048
0.012411517 0.0079806531 0.17284982
0.011722249 0.0046587787 0.17668545
0.0136186 0.00073854101 0.17851335
0.013005034 0.03511221 0.14746577
0.013366465 0.032968637 0.14903544
0.013709856 0.030620273 0.15455152
0.014282697 0.027769873 0.15923218
0.014009801 0.025654322 0.1604076
0.013795974 0.023621826 0.16163859
0.013031557 0.02121127 0.16482046
0.01430666 0.018070882 0.16673014
0.014274599 0.015777867 0.16845848
0.01433993 0.013429176 0.16969168
0.015248545 0.010760861 0.17086287
0.014535231 0.0082070883 0.17322476
0.014595124 0.0052234018 0.1758877
0.015851896 0.0013723559 0.17635699
0.016387507 -0.0012929824 0.17801149
0.015216587 0.035124637 0.14699605
0.016129969 0.032632098 0.14895461
0.016603611 0.029272577 0.15589033
0.016229915 0.025933027 0.1608977
0 0 0 1 0 0 0 1 0 0 0 1 0 0 0 0 0 240 1 0 0
