ply
format ascii 1.0
comment PCL generated
element vertex 764
property float x
property float y
property float z
element camera 1
property float view_px
property float view_py
property float view_pz
property float x_axisx
property float x_axisy
property float x_axisz
property float y_axisx
property float y_axisy
property float y_axisz
property float z_axisx
property float z_axisy
property float z_axisz
property float focal
property float scalex
property float scaley
property float centerx
property float centery
property int viewportx
property int viewporty
property float k1
property float k2
end_header
0.00062895269 5.92796e-06 0.00015898312
0.0010705166 -0.00033698074 -0.0001509273
0.00051711395 0.00020744908 0.00038024664
0.00078748987 0.00084898435 0.00099015445
0.00051078171 0.0011969771 0.0014821946
0.00071015226 0.00064370118 0.0012241704
0.00079046807 0.00034681553 0.00071959529
0.0016406261 0.00023439938 0.00045189093
0.001707052 -0.00036292223 -0.00025956388
0.0013559398 -0.00063711166 -0.00052571582
0.0016121401 -0.0010534091 -0.0013428524
0.0031477814 -0.0014486297 -0.0026305355
0.0020028129 -0.0010189642 -0.0016316846
0.0023796649 -0.0011840974 -0.0012802971
0.0021549084 -0.00064868218 -0.00067377597
0.0016954599 0.00059504207 3.4437115e-05
0.00070334424 0.0019086369 0.00083795981
0.0008678991 0.00021016828 -0.00025951609
0.0006236473 -0.00027761472 0.00012245774
0.00036633373 0.00014840144 0.00040230335
0.00034252077 0.0011849565 0.00095356943
-0.00032684876 0.00080412102 0.00095682254
0.00012105246 0.00096509611 0.001091226
0.00042531741 0.0007707185 0.00061051233
0.001054629 0.00037267426 0.00044249312
0.0015628623 -0.00031048703 -0.00065347913
0.0032339673 -0.0020790666 -0.0016993654
0.0045236507 -0.0037192553 -0.0047370312
0.0048105745 -0.0018566888 -0.0039009042
0.0016771514 -0.00067293062 -0.0012121524
0.0025268078 -0.0014772267 -0.0018511708
0.0015034871 -0.00010609675 -0.00075667526
0.0010718775 0.0010628791 0.00018174293
9.7760596e-05 0.0017130844 0.00097138318
-5.9958056e-05 0.00055325235 6.6282817e-05
0.00027735441 0.00059648929 0.00016875399
9.8351455e-05 0.00034455716 0.00052302494
-0.00033654063 0.0013341273 0.0014720194
-0.00014490369 0.00079922698 0.0014435485
-0.00050610304 0.0013090791 0.0015260886
5.6878373e-05 0.00081114488 0.0012641997
0.000340653 0.00057164172 0.00028993082
0.0011297584 -7.6210403e-05 -0.00027541548
0.0018970331 -0.0010452974 -0.00089643977
0.0020277663 -0.0012596616 -0.0015511841
0.0026742727 -0.0012020469 -0.0025719337
0.003246747 -0.0010373353 -0.0017766359
0.0019350038 -4.1731096e-06 -0.00069873268
0.0012925575 0.0004685118 -0.00026154524
0.00068684533 0.00081779133 0.00073126727
0.00047768874 0.0021350621 0.0014607254
0.00028806904 0.00037304865 0.00020332393
-0.00022910666 0.0010869895 0.00039821435
-9.748897e-05 0.0011921395 0.0009407812
-0.00059095718 0.0017436264 0.0013831633
-0.00022589017 0.00067477959 0.0009281183
-0.00016323983 0.0005822645 0.0014244238
-0.00016490516 0.0013220764 0.0012024868
0.00024822223 0.001104229 0.0011626263
0.00038945521 0.00036872854 0.00020361974
0.0013703369 -0.00056622416 -0.00050229859
0.0013123013 -0.0010870135 -0.0013950992
0.0009790255 -0.00043680135 -0.0011054809
0.0020186855 -0.00035848017 -0.00095996115
0.0015101586 -0.00013609084 -0.00027838862
0.00098991033 0.00041191268 -2.275236e-05
0.00063538254 0.00096353382 0.00070961064
0.0001399657 0.0016048115 0.0012501321
-0.00015306802 0.00031037634 0.00036845621
0.00038388043 0.00083616824 0.00022704342
0.00014816428 0.00061144808 0.00059285603
0.00036048639 0.0014209009 0.0012789168
-0.00017351973 0.00056945562 0.0010337438
6.5529466e-06 0.0010811557 0.0013504318
-0.00024812634 0.0015534932 0.0015321422
1.9244941e-05 0.00085473171 0.00080176839
0.00044915112 0.00086566567 0.00065138174
7.4780903e-05 6.8390334e-05 0.00010253891
0.00030811742 -0.00030640594 -0.00049856061
-9.0469461e-05 -1.5022108e-05 -0.00039637589
0.00065290439 -1.1325358e-05 -0.00032716693
0.00061544904 2.6394731e-05 0.00020673816
0.00073134399 0.00037279999 0.0004632092
0.00048747039 0.00084695814 0.00064354501
-0.00012831362 0.0013729632 0.0012425458
7.0958026e-06 0.00018936477 0.00019858929
-4.9929458e-05 0.00055195222 0.00012686652
0.00012224398 0.00029358259 0.00067051931
-2.5598572e-05 0.00084493984 0.00076674315
0.00050169585 0.0011742195 0.0013064009
0.0002126132 0.0032077404 0.0027721645
-0.00055744662 0.0018017642 0.0019836274
-0.00026353932 0.0011997555 0.0023893258
0.00012626841 0.0010185193 0.00082438783
0.00018306835 0.00038685108 0.00059858832
0.00036126425 0.00029193898 -8.7285407e-05
-0.00016636727 0.00033233137 0.00010877223
9.2650742e-05 0.00034349534 0.00056079944
0.00010164621 0.00023708727 0.00055647467
0.00063135184 0.00033783435 0.00073065702
8.5475454e-05 0.00055438484 0.00093118561
-0.00011173283 0.0010234267 0.001019534
0.00018202575 -0.00017005164 0.000354049
0.0003208491 0.00063116854 0.00054437143
-0.00018469813 0.00049255148 0.00044906113
0.00019637475 0.00043824586 0.0004882607
0.00026054386 0.0017473482 0.0011987706
-0.00031835726 0.0023762153 0.0017338684
-9.5852702e-05 0.0017780856 0.0015642544
-0.00013116574 0.0007575386 0.0019695971
-0.00021232189 0.0010884935 0.0016813158
0.00052973774 0.00032653208 0.00067960442
0.00034802666 0.00069970533 0.0003034774
9.6018026e-05 0.00054339849 0.00015827734
1.1270225e-05 0.00064353482 0.00068386813
0.00034707502 0.00049187726 0.00053061434
0.00024646177 0.0004307148 0.00088611763
-0.00012416448 0.00036067853 0.0010915434
0.00035885151 0.00075080839 0.00075344619
-0.00016660138 -0.00059934863 0.00039822623
-0.00016065022 0.00056373782 0.00045991741
0.00030294745 0.00057721004 0.00059693208
0.0001804858 0.00093882589 0.00058244122
-0.00025636438 0.00081948517 0.00075543643
0.00024706419 0.0016300927 0.0010329635
8.2268234e-05 0.0020195753 0.0017485606
-0.0001120029 0.00085273216 0.0023338969
0.00024704315 0.0011547346 0.0019729091
0.00046777009 0.00033438805 0.0012805802
5.2160158e-05 0.00096945517 0.00068252935
0.00026122565 0.0007390799 0.00019667055
0.00031276295 0.00082280516 0.00039288486
0.00086454151 0.0004968117 0.00068715954
0.00033819929 0.00034234044 0.00072425121
0.00012997814 0.00024114527 0.00073515344
4.3362405e-05 0.0004781436 0.00052761426
0.00032968662 -0.00056180893 0.00026838548
0.00018317765 -0.00019130683 0.00043128771
0.00022923657 0.00025791841 0.00045970548
-0.00016506594 0.00045182733 0.00054693618
0.00037664673 0.00049935485 0.00071782141
0.00034053833 0.0021055562 0.0014478303
0.00020978501 0.0024646723 0.0016275769
0.0003131819 0.00077446783 0.0016327726
0.00026629001 0.00065119693 0.0012413856
5.9439935e-05 0.00043387385 0.0015588322
-8.0118771e-05 0.00088431558 0.00064278068
0.00032326655 0.00081925932 6.2038365e-05
0.00069928018 0.00060574216 0.00022237987
0.001019479 0.00069430604 1.8924369e-05
0.00095369038 0.00042585295 0.00039637397
0.00057981611 0.00018292147 0.00046330912
0.00044796453 0.0001732227 0.0002647519
0.00010250324 0.00036245992 7.5203665e-05
0.00015140897 -0.001027449 0.00074675056
0.00038138658 -0.00057414552 0.00043269389
8.0279257e-05 -0.00066057348 0.00025532377
0.00024551808 -0.00016349273 0.00031665468
0.00010591713 0.00076063629 0.0010423743
-0.00016567155 0.00095501839 0.00062585936
0.00041215678 0.0016600288 0.00087766774
0.00018481519 0.00080706377 0.0013318061
2.7334167e-06 0.00045063838 0.0014010483
1.6498558e-05 0.00058038853 0.0016172355
0.00010359873 0.00075312424 0.00099041895
0.00068153313 0.00074510206 0.0001927398
0.00054069131 0.00044720754 4.0353581e-05
0.00045728619 0.00046243283 4.1130686e-05
0.00097794097 0.00049355923 0.00012538607
0.0011358047 0.00060113828 -0.00037521543
0.00098150782 0.0007520236 0.00010743886
0.00091503671 0.00083706959 -0.00029002922
0.00076020515 0.00068389141 -0.0006587212
0.00039913697 -0.001183499 0.00064618175
0.00011837367 -0.00068635121 0.00042566264
0.000241954 -0.00044864192 0.00036067003
0.00035522762 -0.0002255429 0.00066145376
-0.00020030477 -3.1383883e-05 0.00063615933
1.7838152e-05 0.00022087172 0.00048011966
0.00024878691 0.0023174379 0.0013018987
-9.310118e-06 0.00051091396 0.00059211504
5.6215693e-05 0.00024655464 0.00072193955
2.783494e-05 0.00025885613 0.00016420614
0.00069073611 0.00063622015 0.00080760964
0.00069615513 0.00077705586 6.8741028e-05
0.00046966036 0.00016753831 2.1491449e-05
0.00072182022 0.00037345474 -0.00012629744
0.0010087939 0.00065849681 -3.4509143e-05
0.00080716965 0.00089636794 -0.00051179837
0.00096340192 0.00090969971 -0.00043997506
0.00094702817 0.00091407303 -0.00051596714
0.00072984066 0.00075245654 -0.0005908804
0.0007284538 0.00074727042 -0.00086781476
-8.0049031e-06 -0.0017062594 0.0010385154
0.0001505863 -0.0006096022 0.0006458807
0.00045309702 -0.00026729447 0.00055757933
-7.9446399e-06 -0.00028336199 0.0005201092
-7.8213176e-05 -0.00013823173 0.00016198476
-0.00041456413 -0.00014286695 0.00067553489
-0.0010590553 -0.00012308132 -0.00036206402
-0.00090211013 0.00012849148 -0.00043949837
-0.00022580985 8.4274259e-05 -0.00048039766
-1.8313827e-05 8.4938067e-05 -0.00070554455
0.00038381404 0.00062500249 8.3755891e-05
0.00064515317 0.00048440482 -0.00015745632
0.00063003483 0.00030581313 -6.3175954e-05
0.00054314377 0.0003750379 0.0001222916
0.0005958699 0.00078378915 -0.0001843979
0.00053615624 0.00079101336 -0.00043536373
0.0006329898 0.00078194297 -0.00044488115
0.00081315293 0.00069880957 -0.00054583786
0.00060862314 0.0008579907 -0.00075044716
1.1633123e-05 0.00065014133 -0.00086927088
0.00019847727 -0.0012105687 0.00070333603
0.00025674366 -0.00054283487 0.00011844469
2.8845599e-05 9.1894821e-05 0.0007255128
0.00018925703 -5.2394811e-05 0.00026948971
-0.00037278817 -0.00044448808 0.00048068122
-0.00039909329 -0.00033578588 -6.1100327e-05
0.00044478485 -0.00017621888 -6.4192798e-05
-0.00056847231 -0.0003340008 -0.00058062351
-0.00021778399 0.00013791781 -8.002769e-05
-0.00044763222 3.5319863e-05 -0.00099276088
0.00040392633 0.00055341312 -0.00032697053
0.00027049312 0.00036437507 -0.00025043235
0.00042288975 0.00015693688 3.3235909e-05
0.00053612678 0.00037740153 0.00011729927
0.00026508138 0.00085791957 0.00014552345
0.00013390736 0.00072466594 -0.00024916805
0.00043142779 0.00053376128 -0.00055565382
0.00075252284 0.00066315103 -0.00070854952
0.00060244172 0.00082327425 -0.00076194678
0.0003951918 0.00062542385 -0.00096062879
0.00010998223 -0.0020667512 0.0016393506
-5.6310175e-05 -0.00059721334 0.00029850815
0.00044100176 0.000317775 0.00072164176
0.00053121778 0.00049066608 0.00088935025
0.00021996275 -0.00016592974 0.00024384707
-0.00095921656 -0.00032980667 -5.9876347e-05
-7.7244629e-05 -0.00038726258 -0.0018335199
-0.00058098673 -0.00055510295 -0.0011414798
-0.0022801519 -0.0023173429 -0.0028877843
-0.0024495891 -0.0025853217 -0.0031558098
-0.0026478739 -0.00077515218 -0.001242565
0.00015157608 0.00031252793 -0.00050637376
0.00022031706 8.4163323e-05 0.00025794777
0.00034106203 0.00051720825 0.00059657689
0.00029347657 0.0010401966 0.00041822749
0.00019211 0.00077642623 -4.3430005e-05
0.00025305903 0.00022375264 -0.00065612979
0.00057409919 0.00065881287 -0.0008117439
0.00076264696 0.00066201901 -0.00097657484
0.00026154052 0.00055383606 -0.0010238237
0.00018697383 -0.0010153597 0.00081188977
0.00014902856 -0.00015430854 0.00034010384
0.00016302805 0.00096092379 0.00072578888
0.00021578914 0.00069677754 0.00067393109
-0.0002551481 -2.3283386e-05 -2.7993421e-05
-0.00031057486 0.00015893676 0.00060378539
2.814224e-05 -0.00011113598 -0.00084690971
-0.000967948 -0.00061366998 -0.0012535489
-0.0025922919 -0.0027617235 -0.0040259804
-0.00126869 -0.001293519 -0.0012735284
-0.0018149196 -0.0011836579 -0.0013969856
-0.00057286426 -0.00042270994 -0.00054488837
1.7777753e-05 0.00012708129 0.00018851526
0.00015671736 0.00051416649 0.00022645273
0.00038934982 0.000915599 0.0008723858
0.00057302148 0.0004322326 -9.0957656e-05
0.00053011515 0.00023260596 -0.00070406677
0.00062472891 0.00050841703 -0.00097446993
0.00027910448 0.00058081339 -0.0010249784
0.00016840079 0.00067782961 -0.0010753316
0.00087017863 0.00043077691 -0.0012814773
0.00017659928 -0.0016989172 0.001636112
5.5889035e-05 -0.00035449697 -0.00030297248
0.00072402757 0.0010470671 0.00071875629
0.0006922938 0.0012187978 0.0011486817
0.00053971773 0.00068653753 0.00073311682
0.00022622455 0.00015867763 0.00053110858
-0.00032090623 -0.00020100767 -0.0003510786
-0.00058327767 -0.001241924 -0.0023423403
-0.0035589344 -0.0021763076 -0.0037242214
-0.0036701409 -0.0024733844 -0.0032065264
-0.0035105767 -0.0026491354 -0.0027785599
-0.00095720624 -0.0014701555 -0.0012352053
-0.00064138585 -0.00061079429 -0.00068662252
0.00042570851 0.00094083708 0.00083063648
0.00063615455 0.00092863769 0.00091105845
0.00078910432 0.00052687927 0.00028486748
0.00065241387 0.00059822685 -0.00015762838
0.00040926103 0.00057499512 -0.00090467313
0.00010089255 0.00082134525 -0.00056484464
-6.2536012e-05 0.00088788662 -0.00090076413
0.00014777017 0.00054452318 -0.0010806995
-0.0002125092 -0.0020794268 0.0020694623
0.00028185893 0.00069203856 0.00035229439
0.00081651076 0.0017351143 0.0017379308
0.0019391446 0.0036582612 0.0032256991
0.0016545518 0.0024833092 0.0022753435
0.0010120891 0.0010428557 0.0016864742
0.00048329981 0.00049613719 0.0015480052
0.00041166635 0.00030048552 0.00068482297
-0.0022792616 -0.0018273009 -0.0044488162
-0.0048269173 -0.0034777778 -0.0055814199
-0.0014606747 -0.0012503482 -0.0018921212
-0.0024796436 -0.0019008121 -0.0023179571
0.00030147325 -0.00029556541 -0.00021776088
0.00039949763 0.0003706663 0.0013083775
0.0003413083 0.001216172 0.0013521292
0.00014498661 0.00088923669 0.00074456306
0.00011094788 0.0013820353 0.00044904617
1.0523792e-05 0.0010199782 9.8296223e-05
-5.7375921e-05 0.001090504 -0.00039868415
-2.5414689e-05 0.00087323773 -0.00063225679
0.00024369462 0.00067754847 -0.0010820245
-0.00049545028 -0.00063484395 7.2573188e-05
0.00019230095 0.0017870126 0.00088027457
0.00021280568 0.0005078945 0.00057959958
0.00022869794 0.0010344493 0.00081537309
0.0005880309 0.002678988 0.0028735946
0.00031483828 0.0010567028 0.0026637991
0.00018707493 0.0018525682 0.0041868147
-0.001429171 -0.0013692556 -0.0023464907
-0.0057266387 -0.0033003781 -0.0073208814
-0.012822512 -0.010826448 -0.014929278
-0.0052635707 -0.0040871128 -0.004276955
0.00014588458 -0.0011834963 2.8156517e-05
0.00026936669 0.00072081742 -8.5090454e-05
0.00027964026 0.0010348099 0.0016799704
0.00022596259 0.0014795279 0.0011122749
-0.00018172285 0.001612835 0.00091681228
-0.00013769981 0.0014018784 0.00049908302
-7.0394548e-05 0.0011626802 -0.00036958139
0.00013643148 0.00095508643 -0.00070022477
0.0004604006 0.00068198337 -0.0009681058
0.00017505788 -0.0020479623 0.0022585879
0.00013322108 -0.00010132973 -0.00020887166
-0.00034003131 0.0010344113 0.0014941067
0.00030247157 0.0036217899 0.0049662562
0.00015172176 0.0009772043 0.0013007742
0.00014448201 0.0013172685 0.0030747296
8.830888e-06 -3.8169725e-05 -3.5996407e-05
-7.9046324e-05 -0.00049620803 -0.0023736465
0 0 0
0.0025455661 -0.0051933718 -0.0079694819
0.00091710844 -0.0023168335 -0.0038156244
-5.3554893e-05 0.00049295928 0.00095366186
2.5241108e-05 0.00086224085 -0.00023288399
-7.4855438e-06 0.0010747103 0.001531787
3.3354434e-05 0.0012693258 0.00090835866
0.00015284779 0.0018108846 0.00086170033
-4.4880471e-06 0.0012204974 0.00053763972
8.8709887e-05 0.0013072792 -0.00024567207
0.00023356517 0.00084949948 -0.00059260678
0.00045334021 0.00093940645 -0.00088616501
-0.00010018425 -0.0014658468 0.0013008912
0.00016869642 -0.00030424359 -0.00026395082
4.1114687e-05 9.9582372e-05 0.00040807703
-4.0727788e-05 0.0012797536 0.0017819209
-0.00058894284 0.00088169886 0.001131859
-0.00047471089 0.0012296294 0.0030149622
4.9656337e-06 -3.0557647e-05 -4.2557662e-05
0.00085975294 -0.0027603526 -0.002819435
0.00077243778 -0.00057593966 -0.001344408
0.00088082236 0.00028367448 0.00032731783
-0.00068160013 0.00059448485 0.00076873926
-0.00065180345 0.00068460166 0.0015848817
-6.4487038e-05 0.00099933171 0.0015221438
0.00050226599 0.0013399407 0.0011733635
0.0002718257 0.0013452137 0.00088800245
0.00035903664 0.0012676122 0.00054504292
0.00047800582 0.0017482708 0.00020786145
0.00024999009 0.0011825897 -0.00035470878
0.00036033912 0.0012033459 -0.0007078909
0.00020095248 0.0011125138 -0.00073528907
0.00016288669 -0.0025881748 0.00175695
-8.4513194e-05 -0.00093857833 -4.6818051e-05
-1.097062e-05 -0.00051757059 0.00050132262
-0.00027673246 0.00039167772 0.00059379888
6.3034895e-05 0.0002977679 0.00019539856
3.2903037e-05 0.00069857412 0.0011714563
0.000111393 0.00060765049 -3.1878473e-05
0.00019722353 -4.2169988e-05 -0.00010077239
-0.00030107147 0.00037349819 0.00046988679
-6.7298271e-05 9.0659094e-05 0.00015994387
-0.0025160895 0.0017379627 0.0042633209
-0.0013619368 0.0022332214 0.0031948499
0.00020294724 0.00091832905 0.0017728359
0.00036440219 0.0022664911 0.001369411
0.00028228966 0.0015683059 0.0010213979
0.00022484256 0.0011801269 0.00032611217
0.00022498095 0.0015772928 -8.6351647e-05
0.0001644468 0.0012307559 -0.00036650867
0.00017835817 0.0012281672 -0.00057290233
0.00011626703 0.0012867521 -0.0005460637
-0.00019901794 -0.0018360453 0.00077707676
-0.0001094832 -0.001018969 7.1876049e-05
-9.0644709e-05 -0.00052779395 0.00014911956
-8.5334323e-05 0.000108412 0.00040447447
-2.8471488e-05 0.00023175865 0.00089931901
-0.0001005556 0.0014712469 0.0011566787
0 0 0
3.3550645e-05 0.00095222605 0.0011970255
-6.1658684e-06 0.00051236444 0.0013313179
-0.00028107638 0.0004587404 0.0016500165
-0.0020479665 0.0019934627 0.0044500628
-0.00096245104 0.0015803868 0.0022052238
-0.00021674938 0.0020736051 0.0011860019
1.8623288e-05 0.0011473255 0.0008596949
0.00015404719 0.0015119384 0.00057374098
1.3729687e-05 0.0010017906 7.8047262e-05
4.6677618e-05 0.0015108355 -0.00019783175
0.00010233821 0.0012758534 -0.0004037024
0.00010245574 0.0012930343 -0.00044449305
-0.00012674843 0.0013726787 -0.00039307986
4.6118024e-05 -0.0024063461 0.00039691903
-8.4797066e-05 -0.0018631991 -7.7748286e-05
4.74427e-05 -0.0014667201 0.00027117255
0.00024322029 -0.0001421474 0.00077363773
0.00012588825 -0.00015389368 0.00170593
1.2449751e-05 0.0025807216 0.001808563
6.7733206e-05 0.00055744709 0.00050277106
0.00031255512 0.0012422239 0.0016498631
-0.0001847165 0.0016438978 0.0030277444
-0.00083309074 0.0014027086 0.0026218528
-0.0017818264 0.0014750798 0.0025980114
-0.00078830827 0.0021588209 0.0010018373
-0.00018972653 0.0013365273 0.00031506555
-0.00012429684 0.00066630426 9.1742011e-05
-8.3670326e-05 0.00099605485 -0.00022109889
-4.7932637e-05 0.00092233054 -0.00024362071
-9.4303366e-05 0.0013729128 -0.00025555232
1.0957143e-05 0.0012927451 -0.00014421879
5.1653951e-05 0.0014327751 -0.00041469917
-0.00041248367 0.0014763688 -0.00038115712
-2.8208355e-05 -0.0017031728 2.0719417e-05
-0.00023280131 -0.001304516 -0.00049991516
-0.00049334328 -0.0012575004 -0.00055114896
-0.00028945584 -0.00037894573 2.8081404e-05
-0.0002362516 -0.00033406884 0.00043415159
3.7994382e-06 0.00038431576 0.0013239447
0.00068009016 0.0025377097 0.0021855335
-3.1191601e-05 0.0005716391 0.00073442922
-4.9652379e-05 0.00059164839 0.0014160394
-0.00029532096 0.00069363939 0.0009247259
-0.00021424964 0.00092677097 0.00026964798
-0.00018037102 0.00050321169 -0.00021569169
-9.8872333e-05 0.00057412736 -0.00022837947
-8.950464e-05 0.00055461365 -0.00038258889
-0.00020801158 0.00082780345 -0.0003903514
-0.00016248769 0.00088146224 -0.00033698979
-0.00019481432 0.0011881104 0.00014040657
-6.2049512e-05 0.0012824127 -0.00015918142
9.4454444e-05 0.0014449175 -0.00019708829
0.0001049389 -0.0017608649 -0.00079194811
6.271337e-05 -0.0023195476 -0.0013125996
0.00012306703 -0.0020256259 -0.00054786151
-1.46588e-05 -0.00097023085 -6.1075225e-05
0.00019484432 -0.0011645586 0.00030416474
0.00026720017 -0.00041071852 0.00092146092
0.00021677201 -0.00016145264 0.001284748
-7.7754099e-05 -0.00064694165 0.00015535329
-0.00025918201 -0.00023700252 -0.00026928994
-0.00029456682 0.0012274617 -0.00043923789
-1.9774769e-05 0.00087141973 -0.0005147059
0.00029354909 -9.8679062e-05 -0.0012330163
8.9411187e-05 0.00018998989 -0.0002784798
-0.00014792406 0.00038297247 4.4775497e-05
-1.9024612e-05 0.000447745 -0.00045740406
-0.00013404165 0.00030879898 -0.0004975514
-0.00025257331 0.0010992526 0.00011210988
6.3434651e-05 0.0012484731 -1.2235546e-05
0.00018532234 0.0013916449 7.1868417e-05
-0.0001613826 0.0017154374 5.8099049e-05
0.00016533876 -0.0012336227 3.8168891e-05
0.00037710453 -0.0021764426 -0.0010805564
2.325362e-05 -0.0011395029 -0.00079045602
-0.00014845298 -0.0011129639 -0.00074033032
5.7670502e-05 -0.00030833317 -0.00019629183
-0.00015864652 -0.0004253503 2.9530283e-05
-0.00033442461 -0.0003173869 0.00034441141
-0.00038351258 -0.00023842204 0.00017396682
-5.0189806e-06 -0.00054025871 0.0005416582
0.0001769847 0.00054848078 0.00014845285
-0.00038145992 0.00056808768 0.00022034089
-0.00017050773 0.00061820727 -0.00035231584
-1.2316486e-05 -0.00040938074 -0.0015587764
0.00010872381 8.7640219e-06 -0.00062427763
0.00015809825 0.0002973376 -0.00030078695
0.00011426162 0.00073098973 -0.00062899262
0.00014211984 0.00064459501 -0.0010220612
-5.8676811e-05 0.00082794088 -0.00039387867
1.2546301e-05 0.0011065628 4.5631939e-05
0.00011328733 0.001486462 0.00028817935
-0.00010042506 -0.001025914 -9.176435e-06
-0.00060176163 -0.0027305146 -0.0015645331
-0.00047244737 -0.0022957588 -0.0017942882
-0.00033422734 -0.0029602842 -0.0021745111
-6.4572887e-05 -0.00090063491 -0.00025257695
0.00022340281 -0.00041711802 -0.00013543852
0.00028531859 0.00017525873 0.00058804225
0.00020284492 0.00075776421 0.00063766621
-0.00044317407 -0.00021561429 7.9984908e-05
-0.0002437861 0.00085396518 0.00039581445
0.00033523439 0.00050342729 -0.00011395646
5.2974468e-05 -0.00017438876 -0.00061186729
-0.0001148705 -0.00028416998 -0.00074553274
-0.00021644394 -0.00015630684 -0.0014089287
-5.9115177e-05 -0.00015794818 -0.0018408389
0.00012183689 0.00013676631 -0.0013461065
0.00035288394 0.00023052334 -0.0012924299
0.00012949284 0.00042912795 -0.0007424269
1.9305162e-07 0.001213956 1.3407342e-05
-0.00012866373 0.0014752133 0.00027587725
9.5385512e-05 -0.00097658823 -5.3427706e-05
0.0005703221 -0.00086475164 -0.0010309053
0.00015761456 -0.00094604673 -0.00080641033
5.5922894e-05 -0.00055220973 -0.00022246387
-4.7321293e-05 -0.00076427573 -0.0006976602
-0.00034373652 -0.00028692136 -0.00026453412
2.2507067e-05 -0.0001219838 3.7163332e-05
-2.762692e-05 0.0012854728 0.00034648235
0.00020168697 0.0012532647 0.00072716695
-5.5244785e-05 0.00079198234 -0.00019594858
-0.00010438314 0.00070769474 0.00018493854
0.0002872723 -0.00014761199 -0.0004838809
0.00045166261 -0.00043463122 -0.0011017049
5.8720019e-05 -0.00021849699 -0.0013875369
-0.00019208174 -6.8521316e-05 -0.0014443836
0.00026815647 8.5313528e-05 -0.0017840278
0.000503888 4.8761805e-05 -0.0014682071
0.00024230361 0.00040703113 -0.00059930218
7.2914656e-05 0.00061744283 -5.3083986e-06
-0.00018678152 0.0013916329 8.4707484e-05
0.00029901293 -0.0018135698 -0.00055569317
0.00022831412 -0.00072345685 -0.0010047506
-1.4464524e-05 -0.00092200364 -0.0010208848
0.00012418687 -0.0012378984 -0.0009482
0.00013694132 -0.00062393508 -0.00055113214
0.00026577318 -0.00037226663 0.00012431617
8.6990083e-05 -0.00023485636 -0.00012101582
-4.3327931e-05 0.00017240779 -5.5184206e-05
-0.00039612362 0.00069004152 0.00012469453
0.0003583238 0.0014184568 9.4637493e-05
-0.00027448236 0.0003933734 6.3186279e-05
-2.3512732e-05 -0.00018691058 -0.00034343929
0.00023445996 -0.00017067847 -0.00085172529
0.00031902103 4.8812321e-06 -0.0012926906
0.00042535868 -0.00021082592 -0.0016422386
0.00013978276 -0.00012971618 -0.0016603287
0.00087297335 -2.2294575e-05 -0.0017254391
0.00052569713 0.00090372167 -0.00060434523
0.00049359637 0.00098197325 -0.00057251623
0.00023777279 -0.0014518091 -0.0002896307
0.0004309387 -0.00095671212 -0.0010256945
0.00042733233 -0.00086625502 -0.0013807634
0.00045069034 -0.0013139432 -0.00091958151
0.0001329279 -0.00046255553 -0.00029602105
-0.00017594274 -0.00021034994 -0.00015441721
-7.1208255e-05 0.00019497865 0.00029828615
-5.3573676e-05 0.0002786977 -5.259554e-05
0.00074233889 0.00068976212 -0.0001178629
1.8005898e-05 0.0019368065 0.00058062817
0.00024356868 0.00045884345 0.00029910079
-7.2147261e-05 0.00049696176 0.00040362155
0.00017779857 -0.00016219083 -0.00037926808
0.00026131654 0.00028068447 -0.0011202089
0.00050045288 -0.00015472971 -0.0013725549
0.00097975146 -0.00024983604 -0.0017294269
0.0012504769 -5.1463121e-05 -0.0014189489
0.00095649384 0.00062069402 -0.0012050793
0.00044432093 -0.0012500623 -0.00017102943
0.00071363937 -0.00074920035 -0.00070595701
0.00056862767 -0.00085377373 -0.00088050734
-0.00011258651 -0.00059257163 -0.00038879097
0.00017142011 -0.00096648926 -0.00079048856
0.00046506186 -0.00079291844 -0.00060008588
0.000438216 -0.00046844155 -0.00063503679
0.00031712439 4.0436157e-06 -0.00033890712
0.00012458909 0.00079917751 5.6364282e-05
0.00019795386 4.7659807e-05 -0.00030137735
6.1569415e-05 0.00099134888 0.0009012706
1.0900088e-05 0.0002548559 0.00024991712
-0.00015069703 9.166864e-05 3.546138e-05
0.00042475975 0.00024583895 -0.00077851873
0.00051743432 0.00032049647 -0.00099845463
0.0010831663 0.00011300851 -0.0013733774
0.0013302562 0.0004796219 -0.00098277943
0.00021925733 -0.00096957543 1.9670322e-05
0.00056979049 -0.00048043701 -0.00053462735
0.00052795687 -0.00058973138 -0.00079063122
0.00052635407 -0.00090513006 -0.0010422072
0.00016739704 -0.00030074609 -0.00038670652
6.4601467e-05 -0.0003437752 -1.9179581e-05
0.00019103222 0.00044000559 -0.00018100973
0.00038145512 0.00044281426 0.0001322351
0.00049035164 2.5147949e-05 -0.00016233067
0.00021992125 0.0012866006 5.6207064e-05
-0.00012814827 0.00048155515 0.00033699255
-5.6726916e-05 0.00077583792 0.00053296017
2.7512846e-05 0.00044224906 0.0001027688
0.00065500551 0.00067372969 2.3114077e-05
0.00083244685 0.0006783345 -0.00041049096
0.0012939095 0.00066164788 -0.00049596129
0.0011026332 0.0010210425 -0.00055245787
0.00046490232 -0.0012585409 -0.00039926171
0.00039866834 -0.00032260397 -0.000444612
0.00026384249 -0.00026362648 -0.00049729011
0.00064950919 -0.0012348631 -0.0014500386
0.00048639384 -0.00059212587 -0.00056145829
8.9909568e-05 -0.0002148487 -0.00010397514
-5.1999119e-05 0.00018222953 0.00010754386
9.4896313e-05 0.0011976421 0.0002517266
-5.2537689e-06 0.00039755856 0.00015877752
0.00018858231 0.0012746766 0.00061990367
8.0659127e-05 0.00058024615 0.00048605408
0.00016580537 0.001037766 0.00061027118
0.00016982968 0.00072510837 0.00043758145
0.00037172498 0.001003455 0.00056716957
0.00083231466 0.0013777781 0.00067658402
0.001028202 0.0010190028 0.00016058089
-0.00021773159 -0.0010228846 -0.00011011717
0.00021819498 -0.00075611792 -0.00068727456
0.00044935299 -0.00044440432 -0.00050317572
0.00034504852 -0.00046809448 -0.00043366652
6.1599312e-05 -6.4040185e-05 0.00034199376
6.2880747e-05 5.9556216e-05 0.00061807822
0.00017384754 0.00069263246 0.00082071574
-3.3760161e-06 0.0002900821 6.064845e-05
0.00014940032 0.0014411887 0.0012673904
1.1053322e-05 0.00055301056 0.00031749011
0.00016649433 0.00084945973 0.000681245
0.00010266407 0.0012828662 0.00088119949
7.5966568e-06 0.0014247766 0.0010164346
0.00036236283 0.0015740162 0.0010924418
0.0005071013 0.0017386285 0.00095634023
0.00079118105 0.0016464699 0.00067178084
4.450433e-05 -0.00028756438 3.5948557e-05
-6.1175102e-05 -0.00070123147 -0.00055016647
0.00014820107 -0.00032280185 -4.7107438e-05
0.00018167963 -0.00055099191 -0.00039454576
2.1470159e-05 -8.5078891e-06 9.7659562e-05
-0.00015664288 -1.0013527e-05 0.00011807907
-0.000145785 0.00040880751 0.00026304435
0.00010976392 0.001291832 0.00025839501
-4.1659776e-05 0.0010482796 0.00072964397
4.392451e-06 0.0016588758 0.0012306711
-0.00017794356 0.0013949206 0.0011331954
0.00034119372 0.0013145987 0.0012715367
9.7724514e-05 0.0017249229 0.0013097647
1.3855915e-05 0.0018880604 0.0012470731
0.00067686569 0.0016788258 0.00088565878
9.6912023e-05 -0.0006671694 -0.00013088652
0.00010060094 -0.00027027403 -2.2075674e-06
5.1878098e-05 -0.00012508141 0.0002314094
-0.00027723922 -0.00042276422 -7.2025498e-05
-0.00022734684 3.8876933e-05 0.00018612776
-3.0954881e-05 0.00011601592 0.00014102699
0.00073867344 0.00099144119 0.0003568751
0.00012256784 0.00053740217 0.00037817587
3.9869334e-05 0.00067391671 0.00031624499
0.00043410176 0.0017081939 0.0010850501
0.00013062821 0.0018481379 0.0011882047
0.0001688848 0.001440572 0.0015020231
0.00081557105 0.0017003712 0.0014136587
0.00052287098 0.0017873226 0.00093781413
0.00064206921 0.0018679027 0.001344013
8.1945836e-05 -0.00018222426 8.6429216e-05
-4.3140317e-05 5.6467939e-06 0.00016178383
4.6806517e-07 -0.00011316123 0.00040841234
0.00013825635 -0.00012227717 3.3813845e-05
8.184203e-05 -3.1785055e-06 8.7707354e-05
-0.00020577862 0.00010825261 -0.00042977941
-8.7476859e-05 1.8400122e-05 7.3195682e-05
-7.9800433e-05 0.00046060354 -1.9979893e-06
-0.00023974582 0.0013053539 0.00041659444
9.5234878e-05 0.001569873 0.0011267093
0.00056012778 0.001816246 0.0011003177
0.00038655123 0.0018862549 0.0018866876
0.00043469056 0.0015144714 0.0016707859
0.00098010991 0.0017115027 0.0011731752
0.00048133725 0.00173457 0.0012316245
-0.00021278505 0.00034241815 0.00033583477
0.00018067707 -0.00013130323 0.00012963863
-9.7553035e-05 -0.0002299028 0.00013917072
-0.00016246796 2.922452e-05 0.00032026588
-0.00015469846 -3.2883302e-06 0.00029971878
-1.1431951e-05 -7.7976641e-05 1.7295548e-05
-0.00025218818 3.2549346e-05 -0.00017805432
-0.00019014059 0.00029187521 6.6296843e-06
0.00025325135 0.00084727362 0.00038161871
7.1456961e-05 0.0012761088 0.00080646412
0.00084357231 0.00175902 0.0011806254
0.00029855774 0.0017186608 0.001789443
3.8229395e-05 0.001598974 0.0013126697
0.0009960609 0.0014107144 0.0010796688
0.00016742045 0.00041737911 0.0007460913
-0.00016063688 0.00031218893 0.00080371718
1.1248354e-06 -0.00011863057 0.00048828323
0.00024597952 1.9834792e-05 0.00025634817
-0.00012145515 4.529008e-06 0.00031383178
-0.00032349626 -0.00022484014 -0.00013513022
-0.00012086191 0.0003804575 0.00052777323
2.2534499e-05 0.00030951304 -7.784833e-05
0.00067823456 0.00040210088 1.4338092e-05
3.8728002e-05 0.00096210564 0.00021512868
0.00062501663 0.0017323612 0.0013875047
0.00032562361 0.0013829505 0.0014749242
0.00092321116 0.0013147424 0.0011963586
0.00088717655 0.0012821016 0.0010440992
0.00037218622 0.0010838062 0.00055702316
0.0001386677 0.0002513763 0.00052777817
-8.2066734e-05 9.7026714e-06 0.0006892783
-0.00011727414 0.00025625605 0.0010804273
7.5709177e-05 -0.00019517144 0.00054909656
5.2169973e-05 -9.3561699e-05 -3.1394637e-05
-6.1728009e-05 0.00021750717 -4.4057888e-05
-0.00028256193 0.00036247863 -0.00043047656
-0.00041904239 -6.1256294e-05 -0.00030331934
-2.2413014e-05 0.0003549566 0.00034063941
0.00075721042 0.0013531917 0.00095412141
0.00099531701 0.0010543588 0.0011555597
0.00081742374 0.0012399714 0.0010546168
0.0012317536 0.0018233435 0.0014210083
0.0011113309 0.0015912317 0.0011339943
0.00052245357 0.00097378145 0.00071748375
9.0853442e-05 0.00052424759 0.00060478755
0.000134174 0.00022563327 0.00076011207
-1.3753004e-05 -9.5541771e-05 0.00066613534
-0.00011683637 0.00044803569 0.00016278308
0.00017400233 -0.00025893823 2.7920034e-05
-0.00016190819 -0.00014052726 -0.0004698135
-0.00018888 -4.3290998e-05 -0.00015190689
0.00049527024 0.00081888569 7.6835116e-05
0.00084473263 0.0010790086 0.0008758945
0.00085040589 0.0012649004 0.0010024988
0.00079764723 0.00088881433 0.0012068388
4.5276727e-05 0.0019517295 0.0014413727
0.00084795034 0.0016008753 0.0013114889
0.00093405123 0.0012415847 0.0010397596
0.00068722595 0.00051728945 0.0010190285
-4.9045771e-05 0.00015305371 0.00089570071
-6.3897656e-05 0.00066273916 0.00064370944
-5.4570592e-05 3.9628638e-05 0.00024330776
-5.0672301e-05 1.8234343e-05 -0.00025508655
-0.00017922203 2.2560995e-05 -0.00010512101
0.00096161355 0.0013102251 0.00066800596
0.00039710524 0.0011417371 0.0005530584
0.00015415777 0.00085416459 0.00070109172
0.00071487948 0.0009711078 0.001029904
0.00031549387 0.001970096 0.0013537649
0.0013515304 0.0014670631 0.0016369362
0.0011770395 0.0016953746 0.0011885369
4.8027414e-05 0.00054745935 0.0009022741
-4.5277531e-05 0.00045979928 0.00072178768
-0.00034162495 0.00011454287 0.00016718915
-7.0624992e-05 0.00023746636 3.9696824e-05
0.00044825824 0.00025210928 0.00011299185
0.00089411548 0.0013751555 0.00032939561
-0.00015070075 0.0011777169 0.00034355436
-3.6431388e-06 0.0011142464 0.00061814603
0.00050379062 0.00066177349 0.00096892723
0.00075992953 0.0018272194 0.0014863156
0 0 0 1 0 0 0 1 0 0 0 1 0 0 0 0 0 764 1 0 0
