ply
format ascii 1.0
comment PCL generated
element vertex 764
property float x
property float y
property float z
element camera 1
property float view_px
property float view_py
property float view_pz
property float x_axisx
property float x_axisy
property float x_axisz
property float y_axisx
property float y_axisy
property float y_axisz
property float z_axisx
property float z_axisy
property float z_axisz
property float focal
property float scalex
property float scaley
property float centerx
property float centery
property int viewportx
property int viewporty
property float k1
property float k2
end_header
-0.001510574 -0.00055248284 0.0089474423
0.032850973 0.00053471385 -0.015166959
0.02943304 -0.0029541692 -0.0046941927
-0.010740287 -0.0017533636 -0.0024988302
0.00033439862 -0.0044539119 -0.0048451466
-0.0011920104 -0.001509338 -0.0016903788
-0.013025616 -0.0029524758 -0.0043823905
-0.015105099 -0.0013429044 -0.0016321571
0.010717635 9.2050759e-05 7.7648452e-05
0.021517869 -4.1815183e-05 -0.00039417687
0.014346053 0.00038282824 0.00015838811
0.10076153 -0.00078122149 0.00036637936
0.004669812 3.3811117e-05 -1.5652373e-05
0.034422603 -0.0073605985 0.0013891364
-0.00047624734 -0.0031626653 0.00031296568
-0.0023113131 0.00059386739 -0.00062183983
0.037516382 0.012047275 0.00047662595
-0.0027217939 0.00018070075 0.018281518
0.0026107496 0.00054421485 0.0092511997
0.00018861213 -1.9441877e-06 0.0028785705
0.0026022508 -4.6121455e-05 0.001788321
-0.0085711507 -0.00052348059 0.064544544
-0.0032597831 -0.0002098289 0.024695057
0.010240282 0.00051912479 0.014097802
-0.052040692 -0.0024873614 -0.0035658067
0.0066581913 -0.00028458593 0.016522655
-0.0003324631 0.00010309552 -0.0013927128
0.020209847 0.00076686568 0.0012476586
-0.0066816704 -0.00087257987 -0.00046865825
-0.00067134621 5.3285671e-06 -2.0966807e-05
0.048988011 -0.011812336 0.0022054275
-0.0031897689 -0.04720046 0.0043570353
-0.0013150807 -0.026747352 0.0026952671
0.011766176 0.0081860153 0.00057385513
0.00056374678 0.00018429558 0.021054357
-0.0093115726 -0.00021405435 0.024626579
-0.020127174 -0.0010699264 0.057972241
-0.0060120872 -0.00094055611 0.048218343
0.0070971916 1.4488989e-05 0.01472911
-0.0011490834 -0.00033365769 0.04924028
6.8121219e-05 8.1588388e-07 5.1455332e-05
-0.0083238631 -0.00076824136 0.021285782
-0.00050215435 -4.813831e-05 0.0050330274
0.0023070844 0.0001665599 0.00012283796
0.033818845 -0.029272147 -0.027603481
0.025273267 -0.0096240016 0.0013872625
0.045221664 -0.020387297 -0.019665752
-0.015101401 0.033564262 -0.0014701075
0.015698886 0.0014850423 0.00086428551
0.010879625 0.01107368 0.00026806496
0.011408408 0.0030058534 0.0014207765
7.5630828e-06 2.1189444e-05 0.0016894226
-0.00061151717 9.5439427e-05 0.020674277
-0.00034266623 -3.9964223e-05 0.0066265771
-0.0088667013 -0.00025775144 0.079286397
0.011559835 0.00010767296 0.0034590785
0.0024152386 -1.8409293e-05 0.023289587
0.034029026 -0.018115621 -0.018032042
0.0290753 -0.018584216 -0.022506388
0.028120916 -0.010540261 -0.017113579
0.015005892 0.0068930089 0.0016804561
0.021754455 -0.016124841 0.0029354128
0.0051678279 0.0072163669 0.00078023074
-0.0056000166 0.036828049 -0.00021092515
-0.00097874564 0.0080281617 -0.00011281699
-0.020305045 0.038334355 -0.0019056129
0.031765591 0.0033518428 0.0022227794
0.015792105 -0.00012851872 0.0014824547
-0.00096945919 -5.3992037e-05 0.0080810646
0.00050139142 0.0010131138 0.0071258238
-1.057734e-05 4.8261713e-06 3.5084076e-06
-0.0020896692 0.00012660665 0.022467325
-0.0010944669 5.4955581e-05 0.0027647999
-0.00015678657 0.0019968571 0.0024587025
0.048699301 -0.041126668 -0.040760428
0.015807018 -0.016774619 -0.0098109888
0.006589123 -0.0052792681 -0.0076367198
0.011227084 -0.02982348 0.0046868208
-0.00085219112 -0.0026570698 0.001159998
-0.00064403989 0.0019369844 0.00077992538
8.5178617e-05 0.0029282593 0.00039664359
-0.0037181317 0.019102927 -0.00029321329
-0.0067504561 0.025028048 -0.00098355405
0.011668372 0.0086708795 0.00092596171
0.0015837265 0.012422386 0.0002300091
0.0048250239 0.00073739706 -0.00071685942
-0.0034640846 0.0013595639 0.011720975
-0.0063593145 0.0019011495 0.00071271684
0.0012626147 3.6856862e-05 0.021705715
-0.00088973687 -2.8080531e-06 0.0090738684
-0.0010142318 0.02809526 0.016134951
0.0072836648 -0.012411074 -0.017346578
-0.00014449279 0.005103406 0.016328633
0.0060339342 -0.00054430467 0.001312054
0.0027328262 0.011442019 0.0013625828
-0.00068080274 0.00067230663 0.0018305472
-0.0033945679 -0.0077981544 0.001092889
-0.0011546315 -0.0008202435 0.00042841744
-2.2329035e-05 0.023143323 0.00050078047
-0.0023349025 0.0093870722 -0.00032911729
-0.015601366 0.042818435 -0.0032268688
-0.00039876797 0.0057478491 -0.00011394799
0.00017674967 0.00037768169 -0.0015463469
0.00057957985 0.00031976952 0.007645607
-0.0046177283 0.0033895804 -0.010086237
2.848747e-06 -1.1203758e-06 0.00033706636
0.0031815344 -0.023855025 -0.033224043
0.0032076123 -0.020247201 -0.018978382
-0.00037764054 0.0046694544 3.7551468e-05
-0.0016358354 0.049485132 -0.0029298135
-0.00076560612 0.020549176 -0.0010586281
1.5701386e-05 0.00011375747 -8.3860905e-06
-0.0012888986 -0.001939712 0.00085875351
-0.0036661485 -0.012410903 0.0023032583
-0.00015826531 -0.0058497069 0.00099480757
-0.0014654675 0.0059930645 2.9581897e-05
-0.00048552407 0.0038240573 0.0012585756
-0.00080575282 0.0013648599 0.00072608411
-0.00017016364 0.0056671822 0.00057874445
0.00050738425 0.0021241237 -0.006059248
-0.0018266744 -7.9277554e-05 0.0070741838
0.00033878422 0.00021297853 -0.00044096669
-0.008099867 -0.00021559875 0.04489281
-0.0044375733 0.0022959649 0.0078166667
-0.00035170809 0.0013368629 0.00024262315
0.0012540708 0.075704843 0.0014848878
0.013181691 0.12945914 -0.002439691
-0.00038396794 0.0046103066 -0.00025408901
0.0021920516 0.037968703 -0.0023498898
0.00064081437 0.0022587844 0.00023410012
0.00064650923 0.00013473853 0.001243628
-0.0024043659 0.0065396233 0.00038622954
-0.00060894818 0.00085231813 4.0637875e-05
0.0079595428 0.016241938 -0.00048713339
0.013991696 0.013583316 0.00047939538
-6.2023064e-06 0.00078047777 0.00028046555
-0.0010842463 0.00084774673 0.019731857
-0.0036849189 0.0026541927 -0.0099834055
-0.0023357703 0.001004665 0.0036899331
0.0015100462 -8.4578729e-05 0.014725216
-2.4981757e-05 -1.9679161e-05 0.0038880554
0.0077138646 -0.0033302524 -0.0036511801
0.0011089169 0.0068621323 0.00089977565
0.0010044685 0.010554433 -0.00044905336
0.00011080556 0.00394896 -0.00014346059
0.0039526797 0.024320681 -0.0011927453
-0.00042318372 -0.00036775327 0.00083330396
-0.00327739 -0.012618228 0.0027442186
0.0053736591 0.014703761 2.9111413e-06
-0.0052191322 -0.0068916194 0.0014561467
0.015174847 0.013893623 -0.00071888941
0.0067102765 -0.0012292574 0.00021483978
-0.0014393502 7.1043069e-05 0.00027002746
-0.0052386913 -0.0015913979 0.0010172318
0.00760866 -0.00021119977 0.0076734214
0.0023452819 -6.6236367e-05 0.0075532626
-0.0067626382 0.0016531056 -0.0035281503
0.00098415697 0.00023553519 0.0021843652
-0.0023514794 0.0002962955 0.025133552
0.006923981 -0.0016300057 -0.0012484241
-0.00027499869 5.7421344e-06 7.6229437e-05
0.0044816085 0.059364986 -0.0012117572
0.0028343801 0.017759139 -0.00092610827
0.0031478598 0.015155019 -0.00033430249
-7.2355346e-05 -0.0022708632 0.0015902777
-0.00063907064 0.0016845058 0.0014920918
0.0058310195 0.02177231 -0.00035602364
0.018768324 0.011183395 -8.8656903e-05
-0.00053593965 -7.4665237e-05 0.00012441255
-0.025098147 -0.0071497401 0.0032227887
0.042010192 0.036529791 -0.0013952845
0.0022805575 0.00098348013 0.00022370339
-0.0065757819 -0.0078941816 0.0021519426
0.0010110377 -0.00080884149 0.0053678066
0.015769714 -0.001532048 0.048184171
0.0068325959 -0.00013919688 0.0118014
0.013634806 -0.00019148736 0.031498522
-0.0065833516 0.0017564633 0.0058763763
0.0075308713 -0.00025538905 0.024855264
0.00027543024 -0.0011030748 -0.00043393348
0.0061869766 0.02222064 0.00011042606
0.000680962 0.0047725318 -0.00013543076
0.010992231 0.023261001 1.5228789e-05
0.00016842656 0.00034801554 -1.548806e-05
0.00055338012 0.0003738931 0.00027817136
0.0097319251 0.019820577 -0.000760909
0.038157891 0.013416447 -0.00082918955
0.010695886 0.0053830519 -2.4806121e-05
0.004273945 0.0020180768 0.00014726812
0.005958783 0.0051167542 1.8761189e-05
-0.027304154 -0.025761386 0.0027678118
-0.016647868 -0.01723716 0.0020860638
0.0074660266 0.023149729 0.0001056429
0.0022935239 -2.1254757e-05 0.007558086
-0.00029789904 0.00016080441 0.00020994162
0.0085372077 -0.00069343235 0.01663084
0.0075176898 -9.3929411e-05 0.016729243
-0.0078937151 0.00062778173 -0.0051497775
0.00012775793 0.00020994735 0.0092048589
-0.00083095825 0.00095773349 0.0016524788
0.018680619 -0.00026715081 -0.00055407017
-0.017304365 -0.0089163249 0.0014446779
0.0094787451 0.0087131485 0.00096041575
-0.0060705198 -0.0043433821 0.001230786
0.0036421511 0.0065610576 -0.00057566317
0.015500558 0.016828677 -0.001308749
0.032274846 0.0054654432 -0.00056493504
0.0020034488 0.00079623359 -6.3212778e-05
0.0072164526 0.002439596 0.0011475952
0.0036765221 0.002619148 0.001540786
0.026640223 0.024760114 -5.2857256e-05
0.011079124 0.026098069 0.0006531222
-0.012129757 -0.013596693 0.0012528268
1.4127426e-05 -4.3683299e-06 6.282403e-05
0.009727913 -0.0014715106 0.038233884
0.0065253153 -0.00039871459 0.032173231
0.0052322247 0.00026884803 0.0065593529
-0.0010640365 0.00042623762 0.00094324601
0.00064698071 0.00036024666 0.00034770209
0.00044981707 0.00053210417 -0.0082188379
-0.0010877595 -0.0012488908 -0.0011296264
-7.2741976e-05 -0.00017581388 -0.0002751521
-0.00055121607 0.029288858 0.00082901062
0.004807909 0.0051727397 -0.0001282118
-0.0021941117 -0.001419367 0.0024105415
0.016095409 0.015127034 -0.0022015402
0.026698301 0.02015355 -0.0015725184
0.014036255 0.017095286 -0.00051322998
0.0019339458 0.0053663193 0.00014138229
0.0038144025 0.0088479901 0.0002011977
0.0053740856 0.0093835015 0.00099975418
0.0080436636 0.03051459 0.0011879739
-0.0058365753 -0.0054275887 0.00071171788
0.0047666463 0.00042389552 0.023235921
-4.1864266e-07 0.0012381494 0.0016600239
-0.0018147262 0.00065769604 -0.0024379278
-0.0066865436 0.0017051143 -0.0082520004
0.00035845087 0.00061966502 -0.0051199957
0.00061409472 0.00071632466 -0.0078826146
0.00040193103 0.00071893784 -0.011389722
-0.0020261426 -0.001091436 -0.0012286424
-0.0035020027 -0.0012853304 -0.0013795304
-0.00067860767 -0.00028787373 -0.00034144116
-0.0020641235 0.038926903 -0.00041944403
-0.00045555108 0.0092005106 0.00048859103
0.0033789398 0.0013566966 0.0006013551
0.021817405 0.0292549 -0.0015031477
-0.00041136314 0.00037662446 0.00097815611
0.0013823314 0.0056041037 0.00096986751
-0.00072643912 0.0014561231 0.0016231708
0.00027152564 0.014586589 0.0013128087
2.1153823e-05 0.00026011982 1.452958e-05
0.00034867646 0.0028505719 0.00033538946
0.00021782715 7.1743161e-05 0.00023309619
0.001240877 0.00035524784 0.0064792279
0.0008639305 0.0021355005 0.00014463568
-0.0088897739 0.0016719759 0.00092239806
0.00097242638 0.00061852683 -0.016360629
0.0021977928 0.0032226588 -0.048960816
-0.0001346119 0.00032457671 0.022483638
0.00055893877 0.001098729 -0.0043067578
-0.0010320756 -0.00062083657 -0.0010262845
-0.00049509044 -0.0002543407 -0.00052668765
-0.001784009 -0.001375445 -0.001471679
-0.00027673945 0.012524029 -0.00072279538
-0.0028447635 -0.0052041719 0.00109855
0.010714767 0.010948432 -0.0007117723
-0.006231179 -0.0056939707 0.0019385738
-0.0012492473 -0.0015218854 0.0016887656
0.0017816263 0.0053700684 -0.00018353206
0.0004648469 0.002333788 -0.00013585828
0.0004926321 0.020246077 -0.00081021781
0.0010764924 0.018191736 -0.0006568745
-0.0043635312 0.0025302679 -0.00081830507
0.00033447301 0.00037841042 0.027831627
-0.0039754901 0.0015318396 -0.0033424348
-6.7855755e-05 1.1533009e-05 4.243725e-06
0.016125577 -0.00023519208 -0.0012934225
-5.6292196e-05 9.604403e-05 0.00011564261
0.00046731572 0.00033468776 0.00065457943
0.00082001218 0.00029629073 0.0041124914
-0.0002001424 -0.00019744389 -0.00022734309
-0.0034109505 -0.001892639 -0.0034225767
-0.0014895551 -0.0010251288 -0.0014642989
-0.0040049981 -0.0016912348 -0.0037089956
-0.0012218264 -0.00094793126 -0.0011710305
-0.00020022805 0.013299475 5.7037018e-05
0.018566335 0.027393065 -0.00015187066
0.00091185723 0.0050866762 -0.0003268953
0.0010902152 0.005656864 -0.00022374459
0.0041608494 0.015239005 -0.0011673645
0.0012147168 0.023292286 -0.0013009297
0.0022120031 0.023124885 -0.00059260277
0.00091313757 0.01545663 -0.00032501027
0.00033389046 -0.0023469632 -0.00050209963
-0.0001181866 -0.00013297841 0.030907961
-7.883957e-05 -0.00018293956 0.0040706182
0.0075573199 -0.00039695369 0.024642693
-0.00080293894 0.00099401362 0.00083085068
-0.010040632 0.0013519725 0.0022359092
0.0006910144 0.0015075487 0.0019519003
0.0007754126 0.00021399335 0.0048866668
-0.0010181023 -0.00052774249 -0.00089533697
-0.0016354417 -0.00085967605 -0.0025370496
-0.0011262577 -0.0012650748 -0.0016671995
-0.00032387488 -0.00027029656 -0.0004177723
-0.0016196886 -0.0012382582 -0.0019266468
-0.001695417 -0.0025100317 -0.0015448394
-0.005552894 0.042720396 0.00065399538
0.0055276868 0.053885274 -0.0024855994
0.0038376146 0.058906235 -0.0017932135
-0.0020103033 0.063901924 -0.0021335166
-0.0063057765 0.035719119 -0.0017196534
0.00033641269 0.023785265 -0.00025798799
-0.0028420303 0.0187723 -0.00072921178
0.0001550421 -0.0034256692 -0.00043086571
8.086241e-05 0.00023519545 0.0031876133
-0.0014922369 -0.00042033021 0.023586813
8.697364e-05 1.300398e-06 0.00082271919
-0.0016273349 0.00029725724 -0.0025767968
-0.0058965129 0.00058805512 -0.0044952473
0.00019607137 -0.00026701493 -0.0009520668
-0.00030449033 -0.0015901268 -0.00528963
-0.00036886489 -0.0015647515 -0.0026307548
-0.00065599376 -0.0034934918 0.11345736
0.0069021145 -0.0075183795 0.2877045
-0.00048041751 -0.0035455422 -0.0027921016
-0.0018308965 -0.0051046843 -0.0049298038
0.029919071 -0.0043250159 -0.0031257623
0.012478555 0.079288907 -0.0021484995
0.0021525878 0.0098719094 -0.00036243972
-2.4454277e-05 0.043505445 -7.7049517e-05
-0.00039926718 0.0032922835 0.00051060866
8.4564781e-05 0.025611261 -0.00021301025
-0.00092740264 0.0196837 -0.0012008117
0.00014346919 -0.00070825883 0.00030524979
-0.00044735402 0.0026178912 -0.0072345524
-0.00056048948 -0.0011664382 0.041894287
0.0036924393 -3.5034096e-05 0.039337955
0.0040054498 0.0021569384 -0.016291685
0.015828144 0.0025154462 0.0036350351
0.00024637298 -0.00028023942 -0.0010507479
0.0015693711 -0.00064256508 -0.0039460128
0.0013379586 -0.0024117678 -0.0030366441
-0.011832357 -0.0012078785 0.047106918
-0.047691345 -0.0057106186 0.20784393
0.00056530826 -0.0031838168 -0.0031808044
0.00074407208 -0.0044163032 -0.0041880519
0.0024255675 -0.0013901538 0.044225741
-0.0019830344 -0.00062683562 0.092073597
0.00024980452 0.0072130915 -3.1281488e-05
-0.0029119442 0.038168211 0.00016800434
5.7280595e-05 0.0025923047 0.00026002736
-0.0020492866 0.011363834 -0.00024385947
0.0001272497 0.013457897 -0.00092567923
0.0003314724 -0.0091475006 -0.00040266622
-1.6594538e-05 0.00068930752 -0.0020273314
-0.00023864287 -5.951168e-05 0.0033876502
-0.0010726268 1.1055865e-05 0.0050365902
0.0011224331 0.00035174345 -0.0011251187
0.0056808372 0.00063767307 0.011572028
0.00029916054 -0.00030098643 -0.00071497646
0.0025150687 -0.00095458882 -0.0033235706
0.00091612851 -0.0015912459 -0.0020359776
0.0024359513 -0.00230178 -0.0030686951
0.0031343356 -0.0030716092 -0.00420631
0.0026434043 -0.0045634541 -0.0051258784
0.00066001731 -0.003322856 0.037003677
0.0023493438 -0.0019941307 0.0506071
-0.00022860897 -2.574769e-05 0.0049097412
6.7114452e-06 -4.5183265e-07 0.00031273547
-0.00031213721 8.4984844e-05 0.0015671558
0.00011240905 0.0032234469 -6.6019253e-05
-0.0040084682 0.017304139 -0.00051530299
0.00011775992 0.0054879193 -7.7855133e-05
0.00024872404 -0.0044987896 0.00022459934
-0.00029615729 0.0032928213 -0.0092081511
0.0010325791 -0.00026662069 0.013920287
0.0041173794 -0.0007437176 0.067188144
0.0013369559 0.0011086208 -0.0049954732
-0.00092790212 0.00085307221 0.058287058
0.00023693391 -0.00045188496 -0.00054465921
0.0016720432 -0.0015328099 -0.0016653668
0.00076095201 -0.00034118842 -0.00056246837
0.0016444018 -0.00096803519 -0.0015265397
0.0014777429 -0.0006113227 -0.0020317603
0.0033472916 -0.0033828565 -0.0050956523
0.0022342333 -0.0039096233 0.14929339
0.0040894402 -0.0014210732 0.072349653
-0.00040333491 -0.00077804632 0.10799683
0.0036417015 -0.00071456429 0.083354443
-0.0040030899 0.0011897414 0.018178232
0.015580639 -0.0036482322 -0.0019578014
0.003465252 0.049462356 -0.0021825659
0.00069739029 0.054975182 -0.00093062216
0.00042441199 0.0078878347 0.0010842367
-0.0001941696 0.0017014808 0.018078053
-0.00027497747 -3.5758538e-05 0.0026231317
3.4272136e-05 -5.8796748e-05 0.018651044
-0.0021688016 0.00055783731 -0.0060166046
-0.0016154421 -7.1009085e-06 0.040820371
0.00062878261 -0.0051029748 -0.0045767003
0.0020144284 -0.0030226691 -0.0031678327
0.0011129651 -0.0017237368 -0.0024123408
0.00035816696 -0.0002938832 -0.00057909335
-0.00027940699 -0.0004314438 0.046740279
0.001104956 -0.0028448729 0.10011132
0.00091606984 -0.0012252216 0.038878296
-0.00059141818 -0.00010767599 0.022713017
0.0014830134 -0.0010501151 0.07512673
0.001816708 -0.00078026723 0.058824893
-0.0015378188 0.0005727064 -0.0018019715
0.0020853279 -0.0011886539 -0.00051495695
0.004770278 -0.0015006551 -0.0010205432
0.00030303485 0.025347222 -0.00026179422
0.0010344643 -0.019164985 0.0012900153
3.2071908e-05 3.8049915e-05 0.0038899486
0.016571097 -0.0011981011 0.042135023
0.006388207 0.00049982785 0.031960011
0.0023479294 0.0011298034 0.012883546
0.00067146868 -0.001126295 -0.00091967778
-0.0016991658 -0.001575699 -0.001693696
-0.00016309398 -0.00066101138 -0.00054856815
-0.00014416825 -0.0036192685 -0.0044634771
-9.3223236e-05 0.00035699061 0.014259778
0.00055056857 -0.00069787883 0.036885101
7.5307835e-05 -8.9585432e-05 0.0032094512
0.00011558876 -0.00045602774 0.043409429
-0.0033915646 -0.0004050931 0.13826883
0.00067507738 0.00015401366 0.0068904916
0.0011408235 0.00059957593 0.015318293
0.0022552551 0.00056456326 0.014719757
-0.0055199992 -0.001065793 -0.0013881859
0.002927365 -0.00083495979 -0.0012636936
-0.00013758389 0.025323017 0.00048057528
0.00039676708 -0.0086114146 0.00093845278
-0.0001730403 -0.00024837753 0.010235768
0.02180641 0.00022571666 0.043076687
-0.0065607717 0.0011573508 0.0059710653
-0.0073470175 0.0031793325 -0.01069191
0.0019606587 -0.00021036602 0.044103626
0.015201013 -0.0039434684 -0.0041049016
0.0080158832 -0.00085134339 2.70239e-06
0.00020440457 -0.00032553828 0.019484757
-0.00021006174 -0.00010041358 0.037583798
0.00028122042 -0.00091469579 0.055773579
0.00017331577 0.00035558414 0.014671797
0.0052907672 0.00082128792 0.040375512
0.00039142137 -7.9744332e-06 0.006954819
-0.0042985831 -0.00060916849 0.044646323
0.00050469139 6.9364876e-05 0.040839963
0.012691542 0.0011031979 0.051225752
-0.017784789 -0.0056769811 -0.0082871169
-0.0064814375 -0.00020701456 -0.0015211275
6.5185028e-05 0.04336891 -0.0023012022
2.0280015e-05 -1.5950012e-06 0.0038779909
0.0021970375 -5.3168147e-05 0.018657893
-0.0019153903 0.00042043792 -0.0024356463
0.00121297 0.00051076931 0.0057698735
0.0012484489 -2.9745339e-05 0.0113223
0.010377725 -0.00167915 -0.0018240326
0.0054210094 -0.001358564 -0.0009552706
7.4082258e-05 -3.0646042e-05 0.027964046
0.00023272724 -4.6043748e-05 0.023649843
0.00014095816 -0.00049160916 0.014460722
1.6401904e-05 1.295019e-05 0.0003263391
0.013713664 0.0011752286 -0.0038465052
0.0041611795 0.0007750357 0.0047553955
0.0032441032 0.00056514144 0.034958851
0.0016816158 0.00037649219 0.0028148822
-0.0015432632 -0.00020375098 -0.00044142464
-0.0038641633 -0.001208433 -0.0014555692
0.00035974887 -0.0019791862 -0.0022254924
-0.00024067378 0.017557368 -0.00015648923
0 0 0
-5.3285035e-05 -0.00033370417 -0.00046014125
0.00049810478 -0.003376038 -0.0031640306
0.0005025171 -0.0031895409 -0.0027894408
0.00086353574 -0.00081647432 -0.00060782791
-0.0035103869 -0.0014198513 -0.0012947982
0.00013809462 -0.00078398822 -0.00089808129
0.00282853 -0.00069348002 -0.00083053595
0.0055080522 -0.00071551511 -0.000595694
0.0010608231 0.0005060815 0.013738262
0.0035122635 0.0036079111 -0.0097648539
-0.0040042843 -0.0007630387 0.016912635
0.00084882957 0.00025614383 -0.0020051817
0.0026569937 0.0029986037 -0.036499929
0.0013207438 0.0029317162 -0.0043614358
0.0031761474 0.00050851295 0.021486627
-0.0022104762 -0.0014161473 -0.0022511047
-0.0013309506 -0.0011962135 -0.0014749779
-0.0043749856 -0.0026738646 -0.0035014255
4.5321136e-05 -0.0040898016 -0.0041886671
-0.00049298193 -0.0018855013 -0.0039523765
-4.6234738e-05 0.00071726675 0.0001241984
5.109483e-06 -0.0014704054 -0.0016714152
0.0015239574 -0.00053665921 -0.00042198485
0.0042271605 -0.0011618959 -0.0012718083
0.00078951928 -9.1237853e-05 -0.0001129343
0.00055577914 0.0034796596 0.00017221423
0.0077317636 0.04307843 0.001158805
0.016557954 -0.0017667681 -0.0016580309
1.4087349e-05 0.0053707073 0.0011048825
-0.0035845113 -0.00056538801 -0.00076773873
0.0022672764 0.00049432227 0.032587897
0.0093126381 0.0012839892 -0.019042846
-0.00055773195 0.00037939119 -0.0016157392
-0.00048987125 0.00020607022 0.0022185289
0.0062543652 0.0025144219 0.0074202372
-0.0089220004 -0.0022229438 -0.0029422776
-0.0065579992 -0.0014014777 -0.0015945853
-0.012747943 -0.0018207517 -0.0020857879
0.0008365541 -0.0027384781 -0.0049951766
0.0003638936 -0.0044439454 -0.0046597845
6.4301428e-05 -0.0058428054 -1.5502023e-05
-0.00012270991 -0.0012379924 0.00078059826
0.0038828878 0.017601121 0.00019005757
0.005809892 0.052938126 0.00061618176
0.0020249041 0.0094395801 0.00026699068
0.00018120625 -6.107513e-05 -5.069657e-05
-0.0016569728 0.0056652538 0.00056534039
-0.00096901879 0.0013772667 0.00028583614
0.0053192 0.060090333 -0.0019364075
-0.00036194857 0.0072398726 0.00061433314
0.0011673173 0.00042919489 0.00057374622
0.024823343 0.0030495268 -0.025728304
0.0084420806 0.0011272691 -0.026376072
0.0050988323 0.0018090061 -0.039720546
0.0020714067 0.0012825589 0.01403468
-0.00069033226 0.0005807812 0.0072789355
-0.015050662 -0.0023059992 -0.0016072239
-0.030011225 -0.00189616 -0.0033382811
0.00097366411 -0.0012585814 -0.0033790113
0.00096173544 -0.0042259404 -0.002952432
-0.00034096368 -0.012443341 0.00075828086
-0.0023293381 -0.022054497 0.0042752931
0.0065823961 -0.0011172646 0.0017097004
-0.00065111561 0.0076884683 2.4646242e-05
-0.0051381877 0.038456272 -0.00061762118
-0.0061717089 0.063538969 -0.0024287384
0.0084600328 0.10985636 -0.002745376
0.0015066158 0.011282285 -1.235229e-05
0.0016382227 0.01352256 1.0900549e-05
0.0043213288 -5.3974938e-05 -0.0027733352
-0.0003448975 -0.00013084707 -9.0342015e-05
0.0051176352 0.0005832946 0.018112959
0.012931971 0.001530054 -0.018191719
0.0080210092 0.00068175676 -0.016568273
-0.00049904187 0.00028552485 0.0087511735
0.0043855738 -0.00066612504 0.032374728
0.00849122 7.7596051e-05 -0.00072845578
4.9590548e-05 0.00010688003 0.0095015103
0.0032402761 -0.0011702463 -0.0034197737
5.7329813e-05 -2.5409547e-06 -5.5517667e-05
8.7501227e-05 0.0012991483 0.00088231341
0.00064738916 0.0022999519 0.00015881046
0.0023524913 0.021801699 -0.0002115199
0.0057226871 0.023856137 0.0014908933
-0.0020199807 0.024611114 -0.00034986003
-0.0030583495 0.013688089 -0.00045455911
0.00014354609 0.014892437 0.00027507474
-0.0064248801 0.06470634 -0.0010839347
-0.00054119457 -0.0019334093 -0.0018353023
-0.0037439081 -0.0010360766 -0.00077882898
-0.0074709966 -0.0018226125 -0.0020723313
0.029196935 0.0023695892 -0.015238647
0.00029450393 8.4139007e-05 0.00079385575
0.016839014 0.0015399446 0.0041894373
0.0052093789 -0.00057388638 0.030668054
0.0099626053 5.2842639e-05 0.014254344
0.0012605167 -0.00011018831 0.021728141
0.00019505555 -0.0078250049 -0.00023166033
-0.00016890836 -0.00041081142 0.00088019
0.014293735 0.0094068628 0.00076827768
-0.0002635789 0.001804652 -6.2266008e-05
0.00012970295 0.0082244445 0.00028224025
0.0062096803 0.02313458 0.0022557133
-0.0020487274 0.024819836 -0.0005427617
0.0022980361 0.03341601 0.00030846591
-0.0018340381 -0.00064797595 -0.00057163322
0.00024715121 -0.0010876086 -0.0013594998
0.0029117756 0.0013526928 0.010510855
0.0022361972 0.00057065533 0.014823665
0.00098641636 0.00026891285 0.0018657695
0.0030809359 0.00040439051 0.017270165
-0.0076042842 0.00045663107 0.040443167
-0.011093591 -0.0013002473 0.023634553
0.00025185093 0.00068764976 0.0025336957
-0.00046594511 -0.055200797 0.00089268124
1.6810614e-05 0.00052896154 4.033414e-05
0.0030114758 0.008757337 0.00036895875
0.021611638 -0.0044859438 0.0042886194
0.0016226268 0.0067882398 0.00018764797
-0.0016526571 0.010475053 -1.3591625e-05
-0.0036869561 0.017340599 -0.00086224551
0.0043814192 0.023013907 0.0011596996
-0.0048651109 -0.0010690225 -0.0012147799
0.0080646379 0.024070557 0.0013459099
-0.007825478 -0.0015319566 -0.001423903
0.0055085314 0.00052450504 0.025287932
0.0065635126 0.00090861978 0.0032531635
-0.010615557 -0.0017437468 0.045919582
-0.016105082 -0.00093180302 0.017983206
0.0021939077 -0.00063849136 0.0094727864
-4.9623253e-05 -0.00020114267 -0.026465878
0.00066922867 -0.028914023 -0.00012130558
9.3139752e-06 0.0002727661 1.6065353e-05
-0.0020366558 0.0032755765 -0.00011349451
0.0060651796 0.010324853 0.0013505797
0.0062888735 0.0028006749 0.0011608111
0.0071489299 0.0077074762 0.0013990902
-0.0061499411 0.025085913 -0.0012886595
0.00041591853 0.0051303529 0.00041785877
-0.0040254602 0.022802925 -0.00068027287
0.012920428 -0.018908564 -0.023651354
-0.0029667662 -0.00033004282 0.031511303
0.0084963078 0.0010052711 -0.013735044
-0.0027354562 -0.00038371808 0.018669154
0.00063791696 -0.00077774777 0.027590416
0.0036730394 -0.00065262464 0.013136092
-0.00069423608 -0.0011324548 0.022607295
-1.4874119e-05 -0.048468385 -0.0032805046
0.0004502252 -0.025660828 0.0052920571
0.0010703343 0.0018101541 0.00028012725
0.0029250311 0.0085662883 0.00076208974
-0.00021137626 0.0046804245 -8.676327e-05
0.0018500941 -0.0013454494 0.0036176266
0.016644485 0.057898812 -0.0023827716
-0.00031892722 0.0047668619 0.00048948801
0.01108406 0.063963942 -0.0020098661
-0.0018477581 -0.0014190407 0.00037853367
-0.0023170074 -0.00036685623 0.016918698
8.5839638e-06 1.6352352e-06 2.392275e-05
0.00082513696 0.00035589779 0.0050880122
-0.0010591961 -0.00045960493 0.013749811
0.0019035224 -0.00080437987 0.017530773
-0.0020796973 0.00016078922 -0.041611847
-0.00032880087 -0.017046388 -0.0016259758
0.00023146863 -0.00023644649 0.00034242906
-0.00066697772 0.067365795 -0.0015838696
0.0019444863 0.0070708967 0.00044141291
0.0026173661 0.0058838171 0.00043455357
-0.0013841741 0.0052348133 0.0027297288
0.00093878707 0.011624486 -0.00030144927
-0.0019046246 0.030546226 5.908293e-05
0.0016260047 0.02087272 -0.00029318218
0.0028265375 -0.0022237177 -0.0012069365
-0.018440954 -0.0022616412 0.02965183
-0.0088671762 0.00021873911 0.023282981
0.011743276 0.00084941846 0.01284969
-0.012522186 -0.0004970564 -5.2386138e-05
-0.0032672188 -0.00090164586 0.014081361
7.762239e-05 -0.036092915 0.00062194647
-0.0005959259 0.057404704 -0.00077524659
0.00012284587 0.0052885674 -9.7914781e-05
-0.00036656673 0.00012067139 0.00031513028
8.7509114e-05 0.00095357059 0.0002991457
0.0023034366 -0.0010814524 0.0025853624
-0.00042918482 -0.031187091 0.0024051373
0.0029155635 0.024720212 0.0017989973
-0.00017771855 -4.1929659e-05 3.0247234e-05
-0.00084364635 -0.0053676669 -0.00024039843
-0.012144914 -0.0026268831 0.028416915
-0.0007506769 0.00037282438 0.015907556
-0.0038728975 -0.00037771554 0.034618903
-0.02614584 -0.0022025744 0.050041214
0.01296537 -0.00087685161 0.041915905
-8.3834257e-06 3.4929879e-05 3.8026148e-05
-0.0034138053 0.032756012 -0.00026677319
0.0032568665 0.04474153 0.00021530024
0.0011656067 0.00030712155 0.00038756718
0.00025567494 0.00052428746 0.00020469319
-0.0040506246 -0.0015027547 0.0027687452
-0.001852125 -0.0056637619 0.0012454226
-0.0017982814 0.00070507161 0.00091172964
-0.024059132 -0.027350184 0.0022411072
-0.00084444962 0.001169485 -0.00083422323
0.0027774421 -0.00076517381 0.00017411652
-0.032888971 -0.0025528879 0.06234096
-0.0062319241 -0.00038252957 0.016886076
-0.010872838 -0.00130081 0.071215481
0.0076215412 -0.00092662609 0.0058947471
0.00256522 0.021516344 -0.0017238606
0.0019828253 0.018447526 0.00035120317
0.00069283845 0.0045620273 0.00012467259
-0.00026510278 0.0018741657 0.0010261307
-0.0021213137 0.017570134 -0.0025826432
0.00019374347 0.0041738697 -2.6894841e-05
0.00021397407 0.00086964748 4.8552014e-05
0.0029704033 0.054863598 0.0015305333
-0.0018361793 3.0193263e-05 0.00029760247
6.8838199e-05 0.002630224 0.00096202345
0.0087993965 0.011161238 0.0099972002
0.0055984105 -0.00076223363 0.0019728409
-0.021028876 -0.0016346877 0.087939188
-0.007969413 -0.00091865583 0.034254976
0.0068455036 0.013393239 0.00019560529
-0.0044748974 0.027320182 -0.00044063324
-0.0007316902 0.055050381 -0.00075368158
0.00045117279 0.00071740453 6.7609275e-05
-0.0015730989 0.00060192932 0.00095494179
-0.0032200844 -0.0044386401 0.0026079977
0.005190128 0.024846675 5.435606e-05
-0.00089081231 0.01307627 0.002006337
-0.0046634325 -0.026340108 0.0017905224
-0.017594459 -0.0025814574 0.002247741
-0.04942181 0.014065496 -0.0021117784
0.0029116166 -0.00022814932 0.0033951476
-0.0014707834 -0.00021560158 0.01177675
0.018069988 -0.0013413458 0.040578533
0.0026084201 0.0032982565 -6.6999855e-05
0.0010476175 0.0038718702 0.00052704813
-0.0026795622 -0.00037928612 0.00082892744
-0.0026788649 -0.0031886001 0.00090111577
0.012662889 0.019031063 -0.0013230119
0.00058010302 -0.00055821677 0.00044592959
-9.4110044e-05 -2.5550817e-05 8.1499173e-05
0.0025576754 0.011933269 0.0024741511
-0.012220005 -0.050154384 -8.189505e-05
-0.017886987 0.0061385217 -0.00010742897
0.010059526 -0.010331159 -0.00065751653
-0.0055351397 0.019893957 0.033461269
0.0013223791 0.00051949359 0.017183978
0.0095420433 -0.0033881918 0.038813349
0.024384305 -0.003526072 -0.0027299633
-0.0019767853 -0.00086663337 3.6637921e-06
-0.01594566 -0.014521528 0.001183048
0.0052593895 0.0060169422 0.00056504039
0.011347707 0.0076362174 0.0007059779
-0.0080334852 -0.0096426066 0.0023191031
-0.0058627124 -0.0031938674 0.0013381063
0.000407588 0.0035634884 0.0010566914
-0.0046278294 -0.0087685734 0.0022871653
-0.011330948 -0.002866447 0.002538539
-0.0024991399 -0.00060081336 -0.00061828765
0.0064337663 0.01238861 0.028480059
0.0013717591 -0.0090387193 -0.0055731055
0.009893598 0.053757515 -0.0081831114
-0.017072657 -0.0088668372 -0.00090999191
0.00071928906 0.00032579634 -7.138121e-06
-0.0025035089 0.00071294187 0.0003225001
-0.0083677545 -0.0056690495 0.00027676878
0.0060102968 0.022351423 -0.0011395125
0.00028220494 0.0012953716 9.4561525e-05
-0.0091883224 -0.0098404484 0.0022940568
-0.014896688 0.020858487 -4.000129e-05
0.0014423288 0.022300579 -3.5876586e-05
0.0018802751 -0.0028208117 0.003953666
4.0351671e-05 7.4220414e-05 0.0030073302
0.00081591215 0.00057707616 0.014216553
-0.00083109009 -0.0013714508 -0.0078842668
-0.0024632344 0.0091926698 -0.00045484339
-0.041582033 0.028473249 -0.00082377659
-0.0042531402 0.016575398 0.0013710439
-0.029718716 0.0049259504 -0.00037350768
-0.029395457 0.0055817296 0.00076453516
-0.00054245017 0.032996118 -0.0013612794
-0.040121399 -0.013228294 -0.0011858136
0.0033802288 0.027971961 0.026914949
-0.041144773 -0.026881417 0.0094118193
-0.0039063962 0.0016845594 0.029085971
-0.013496364 0.0011928569 0.0023354026
0.0012732537 -0.0056502013 0.022101874
0 0 0 1 0 0 0 1 0 0 0 1 0 0 0 0 0 764 1 0 0
