ply
format ascii 1.0
comment PCL generated
element vertex 764
property float x
property float y
property float z
element camera 1
property float view_px
property float view_py
property float view_pz
property float x_axisx
property float x_axisy
property float x_axisz
property float y_axisx
property float y_axisy
property float y_axisz
property float z_axisx
property float z_axisy
property float z_axisz
property float focal
property float scalex
property float scaley
property float centerx
property float centery
property int viewportx
property int viewporty
property float k1
property float k2
end_header
0.00095580099 -0.00028752701 -5.794509e-05
0.00091159769 -0.00063400011 -0.00027789405
0.0010144493 -8.1972423e-05 -0.00025365595
0.0011905996 -0.00033376366 -0.00020340491
0.0011334991 -0.00018865605 -8.6901033e-05
0.0013967322 -0.00048284666 -0.00022877146
0.0010893038 3.5475608e-05 0.00017706015
0.0013052099 -5.7203266e-05 0.0001708476
0.0012334157 -0.00010170324 0.00012717028
0.0010352939 0.00014859898 0.00038335385
0.0013701395 0.00014544404 8.7506975e-05
0.0013610836 -0.00016449277 -4.9403203e-05
0.0012594683 -0.00014987608 0.00037145155
0.0012289861 0.00041803421 0.00041837382
0.0010848774 0.00070695748 0.00038796721
0.001110703 0.00070168916 0.00034401589
0.0010882498 0.00069273339 0.00031676053
0.0014126403 -0.00015411821 -0.00037014444
0.001432533 -0.00039478627 -0.00080635253
0.0011315702 -0.00054872088 -0.0008310494
0.00084518944 -9.6121112e-05 -1.1534278e-05
0.00081824901 -1.3193414e-05 2.9533148e-06
0.00065507792 -3.8649272e-05 0.00022136266
0.00097838382 -0.00014373795 -0.00037059275
0.0010847026 5.0913401e-05 0.00028821992
0.0010873189 0.00026051994 -0.00026307328
0.0014292414 0.00018779088 1.4902217e-05
0.00090193801 8.5011561e-05 6.4777327e-05
0.00092725159 -0.00020504084 -4.8235765e-05
0.00082407607 1.9312401e-05 0.00018515164
0.0010712681 0.00056188618 0.00040540338
0.00090533675 0.00056346832 5.9878428e-05
0.0010607655 0.000664344 0.00024972254
-7.236495e-05 0.00070533832 0.00021025783
-0.00025966667 0.00012258273 -0.00012357149
0.00030624916 8.8511057e-05 -0.00017779497
0.00069111754 -0.00028969214 -0.00016685767
0.0010288751 0.0001222148 -6.7164051e-06
0.00050537224 -0.00012833513 6.3110427e-05
0.00038990864 0.00014079029 0.0002452661
0.0006333057 6.0560436e-05 0.00025191717
0.00042257982 0.00036710055 0.00015430285
0.00082061748 0.00051406893 0.0002924267
0.00071730861 0.00028589575 0.00030957858
0.00075153401 0.00031927365 -1.3099443e-05
0.00096119219 -4.2313281e-05 0.00010294912
0.0012421389 -4.6822959e-05 0.00014261864
0.00088702078 0.00031815047 8.6715787e-05
0.0010364697 0.00053821475 0.00022916417
0.0010037329 0.00043749146 0.00022286869
0.00078127021 0.00064801011 5.8505932e-05
0.00018248496 6.2853709e-05 3.2804404e-05
-0.00026740966 0.00028993041 0.00010911729
0.00041467175 1.0280623e-05 -8.4398835e-06
0.0010071518 0.00040822462 0.00014825995
0.0007320827 -0.00012678895 5.9708018e-05
0.00068609504 0.00056404719 0.00050222955
0.00055289787 0.00019896451 0.00026703652
0.00052671036 0.00059715315 0.00076340948
0.00018804737 0.00067301001 0.00057722197
0.00069735339 0.00049789838 0.00035541985
0.00073493278 0.00050931412 0.00034181736
0.00057581061 0.00028614615 0.00026496113
0.00082573813 7.9825048e-05 0.00020450898
0.0010791896 0.0001398524 0.00031340669
0.00085117854 0.0005024806 0.00013280456
0.00084761245 0.00052263221 0.00023470151
0.00043321989 0.0006495972 0.00016318994
-0.00016723234 8.8197303e-05 0.00018953519
0.00039055376 0.00030569249 -0.0001654427
0.00020423454 -6.7190093e-05 6.9898007e-05
0.00027289637 0.0008076902 0.0003500953
-0.00012675428 -8.4012572e-05 0.00037800783
0.00029278116 0.00061106985 0.00059641385
0.00035223487 0.00032723791 0.00030370877
0.00032876254 0.00074161089 0.00054644427
0.00042223156 0.00075848895 0.00064233597
-4.9951203e-05 0.00040951793 0.00054532854
0.00054122723 0.00054971076 0.00025789274
0.00023657132 0.00055732031 0.00043810112
0.00065343175 0.00035710502 0.00054528849
0.00046013933 0.0001044634 0.00034905007
0.00068862468 0.00034793341 0.00039591698
0.00053161691 0.00065104314 0.00031961547
0.00011492003 0.00077745435 0.00040194381
-2.4267267e-05 0.00021090613 0.00010924771
-8.5424275e-05 0.00020034269 -2.1663125e-05
6.3309591e-05 -0.0003011786 3.4370169e-06
-0.00015035253 0.00031471558 0.00026776124
0.00040786594 0.00028012542 0.00031909489
0.00019021652 0.00088466413 0.00092574523
6.8122819e-05 0.00055270619 0.0008676296
0.00043148681 0.00087528944 0.0011756896
0.00015938765 0.00074625714 0.00068426807
0.00013341435 0.00038648967 0.0008017862
0.00048327778 0.00035064059 0.00019112029
-0.00020416112 0.00032908024 0.00035341977
0.00038954979 0.00029990292 0.00058853137
2.3891918e-05 0.00023926988 0.00059257157
0.0007185241 0.00028943337 0.00070243143
0.00010223097 0.00052328862 0.00085384311
-4.3977059e-05 0.00088065973 0.00087854074
0.00017886919 -2.1532831e-05 0.00035485846
0.00028808226 0.00025283248 0.0004049878
-0.00020470617 1.2872979e-05 0.00018249398
0.00034538572 0.00033055159 0.00033373895
0.00018723808 0.00063116435 0.00035709623
-0.00013305958 0.00094625494 0.00098696293
0.00046223018 0.00068702491 0.0010246248
-7.2008079e-05 0.00080199656 0.0012079101
-0.00011087628 0.00038263694 0.00088605279
0.00050143606 0.00033388101 0.00071492704
0.00047240485 0.00047346353 0.00030089621
2.3681343e-05 0.00024898563 0.00024833702
0.00020160111 0.00037461086 0.00055295764
0.00018437223 0.00034555414 0.00052317407
0.00033713004 0.00035729515 0.00082847278
-0.00010451952 0.00034034273 0.0010668057
0.00043002545 0.0007166327 0.0007156214
-0.00016966964 -0.00032848766 0.000345309
-0.00017746519 0.00029282228 0.00040228709
0.000315841 0.00024870347 0.00054334739
0.00013686616 0.00047467693 0.00037489863
-9.0471993e-05 0.00048752993 0.00060091249
0.00042018827 0.0011557274 0.0010552837
1.0359127e-05 0.00099463423 0.00092612923
-8.0125676e-05 0.00091200392 0.0014219239
0.00029321617 0.00041023103 0.00087948021
0.00051057263 0.00040933923 0.0010631632
0.00010043323 0.00063383376 0.00043590274
0.00014081971 0.00021775841 4.8723057e-05
0.00036355131 0.00035377865 0.00029358306
0.00061279425 0.00027653755 0.00060634397
0.00046812033 0.00029568525 0.00067742512
7.4821452e-05 0.00022898086 0.00074079813
0.00023775944 0.00049891579 0.0006442056
0.00040360237 -0.00075757678 0.000346858
0.00010987143 -0.00023401879 0.0003264129
0.00022041386 3.740524e-05 0.00032455887
-0.00014521074 0.00024489925 0.00048053215
0.00047257941 0.00032667248 0.00071505242
0.00024815649 0.0012624909 0.0010473975
0.00018328569 0.001222153 0.00088582153
0.000441727 0.00085741613 0.0010997438
0.00028624156 0.0002319421 0.00093513518
4.9183629e-05 0.00032516185 0.0011315937
-9.2959293e-05 0.00061900076 0.00031937752
0.00021080238 0.00027417371 4.9063943e-05
0.00070730539 0.00030029385 0.00022709829
0.00089585572 0.00043977567 0.00019364506
0.00097313692 0.0003306976 0.00055664888
0.00043515771 0.00017094554 0.00054594275
0.00039385684 0.00019293567 0.00045938659
0.0002781107 0.00035304989 0.00012147359
4.7423542e-05 -0.00092559797 0.00050722854
0.00038245655 -0.00082186825 0.00036760475
4.2791435e-05 -0.00058028655 0.00018939494
0.00023406402 -0.00024639943 0.00028097557
6.9768037e-05 0.00027570568 0.00057473237
-0.00015957154 0.00091923698 0.0006293577
0.0004453751 0.0011098079 0.00072604057
0.00019339198 0.0011239698 0.00096137432
-1.7630156e-05 0.00016967657 0.00084021973
-3.5885892e-05 0.00035285956 0.00130103
1.5908083e-05 0.00058411754 0.00061537913
0.00051225704 0.00023553196 3.334503e-05
0.00052825647 0.00029227193 0.0001405698
0.00052287383 0.00044513855 0.00036430132
0.0010914484 0.00056801003 0.0005526403
0.0011753177 0.00067077833 0.00010309354
0.00080147584 0.00059239293 -0.00013821886
0.00069153967 0.00060525863 -0.00039881491
0.00062932004 0.00052152423 -0.00075136707
0.00046137013 -0.0010112467 0.0005517219
6.5235952e-05 -0.00085729093 0.00040045974
0.00011670284 -0.00079615798 0.00027909141
0.00034089031 -0.000557388 0.00046500532
-0.0001879897 -0.00062613864 0.00032639602
-0.00019657931 -0.00026292738 0.00012800399
0.00046070985 0.0015422474 0.00085394166
-2.3330687e-05 0.0010363375 0.00057428284
-2.4108091e-05 8.4239844e-05 0.00049744599
2.7422666e-06 0.00018151481 -1.0564358e-05
0.00057084119 0.00061028649 0.00053068838
0.00060361158 0.00035955719 -9.5345633e-05
0.00044612377 0.0001750004 0.00023325201
0.00093243184 0.00048813177 0.00036913517
0.0013384828 0.00078721391 0.00070583279
0.0010029775 0.00091496226 0.00017963604
0.0009849862 0.00081500347 -0.00019319357
0.00094025623 0.00077788113 -0.00034898982
0.00064572931 0.00059659011 -0.00064318063
0.00069815957 0.00067032955 -0.0011013866
3.0203344e-06 -0.0010455264 0.00070130226
7.4170188e-05 -0.00080296362 0.00038830959
0.00041206178 -0.00065335131 0.00026602173
-7.1684161e-05 -0.00096686481 0.00037575923
-0.00022987448 -0.00080230454 -2.2311409e-05
-0.00057002017 -0.0011748157 -0.00023185345
-0.0011812737 -0.0014809439 -0.0010953731
-0.00068988494 -0.00026837151 -0.0012931866
5.1819676e-05 -2.0129162e-05 -0.00077912875
9.6333082e-05 0.0001848283 -0.0011181198
0.00039815725 0.00036271004 -0.00034759013
0.00064552628 0.00015919941 -0.00052842341
0.00061712263 0.00024785678 5.358721e-05
0.00065370795 0.00048488594 0.00057318108
0.00080838805 0.00083161419 0.00044460312
0.00078091631 0.00082047022 -6.2075036e-05
0.00084786752 0.00084024621 -0.00017997313
0.00095368293 0.00074979285 -0.00045799656
0.00060669426 0.00079016469 -0.00082927931
4.3797757e-09 0.00066221907 -0.0010126668
0.00025755019 -0.0010646312 0.00080204225
0.00026785821 -0.00087582122 0.00023444564
-8.2042949e-05 -0.0005297662 0.00035697373
1.9781053e-06 -0.00080762361 0.00011137375
-0.00030929051 -0.0011346297 -0.00013684278
-0.00060513854 -0.00091274071 -0.00055510807
-0.0011427233 -0.0009178266 -0.0008117432
-0.0020924229 -0.0020662167 -0.0026407586
-0.0016099371 -0.0013246255 -0.0023726742
-0.0002636211 -4.9925035e-05 -0.0012704688
0.00041987101 0.00041112219 -0.00087163877
0.00019771984 8.2914601e-05 -0.00074840692
0.00035365572 0.00010126188 -8.0007805e-05
0.0005182692 0.0004708973 3.0879863e-05
0.00023123222 0.00089337397 0.00019414573
0.00018125333 0.00064772589 -0.00013180534
0.00063366519 0.00065039931 -0.00033945116
0.00096877874 0.00077683548 -0.00051067502
0.00060499879 0.00082820893 -0.00070660072
0.00048114665 0.00073530391 -0.00097720569
6.0575789e-05 -0.0010962469 0.0011472577
-7.9046658e-05 -0.00079159677 0.00017228635
0.0002918893 -0.00038483256 0.00028649421
0.00038023654 -0.00045334664 0.00022611064
0.00016888914 -0.00070204976 -0.0001444653
-0.00083318923 -0.0010464472 -0.00066163583
-0.0011300147 -0.0006531789 -0.0022115102
-0.00081279606 -0.001490589 -0.0025906297
-0.0014032871 -0.0021585268 -0.0023764847
-0.0024087343 -0.0022506786 -0.0027310213
-0.00075801025 -0.00023194314 -0.001741129
0.000139586 4.3718512e-05 -0.00083728333
0.00013299429 8.2733568e-05 -0.00035965539
0.00016850347 0.00054936216 -0.00017104164
0.00015443894 0.00089810416 -0.00017899933
0.00019441379 0.00057203067 -0.00016794699
0.00039899483 0.00034049491 -0.00039288105
0.00087409798 0.00086404145 -0.00052779517
0.0007205719 0.00083619187 -0.00069550425
0.00038273822 0.0006652922 -0.000879156
0.00023635643 -0.00085492706 0.0010043851
0.0002381965 -0.00069953001 0.0004016431
8.2585706e-05 -0.00022326017 0.00030703747
-4.6001041e-05 -0.00024538476 0.00020160123
-0.00038551292 -0.00077557226 -0.00026063074
-0.0001742686 4.1226278e-05 0.00025621371
-0.00034430911 -0.00051948748 -0.0010943429
-0.0011006783 -0.0008822516 -0.0015581022
-0.0017692166 -0.001600689 -0.0017758015
-0.0013959807 -0.00093628699 -0.0012076967
-0.0011205132 -0.0010080243 -0.0013783026
-0.00028215739 -0.00042626486 -0.0011052013
1.7638997e-05 4.6366382e-05 -0.0010815607
-0.00010054604 0.00032655519 -0.00081408635
6.6980072e-05 0.00050115172 -0.00046963454
0.00057960057 0.00018559031 -0.00048031841
0.00066524779 0.00032773364 -0.00064655038
0.00070662657 0.00076589233 -0.00060885923
0.0002414771 0.00073698227 -0.00079853699
0.000199363 0.00066123036 -0.0010853943
0.0010594821 0.00061109604 -0.0011907454
5.2839827e-05 -0.00091630581 0.00098774629
-3.8920345e-05 -0.00054747768 -0.00020138474
0.00019287437 -0.00038391497 0.00013729876
0.00037269588 5.9783961e-05 0.0003387878
0.00013693268 -1.5035837e-05 4.1944786e-05
0.0001858404 -1.3655623e-05 0.0001359211
-0.0011364975 -0.00054424204 -0.0021716552
-0.0010404789 -0.0011385608 -0.0017934839
-0.0020878001 -0.001989848 -0.002857402
-0.0019325009 -0.0018006954 -0.0023327381
-0.0023191671 -0.0015935613 -0.0019972066
-0.00062881765 -0.00080747629 -0.0018075674
-0.00012716163 -0.00066543825 -0.00060407986
7.7690973e-05 0.00021786141 -0.00073226553
0.00044238986 9.650454e-05 -0.00082199124
0.00071976305 -1.0711434e-05 -0.00079461583
0.00065572484 0.00033391162 -0.00059584581
0.00041093124 0.00060817756 -0.00073834526
8.7239743e-05 0.0006160714 -0.00084932684
-6.854246e-05 0.00074697228 -0.0010758123
0.00019665466 0.00059951789 -0.0010182051
-0.00027718602 -0.0011730125 0.001518255
8.3921805e-05 -0.00015580612 0.00012956366
0.00015505582 -0.00010550044 0.00021225629
0.00027040247 0.00014835173 0.00028143343
-3.7807586e-05 0.00012394051 0.0003259785
-0.0001802809 -1.7107719e-05 -3.6515834e-05
-0.00029965001 -0.00045376661 -0.00083787297
-0.00032141141 5.6928948e-05 -0.00099142559
-0.0014924428 -0.0016275621 -0.0032602756
-0.0025466525 -0.0023919819 -0.0036478948
-0.0016104722 -0.0013837791 -0.0023766516
-0.0020304159 -0.0019924955 -0.0019014167
-7.8254467e-05 -0.00035336456 -0.0016208037
0.00031109899 0.00033792821 -0.00039826814
0.00033881111 0.00040898964 -0.00076366484
0.00016467058 -9.3529516e-06 -0.00080334255
0.00016866102 0.00049347925 -0.00048871763
8.5500171e-05 0.00077061332 -0.00071887369
-6.2867162e-05 0.00072345778 -0.00084608962
3.2881031e-05 0.00076516334 -0.0010334238
0.00029428382 0.00072942238 -0.001109584
-0.00025376599 -0.00054369459 0.00083688338
-4.0992672e-05 -0.00058253901 0.0003197912
0.00011306361 -0.00011927682 0.00011313879
0.00020937702 0.0001308283 0.00017334514
0.00028779599 0.00013285402 -0.00015719781
0.0001004318 -0.00013201726 -7.8453202e-05
-0.00021230103 -0.00052238646 -0.0014762114
-0.0013693022 -0.0013206451 -0.00351561
-0.0049008722 -0.0047921794 -0.0077363052
-0.0068535381 -0.0047819731 -0.0098159574
-0.0027734402 -0.0025170606 -0.0028294597
-0.00045974064 -0.0012924413 -0.00072178891
2.5044204e-05 -0.00081306964 -0.00028493741
-2.4909741e-05 0.00025701031 -0.00046949295
-1.7232751e-05 0.00033833837 -0.00034444168
-0.00012502586 0.00064352149 -0.00042573956
-0.00011009708 0.00092820899 -0.00061675761
-4.0569073e-05 0.00081367302 -0.00082691875
0.00018832057 0.0008212158 -0.0009880584
0.00048435462 0.00076041924 -0.0010640785
0.00016840367 -0.0011673694 0.0012567001
0.0001164704 -0.00078070909 0.00043891199
-8.6482934e-05 -0.00040620199 0.00022249443
1.4244626e-05 0.00032863385 0.00060822605
-7.4174211e-05 4.4450346e-05 -0.00044151756
-9.4719318e-05 3.4846551e-05 0.00050661876
-2.5596679e-05 -0.0004398778 -0.00093609915
8.2053855e-05 -0.00090870622 -0.0045945146
0.0021763982 -0.0016403334 -0.0032969441
0.00438629 -0.0048189899 -0.0078531895
0.0005405671 -0.0025111041 -0.0033587143
-0.00016773716 -0.0011143173 -0.0010189125
-0.00027718369 -0.00038383427 -0.00021574054
-8.7769826e-05 0.00040218254 -0.00040001428
-2.6239136e-06 0.00033484009 -0.00038559156
6.3833017e-05 0.00074963062 -0.00038420298
8.4877975e-05 0.0010769796 -0.00061230821
0.00014332702 0.00089896616 -0.00065016164
0.00022451358 0.00077018066 -0.00083675131
0.00043362076 0.00096363417 -0.00098403473
-0.00017175965 -0.00085859589 0.00066639035
8.9243622e-06 -0.00058301329 0.00016940689
0.00010893257 -0.00051128078 0.00012986883
0.00014821265 0.00023707542 0.00055162364
4.5648558e-05 0.00020903182 0.00082025788
-0.00039127914 8.3059633e-05 0.0006214499
0.00014846203 -0.0006904857 -0.00079575548
0.0023405033 -0.0029201633 -0.0037643197
0.0030364485 -0.0013556697 -0.0027638234
0.002324773 -0.00091697031 -0.0014408359
0.0005735415 -0.00090251252 -0.00070263509
8.069232e-05 0.00047817771 0.00040383535
0.00033112511 -0.00024613182 -7.5218027e-06
0.00042832521 0.00060776016 -0.00041298268
0.00033167878 0.00036850126 -0.00042362846
0.00038642311 0.00043937404 -0.00046449731
0.00035935862 0.0010326433 -0.00070509361
0.00034209664 0.00099533657 -0.00090498873
0.00041330428 0.0010716919 -0.00095874007
0.0002788947 0.0011363067 -0.00087145204
0.00018856641 -0.0015938279 0.00094725483
1.9678479e-05 -0.0010409217 0.00036943165
5.8086639e-06 -0.00076875102 0.00021535468
-7.9819758e-05 -1.0078511e-05 0.0004647015
-4.4697863e-05 7.8846911e-05 0.00089319231
1.3003309e-05 0.00039612188 0.00035581272
-6.1600687e-05 4.4244578e-05 -0.00026399107
0.00091210165 -0.00072322402 -0.00058171054
-1.4213221e-05 -7.0871509e-05 -0.00010265152
0.0003748865 -0.00049255398 -0.00043348852
5.4048607e-05 0.0008599016 0.0015203228
0.00026478717 0.00034186165 0.00035293458
0.00026472914 -6.3057261e-05 -3.5562112e-05
0.00022737769 0.0010099126 -0.00048068404
8.4878251e-05 0.00048791597 -0.00059359526
0.00014823326 0.00040033006 -0.00064614642
0.00014930881 0.0010283494 -0.00047061787
0.00013392422 0.00098376372 -0.00058474409
0.00019718619 0.0010785022 -0.00069962587
0.00018890767 0.0012314074 -0.00068742607
-0.00023176039 -0.0012215895 0.00049864571
-0.00015017405 -0.0009223271 0.00027408928
-2.74704e-05 -0.00079220568 9.07582e-05
-0.00022061158 -0.00059420115 0.00029957102
-0.00011723253 -0.00033744279 0.00080705347
-0.00021180765 0.00077476556 0.00036002416
-9.0534319e-05 -0.0003432215 0.00016860946
4.5916775e-05 0.00022744999 0.00054986426
-0.00012500878 4.6287849e-05 0.00079599267
-0.00028552799 0.00078849628 0.0017667935
-0.00026584658 0.00030329774 0.00047086133
-0.00014447678 -0.00010261349 0.00027208764
-7.449025e-05 0.00069629936 -0.00018822562
-4.8194634e-05 0.00073352118 -0.00051992654
5.6267068e-05 0.00076943939 -0.00063813635
-2.2554701e-05 0.00035428503 -0.00026645244
1.9355373e-05 0.00096802792 -0.00021622133
8.2671526e-05 0.0010111214 -0.00036910144
0.00011029599 0.0011214326 -0.00044137245
-1.6798085e-05 0.0013051897 -0.0004196619
5.4937871e-05 -0.0016755803 0.00042827314
-2.7392594e-05 -0.0012698892 8.1595346e-05
-2.3888033e-05 -0.0011890669 0.00011552444
-6.5609656e-06 -0.00061706966 0.00011847808
2.9040832e-05 -0.00034475946 0.00068059308
7.8329838e-05 0.00070635782 0.0011947822
0.00029919951 0.00057262689 0.00070167013
0.00012220253 0.00065567601 0.00082890043
-8.61804e-05 0.00017564843 0.00075336336
-0.00055925711 0.00055520778 0.00081806781
-0.00032672478 -5.8504258e-05 0.00019080307
-0.00024073898 0.0013250356 -0.00010177051
4.9775927e-06 0.00058612903 -0.00018897493
-2.1129319e-05 0.00058827089 -0.00037200702
-6.5244887e-05 0.00055383064 -0.00062022911
-5.7836136e-05 0.00045438323 -0.00018208355
-6.4916043e-05 0.0010052727 -0.00018593539
-1.7685732e-05 0.0010350626 -1.4476173e-05
3.5716184e-05 0.0011909383 -0.00020329608
-0.00022339195 0.0013619143 -0.00019661697
-7.068344e-05 -0.0014046222 0.00026455044
-0.0002119846 -0.001170535 -0.00022628103
-0.00039466118 -0.0011415769 2.8052551e-05
-0.00026514786 -0.00052975048 0.00012161374
-0.00027252253 -0.00061735936 0.00039314618
-0.00018725437 6.152378e-05 0.00084994774
-5.5622775e-05 0.00041871666 0.00084240991
-0.00018338385 -0.000224395 -3.1913638e-05
-0.00010895088 -4.8813687e-05 0.00016361306
-0.00019701994 0.00018248908 0.00022534166
-0.00015206264 0.00094016065 -0.00024316313
4.2493044e-05 0.00025413203 -0.00029398841
0.00013915059 0.00039872894 0.00011692455
5.6834062e-05 0.00069896382 -6.9245565e-05
-0.00014363999 0.00070053508 -1.4006772e-05
-0.00010983784 0.0006709614 4.6951573e-05
-7.5696407e-05 0.00092330342 0.00030678289
-5.9348527e-05 0.0010017717 -0.00011216541
3.1625401e-05 0.0011458319 -0.00012299311
8.7156324e-05 -0.0013848722 -0.00031733123
0.00010125899 -0.0012774855 -0.00038536426
5.4991702e-05 -0.0012230836 0.00013816889
-6.1082545e-07 -0.00048058401 0.00020834275
7.4058713e-05 -0.00074937555 0.0004279656
0.00021285139 -0.000266883 0.00084161828
0.00015249752 -0.0003899897 0.0010733849
-0.00012442938 -0.00072775607 0.00042292761
-0.00033581618 -0.00020764716 -0.00019948426
-0.00037141345 0.0011738766 0.00045727167
-0.00017627417 0.00078015018 0.00026814832
0.00017327003 0.00023216293 -0.00024664224
0.00010052983 0.00030975053 0.00032675461
-9.0938593e-05 0.00045594922 0.00050033495
9.6740048e-05 0.00054014236 0.0001630436
-2.5427673e-05 0.00055125682 0.00017025082
-8.325182e-05 0.00089247571 0.00014837872
0.00015361569 0.00092656742 -2.0176838e-05
4.4308548e-05 0.00090201444 -0.00015248176
8.7233479e-05 0.0011785199 -0.00032356151
0.00017499729 -0.0014233756 7.1150018e-05
0.00030240635 -0.0017446758 -0.00081632368
-2.0284699e-05 -0.00092684757 -0.00033314392
-8.7298984e-05 -0.0011686609 -2.4651097e-05
-5.6360834e-05 -0.00028060912 0.0001667714
-0.00017899653 -0.00066683564 0.00056801114
-0.00025026506 -0.00024875105 0.00070812134
-0.00035388459 -8.9145651e-06 0.000321403
7.1656655e-06 -0.00010690228 0.00078630779
0.00014500153 0.00084656349 0.0009367484
-0.00059694936 0.00079685717 0.00068623788
-0.00033944697 0.00096636656 0.00073374802
1.5227049e-05 0.00038493413 0.00024853801
7.2246192e-05 0.00033776122 0.00036641452
0.00012408364 0.00050668186 0.00056648476
0.00011545746 0.00083096523 0.00040930585
8.531908e-05 0.00082026946 0.00027185646
7.8988189e-05 0.00082560099 0.00015177649
0.0001130659 0.00068804534 -0.00013143626
2.9573723e-05 0.00088411861 -0.00045550245
-0.00014314881 -0.001376492 0.00013525621
-0.00051980693 -0.0018988986 -0.0009924632
-0.00032529465 -0.0012204581 -0.00057603337
-8.4319596e-05 -0.0011881825 1.6893233e-05
1.5332809e-05 -0.00043788273 0.0004257308
8.2110593e-05 -5.0911978e-05 0.00052135234
0.00016323048 0.00023048911 0.00094006659
0.00016044889 0.0007239668 0.00087243458
-0.00053118315 0.00021000057 0.00070604036
-0.00016812865 0.0012359541 0.00099692086
0.00014359666 0.00073293824 0.00083487539
-0.00011018816 0.00051135657 0.00050801993
-0.00025686121 0.00032293398 0.00026422041
-0.00016914491 0.00037083021 0.00019158419
-1.2074011e-05 0.00014211512 0.00035530885
1.6848033e-05 0.00054553885 0.00027122616
9.9419129e-05 0.00059440354 0.00018757336
0.00019819677 0.00070489425 4.4408684e-05
0.00023674736 0.00079671416 -0.00024732121
0.00010750145 0.00080232532 -0.00057736656
2.022929e-05 -0.0010769007 0.00033982375
0.00048416186 -0.00080396119 -0.00042270767
0.00018186378 -0.00062135363 0.00018559142
4.9325674e-05 -0.00052026421 -2.1125699e-05
-6.3497828e-05 -0.00026297252 0.00010656441
-0.00023133848 5.7813395e-05 0.00046629636
-0.00022458415 0.00019118548 0.00090737251
-5.8153848e-05 0.0010608885 0.00072576001
0.00015726924 0.00099371944 0.0010968655
-0.00024531907 0.0010304555 0.00073828577
-7.5772936e-05 0.00079878204 0.0010690589
7.5873286e-05 0.00075685693 0.00065045804
0.00011630619 0.00023835312 0.00045102317
-2.1920261e-05 0.00027446199 0.00038761765
-9.7539429e-05 0.00037340238 0.00045938895
5.3750206e-05 0.00061187975 0.00028826174
1.1071007e-05 0.00060357834 0.0001861601
0.00020494453 0.00051093206 -0.00013549559
0.00044755981 0.00067155523 -0.00044295358
7.7889934e-05 0.00068600127 -0.00071417826
8.0679558e-05 -0.0014897389 9.4804564e-05
4.1624421e-06 -0.0004606047 -0.00026740757
-0.0002036269 -0.0004577442 0.00010983075
-0.00016424523 -0.00036100048 7.9387151e-05
3.8070696e-06 3.5645087e-05 0.0002686368
9.4114912e-05 5.3245494e-05 0.00049637922
0.00011513126 0.00014439831 0.00046775865
-5.647029e-06 0.00043670303 0.00039963188
-0.00030195824 0.00086030416 0.00064572442
0.0001142246 0.0010620978 0.00088756316
-0.0002863438 0.00069370563 0.00071626628
-6.151422e-05 0.00056543777 0.00065241614
-1.3302569e-05 9.0519643e-05 0.00071718637
0.00012108939 0.00050521962 0.00060123648
0.00017773439 0.00050066737 0.00036948713
-6.9785317e-05 0.00075466052 0.00020629357
0.00016012648 0.00060961355 3.3185293e-05
0.0004216971 0.00061041396 -0.00030169744
0.00052433403 0.00056667154 -0.00058853789
6.2885779e-06 -0.0010303686 0.00044924888
0.0001989205 -0.00045554797 -0.00019984873
4.1863968e-05 -0.00010048255 0.00028580715
0.00019892307 -0.00033783424 0.00041891212
1.8517067e-05 0.00013533975 0.00058414572
-0.00025447601 0.00024975807 0.00058209436
-0.00023256073 0.00056376617 0.0009269063
-0.00013967873 0.00087839144 0.00056843297
8.7740307e-05 0.0010157631 0.00054849673
-0.00010497195 0.0014818074 0.0012963179
0.0001984254 0.00068755285 0.00076020445
-4.6308884e-05 0.00079148071 0.00094410742
5.237426e-05 3.4123266e-05 0.00083987304
-3.4674587e-05 0.00058352068 0.00057210063
0.00022083308 0.00060301588 0.00016954551
0.00074243458 0.00053352868 8.2744868e-05
0.00091408088 0.0003835083 -0.00011063947
0.00076347776 0.00045815986 -0.00037947349
-0.00010585322 -0.00074539648 0.00035768322
-0.00023531556 -0.00015253731 0.0002026358
-0.00010111675 -7.633162e-05 0.00018369658
-0.00011938661 0.00026272002 0.00089795038
1.3064016e-05 0.00029394182 0.0007069541
6.8324036e-05 0.00013232637 0.00050929538
8.3278705e-05 0.00024658072 0.00042999201
6.7770437e-05 0.00065478723 0.00033835429
6.331913e-05 0.0011152382 0.00075605186
1.5087559e-05 0.001026463 0.00086686894
-1.5010751e-05 0.0008681016 0.0011254915
0.00024652996 0.0005154786 0.00070584728
-1.8061695e-05 0.00036125118 0.00074202847
0.000195791 0.00067815371 0.00060974294
0.00012614124 0.00070111174 0.00030494572
0.0009002068 0.0004443748 6.3256375e-05
0.0010162132 0.00041540019 -5.8022117e-05
-0.00012164397 -0.00031774549 0.00060313899
9.1573886e-05 3.387895e-05 0.00067945878
0.00021621412 -0.00011963842 0.00026344127
2.7012111e-06 3.0513933e-05 0.00052644644
-0.00027201921 0.0006217857 0.00074356049
-4.95403e-05 0.00013285092 0.00047292464
-6.6792836e-06 0.00070452719 0.00062179816
0.00016514608 0.00070751755 0.00063008058
0.00010787076 0.0010150678 0.0010424042
-0.00011797774 0.0013195199 0.00094697147
-3.6509216e-05 0.0009322277 0.0010099787
-6.7650886e-05 0.00079816923 0.00081946899
0.0002031333 0.00080141291 0.00069837773
0.00045587879 0.00074015872 0.00080683979
0.00059550814 0.00071529567 0.00038748895
0.0011054829 0.00052350765 0.0001525858
0.0010026945 0.0005420213 2.5090156e-05
0.00026974588 -0.00030253702 0.0006149598
-3.0533673e-05 0.00010319983 0.00061782502
-0.00018583814 0.00014807531 0.00067968393
0.00014140438 0.00018022972 0.0004846683
0.00018162663 0.0003230838 0.00054630532
0.00013908758 1.0926388e-05 0.00056160137
-1.5944172e-05 0.00069870288 0.00079216011
-0.00015405439 0.0012252504 0.00087745854
0.00014518405 0.0011974175 0.0010658592
7.0393886e-05 0.0013783475 0.0011566967
0.00034803178 0.00091017911 0.0011322383
0.00014215925 0.00092883955 0.00083099987
0.00035880873 0.00070544577 0.00066665595
0.00046605806 0.00075361412 0.00075023808
0.00099802972 0.00069812284 0.00060289848
0.001049466 0.00058249221 0.0003149992
-0.00010883335 0.00034973022 0.00090684788
0.00012176382 9.16059e-05 0.00052816217
0.00018785293 6.8077829e-06 0.00049150258
4.9033151e-05 0.00035717036 0.00067154737
-2.5180094e-05 0.00040853504 0.00094676676
7.2530085e-05 0.00010511739 0.00060475647
0.00014056526 0.0007163444 0.00086610264
4.3803062e-05 0.00094661774 0.000644913
9.1911621e-05 0.0011405187 0.00092545099
0.00015774484 0.001208687 0.0010068787
0.00047680407 0.00092724734 0.00094054389
0.00011622012 0.00079142442 0.00063718227
0.00036495054 0.00069265382 0.00069982192
0.00061345461 0.00075092795 0.00075907994
0.00071448111 0.00082536787 0.00069828803
0.00096289662 0.00082556921 0.00058761018
3.6895734e-05 0.00034236116 0.00084276352
-0.00017992088 0.00032355016 0.00072083418
5.1812607e-05 0.00011088826 0.00076679245
0.00020984588 -0.00012590343 0.00037980924
0.00013906507 0.00024721381 0.00068308419
-8.4963249e-05 0.0002560055 0.00053617609
-0.00016745103 0.00090175623 0.00084624882
-3.8233266e-06 0.0012330149 0.00064849952
0.00010007054 0.0013303214 0.0012251401
3.8517759e-05 0.001365339 0.0011830379
-0.00010555417 0.001049571 0.0010137641
0.00083559169 0.00062735291 0.00077928801
0.00043536408 0.00068036397 0.00072539045
0.00029577699 0.00086317823 0.00080059504
0.00081422075 0.0009411361 0.00073247915
-1.0186913e-05 0.00040794289 0.0009784851
0.00012780153 0.0004180081 0.00088656449
-1.153076e-06 6.0058264e-05 0.000681951
-0.00016821567 8.8523142e-05 0.00086506765
-0.0001114888 0.0003799191 0.00081105717
0.00010824126 0.0007164455 0.00056265009
0.00045214136 0.00096873718 0.00048874837
0.00011819221 0.00066685426 0.00066923437
0.00031410024 0.0011473732 0.00093280378
0.00068261358 0.0011693984 0.0010744091
0.00040141167 0.0011110337 0.0009426201
0.00068460061 0.00070937106 0.00093887857
0.00089383952 0.00078043924 0.00078011188
0.0006874103 0.0010419078 0.00076555659
0.00074952678 0.0010953364 0.00097719592
8.2219434e-05 0.00046823584 0.00086349068
-0.00010399536 0.00041714247 0.00072565075
6.2398074e-05 -7.253878e-05 0.00074798486
0.00021513508 8.4338062e-05 0.00053043646
0.00015870445 0.00026610063 0.00066393887
-0.00016015094 0.00070494117 0.00029107757
0.00010623856 0.00036669199 0.00050431612
0.00019689949 0.00050230819 0.00028569906
-0.000126983 0.00097637158 0.00034142964
0.00025334224 0.0011684231 0.00099970878
0.00070213364 0.0011491283 0.00095734512
0.00085503189 0.0012034456 0.0010444243
0.00059896411 0.00076506374 0.0010691569
0.00092637737 0.001128585 0.00099254609
0.00061251613 0.0011667416 0.00098377257
-8.8734618e-05 0.00068615284 0.00084582996
0.00020632932 0.00022804043 0.00064955698
-7.1826915e-05 -0.00011125114 0.00039165307
-0.00012989325 0.00017041143 0.00064537156
-7.4330506e-05 6.7630841e-05 0.00075240858
0.00015156528 0.00033805624 0.0005348096
0.00029553214 0.00040149511 0.00057708105
1.2984137e-05 0.00052446133 0.00035490099
0.00032050937 0.00087250868 0.00068512687
0.00011505721 0.00098824815 0.00082812743
0.00088431936 0.0012235335 0.00095794513
0.00048776518 0.0008863415 0.0011310248
0.00017091699 0.0010955707 0.0010166508
0.00078756968 0.0011899456 0.0010586093
0.00016328896 0.00042798987 0.00077607686
-0.00014888831 0.00029710581 0.00071613997
6.1384504e-05 -6.1498889e-05 0.00063971797
0.0002619219 6.4319087e-05 0.00049911678
-4.5773908e-05 3.4624863e-05 0.00072218606
-0.00014189006 0.00043199596 0.00084931822
-3.8719914e-05 0.00074729923 0.00090166135
0.00016030663 0.00076001091 0.00049495936
0.0006863536 0.00054666423 0.00059497601
0.00035475273 0.00089175958 0.00065016322
0.00077908114 0.0012763339 0.0010903088
0.00046813992 0.00098493078 0.001114605
0.00088932802 0.0011358385 0.0011449786
0.00065494725 0.0010817418 0.00098205998
0.00016088289 0.00069099088 0.00043702548
0.00012588673 0.00020551409 0.00048669952
-0.00012692163 -1.8525097e-05 0.00052143645
-7.6995973e-05 0.00022319642 0.0009831764
9.4408773e-05 -0.00010532127 0.0010102587
0.00020726596 0.00022131031 0.00067659363
0.00011594337 0.00066825689 0.0007595052
-0.00015727404 0.00085738313 0.00026965671
-0.00028968934 0.00044168183 0.0001735721
-7.6012935e-07 0.00056505541 0.00061335857
0.00083927572 0.0012420329 0.00097473129
0.00091839075 0.00073505443 0.0010396383
0.00055865827 0.00068661128 0.00082807872
0.00078918849 0.00083004701 0.00082782138
0.00056674297 0.00076795847 0.00093454198
0.00027520495 0.0004637423 0.00053454895
-8.9343404e-05 0.00014043253 0.00020991461
4.4042114e-05 0.00013891977 0.00070119818
-7.7960412e-06 -8.828315e-06 0.00090653723
-8.0686565e-05 0.00073090947 0.00067055522
6.1009749e-05 0.00017249418 0.00080076657
0.00014536713 0.00062368909 0.00042692863
0.00018212966 0.00042351772 0.00063602685
0.00060193095 0.00064587721 0.00071173895
0.00091479305 0.0010399977 0.0011728737
0.00053555192 0.00080406538 0.00097061566
0.00083278998 0.00045384851 0.00088950223
0.00015349289 0.00079724804 0.00079895818
0.00045358134 0.00070905301 0.00087780977
0.00017896718 0.00042620004 0.00036529687
0.00030889717 0.00043001169 0.00068497489
-9.5711701e-05 1.2672534e-05 0.00074425153
5.9229392e-06 0.00071890117 0.00094660581
2.5098745e-05 0.00028805269 0.00058463705
-7.0978902e-05 0.00047342194 0.00043154371
-0.00031234455 0.00042518569 0.0006407646
0.00089225668 0.001160553 0.0011164098
0.00062636496 0.0010797738 0.0012219233
0.00012961063 0.00059246324 0.00088015705
0.00062789349 0.00045757613 0.00070062571
0.00065958215 0.00077715697 0.00084441475
0.00026776452 0.00046929333 0.00091316551
0.00061502669 0.00076994166 0.00068255299
-8.7468885e-05 0.00013184582 0.00057399936
-0.00024369343 0.00041005923 0.00080977852
-0.00039519672 0.00021155566 0.00042295686
-3.2948919e-05 0.00053344283 0.00048948423
0.00040484191 0.00039542429 0.00062487694
0.00065447303 0.0012141676 0.0011327512
2.4078352e-05 0.0010696214 0.0011467494
0.00012186918 0.000833845 0.0011575004
0.00068824197 0.00030080887 0.0011283618
7.4451265e-05 0.00083818834 0.00083510723
0 0 0 1 0 0 0 1 0 0 0 1 0 0 0 0 0 764 1 0 0
