ply
format ascii 1.0
comment PCL generated
element vertex 764
property float x
property float y
property float z
element camera 1
property float view_px
property float view_py
property float view_pz
property float x_axisx
property float x_axisy
property float x_axisz
property float y_axisx
property float y_axisy
property float y_axisz
property float z_axisx
property float z_axisy
property float z_axisz
property float focal
property float scalex
property float scaley
property float centerx
property float centery
property int viewportx
property int viewporty
property float k1
property float k2
end_header
-0.0015205228 -0.016378744 0.00073811319
-0.0028740696 -0.013748288 0.0010317471
-0.0046450188 -0.057917487 -0.07843899
-0.0016228806 -0.023384083 -0.013241354
-0.00021268557 -0.003492299 -0.003365648
-0.0028891002 -0.035238508 -0.025981149
-0.0009972835 -0.012340603 -0.016923951
-3.6285655e-05 -0.0004034072 -0.00030608318
-0.0027425326 -0.044599723 -0.027757226
-0.0026702578 -0.053776123 -0.020582974
-0.00042899346 -0.0039361701 0.0014204922
-0.0035574171 -0.048505221 -0.046561401
-0.00071283267 -0.0089663379 -0.011862353
0.00057792175 0.0009022716 0.037037469
-0.0013376548 0.00047758553 0.0131802
-0.0019069922 0.00032849843 0.0097341118
-0.0015997576 0.0028552916 0.0059582824
-0.00099568302 -0.044954941 0.0020644984
-7.2191266e-05 -0.0021152352 0.00030860072
-0.00064089039 -0.0083355419 0.0012407684
-0.0003464061 0.002037422 0.0012239134
-0.001002736 -0.015636504 0.0023487408
-0.00020072429 -0.004175026 0.00041844425
-0.0013759567 -0.024415949 0.004432464
7.5485659e-06 0.006862557 0.0010449233
-0.0024601487 -0.033605531 0.0022183557
-0.00037127471 -0.001267927 -0.001963465
-0.0016578661 -0.037077181 -0.030402398
-0.00097136968 0.00041909685 -0.015953979
-0.001495283 0.0016464115 -0.020466156
0.00043448343 0.0010206579 0.014945946
-0.00058964628 0.0032389325 -0.014164247
3.9003971e-05 -0.00022689071 0.0029983497
-5.6235964e-05 -0.027543714 -0.020319479
-0.00040789408 0.02728397 -0.0021383336
-4.4741282e-05 0.020174185 -5.2663854e-05
0.00042285683 -0.0037320852 0.0014469753
-0.0004497114 -0.0048692175 0.0011436755
-0.0022727828 -0.0407864 0.0048145624
0.00070820842 0.034104973 -0.00034761379
7.432382e-05 0.0065658153 3.6720114e-05
0.0003404188 0.013164812 0.001201539
-0.00025982663 0.0027265747 0.00064492767
0.0011832198 -0.0017736749 -0.00060158467
-9.3638875e-05 0.0015787492 0.001902006
0.00013129262 0.00038227084 0.0040678037
-5.9998561e-06 0.00058886735 0.00054956035
-0.00045234401 0.0025337897 0.0045558689
-0.00068115524 0.00061015371 -0.010949397
-0.00040913222 0.0010643988 -0.012264017
-0.0010397844 0.00013955017 -0.025558162
-4.4525867e-05 0.00082519714 -1.9364787e-05
0.00050001347 0.034009844 0.00020876383
-6.554721e-05 -0.0011347567 0.0023796721
0.0021101073 -0.00207162 -0.0016536674
-0.0016856847 -0.024209764 0.0019978129
0.00088850054 0.0094458312 -7.1001072e-05
0.00076685468 -0.00014866126 -0.0001003553
0.00049364573 -0.00098937773 -0.00058559194
0.00037130428 -0.00032845821 0.00058178284
0.00056875875 0.002909865 0.043324448
0.00028839911 -0.00034834276 0.0077348948
0.00060442177 7.0646005e-05 0.00056274014
0.0014466079 -0.00091410824 -0.00086411071
-0.0024868001 0.0014838006 -0.033612069
-0.0005181614 0.0013319523 -0.0069845226
-0.00039921072 0.00043709026 -0.015708275
-0.0012891017 0.00041034599 -0.040690158
4.6916924e-05 -0.00055635808 -4.9508099e-06
7.502349e-05 0.0049731224 0.00042479267
-1.7478824e-05 0.0028319517 7.6670796e-05
-1.4134708e-05 0.0019032115 7.6408665e-05
9.3402668e-06 0.0018297718 0.0006289102
1.3354886e-05 -7.3351293e-06 -1.2003685e-05
0.00080569793 -2.8353839e-05 5.8626927e-05
0.0039823204 -0.0054897852 -0.0054336926
0.00069686474 -0.00063474488 -0.00075757201
0.00032051696 0.00059970707 0.044923183
0.00041620623 0.00050686038 -0.0034911025
-8.3880113e-05 0.0014671815 -0.0016936922
-0.00082434405 0.0014897344 -0.013643178
-0.00031464201 0.00098256674 0.0054727062
0.00016803523 0.00066335656 0.01937885
-0.0012960408 0.0016165297 -0.028083347
-0.0003995492 0.000150398 -0.0068666828
0.00045839066 -0.0051320642 -1.4398266e-06
0.0005583092 0.011038003 0.00070480397
-0.0006095898 0.02057156 0.00062651694
8.6990607e-05 -0.0021666773 0.0010711044
-5.9282032e-05 -3.207492e-05 0.0046296841
5.6613095e-05 -0.00031538503 -0.00024756134
0.0034548605 -0.0038464461 -0.004859339
7.939733e-05 -0.00023602787 -0.0002846889
0.0005436088 -0.00044376074 -0.00017857217
0.0010887634 0.0015311923 0.037351195
-5.3137373e-05 8.1177488e-05 0.0047855303
8.6626009e-05 0.0012419184 -0.0037256859
7.6653756e-05 0.00097699545 0.0094562033
0.00052716234 -0.00018731998 0.037497569
0.0001013026 0.00027287868 0.010696393
3.0522202e-05 0.0010568389 0.052300517
-0.00016787318 5.0400864e-05 -0.0027334972
-0.00043159086 -0.0052037933 -0.0018450937
0.00024267434 0.0096267732 -0.00066373369
0.0002916005 0.0015647833 0.0012977173
2.4014353e-05 -0.00028459236 0.00010785268
0.00056630088 -0.0032696775 -0.0038745152
0.00017171954 -0.0012806444 -0.00067966967
-0.00022028309 0.0011436433 -0.0046981513
-0.00076980173 0.0016163348 -0.0067250682
4.7247931e-06 -0.00042187935 0.018406402
-0.0001558385 7.0555769e-05 0.01157664
0.00011572521 -0.00021793261 0.010442871
0.00017815651 0.0022722313 -0.005549775
0.00011979419 0.001013505 0.005770898
4.8407168e-05 -0.00059267337 0.033949707
-4.7573831e-06 0.0013934693 0.021311197
0.0011602854 0.0012354858 0.00090886041
-0.00015011952 0.00065163738 -0.005971896
0.00082682417 -0.048468336 0.0012510745
0.00012921871 -0.01141824 0.00063269667
0.00059767161 -0.011664058 0.00088944717
7.967258e-05 0.009663377 0.00042336152
0.00099784497 -0.0031662043 -0.0036325278
-4.0779935e-07 9.1661377e-06 5.548184e-05
0.00019652309 -0.00066433812 0.054885559
0.00075418572 0.001016603 0.020364717
-1.6386468e-05 -0.00056454504 0.036300566
0.00053522177 0.00049034355 0.10129035
0.00017970681 0.0002120935 0.00013147904
0.00021891909 0.00050456583 0.0048307423
7.150288e-05 -0.00079787523 0.028434539
0.00082720292 0.00069841743 0.017525665
-0.00014054235 -0.00027216485 0.033766422
-0.00029620519 -0.00011691155 0.037020937
-0.0011336886 -0.0024171625 0.0070564956
-0.00029089185 0.00076633412 0.00083617866
0.00023628655 -0.015735544 0.00064319494
0.00027195347 0.012201631 0.0014814727
0.00024514817 0.014349559 -7.6216071e-05
1.1468097e-05 0.011481826 0.00020785777
0.00044922318 0.019523555 0.016434483
0.00023182039 0.00060745218 0.064276911
-0.00010587784 9.2814662e-05 0.0006970907
3.3577966e-05 5.1368541e-05 0.0040792357
0.0001520081 0.00077511946 0.04322657
0.00033214525 0.00064853969 0.0022712231
-0.00012058785 -0.00014089751 0.0094702477
-0.00090014515 -0.0011373613 0.02745162
-0.00067724445 -0.00095695851 0.036495369
0.0016513237 0.00070095353 0.016469594
-0.00049440598 -0.00018377361 0.034027539
-0.00039979751 0.00059027778 0.035745226
-0.00017465457 0.00038053302 -0.011597299
-0.00015218683 -0.00012968112 -0.00033895043
-9.9057645e-05 -0.00041004934 -6.4608808e-05
0.00048662483 0.0063123708 0.0012119268
6.4928528e-05 0.0083328448 -0.00011255929
0.0005652376 0.077830434 0.00067990297
0.00010042957 0.010965189 0.011737149
-0.00013395377 0.00029491616 0.0056908694
0.00076406269 0.00066710642 -0.0041372334
5.9069767e-05 -2.0394576e-05 0.035332236
0.00022312708 0.00093168247 0.021346593
0.00030773741 0.00080265297 -0.014562324
0.00070170918 0.00055799866 0.013971879
-0.00048936659 -0.00074301276 0.036490068
-0.00065225654 -0.00029789587 0.037069596
0.00054032379 0.0011537772 0.049854781
-0.00064623723 -0.00025171885 0.010305291
0.00048818989 0.00016698646 0.043076154
-0.00011298546 -6.9608373e-05 0.0057460289
-7.1071365e-05 0.00050229375 0.0042067333
7.9525118e-05 0.00027524351 7.2457107e-05
-4.6372537e-05 -0.0026596552 0.00043586624
0.00013795946 -0.0009173507 -0.00024007689
1.9537658e-05 0.036402669 -0.00070388714
0.00050854246 0.00031016232 0.00059922849
0.00010837911 0.012409306 0.013141573
0.00065325852 0.0020131776 0.0015406298
-6.2182895e-05 -8.0093187e-06 0.045045462
-3.7651251e-05 0.00012447601 0.020832231
0.00083163654 0.0013618476 0.042229038
-3.6621597e-05 -1.9903364e-05 0.0018342345
0.0003569189 0.00024640301 0.0011365747
-0.0006505404 -0.00069546612 0.043680646
0.00016749889 0.00014578586 0.014532308
-0.0013246295 0.00039734607 0.053177394
0.00036643996 0.00090785418 0.034451775
-9.5983796e-06 -6.4737407e-08 0.00073674985
0.00019869811 -9.4983807e-05 0.014543137
0.00075411372 0.001062502 0.0073379469
-0.0010776941 -0.0010467976 -0.00060285104
-7.5267468e-05 -0.00032141441 -0.0026166469
4.7489917e-05 -0.00011136224 -6.2770247e-05
-8.2029459e-05 -0.0014435354 -0.00048516126
0.0002672328 -0.001463491 0.00036402841
0.00016986561 -0.0003479931 0.00080388656
-0.00031064174 -0.00043701456 -0.00041120834
0.0011251564 0.002555686 -0.032406323
0.0026306265 -0.043069758 -0.04024278
0.00071501994 0.00042556832 0.00054041337
0.00098061992 0.00088072784 0.017754585
0.0020403345 0.0016715481 0.018307637
2.9853705e-05 -0.00061008963 -0.0013965946
-6.548634e-05 -0.00013418488 0.040383544
0.0016252898 0.0012696983 0.030728437
2.2800434e-06 -3.0464093e-05 0.0016148901
0.00080767157 0.00057554292 0.0075512188
0.00022290446 0.00023292234 0.014066913
-6.0053128e-05 1.8509767e-05 0.0042837542
-0.00058048661 -0.00044788598 0.039888844
0.00011168834 0.0001157084 0.00044010195
-5.0969411e-06 1.3342905e-06 -1.4324342e-05
-0.00080494804 -0.0019908303 -0.00025488518
0.00017007794 -0.0012150288 -0.00010506726
7.9495192e-05 -0.00055465137 0.00027127465
0.00063991133 0.0011325075 0.0010983226
-3.6837973e-05 -7.2982521e-06 5.2598374e-05
0.0031851283 0.0030915102 -0.061765537
0.0022266628 0.0018972668 -0.035143219
0.00067188853 -0.012697738 0.0010246743
0.00024105045 0.00039349191 5.3095268e-05
0.00078823708 0.00088652916 0.00023274423
0.00024357547 2.9961475e-05 -0.00015918269
-0.00054790505 -0.00042221951 0.057332736
-0.00011292694 0.000760597 0.045135047
0.00052640506 0.00072796119 0.03152094
0.0001000168 5.9719961e-05 0.0075690132
0.00030281564 0.00039063621 0.008575256
0.00044901768 -0.00010991233 -0.00076004141
0.00011983766 -0.00064062106 -0.0018388041
0.00067195593 -8.9499801e-05 0.00024855565
5.3003765e-05 0.0015447604 0.00038373176
0.00020626352 0.00038991278 -4.7581583e-05
0.00015956872 0.0005752265 0.00012238297
0.00049026823 0.0014292214 0.0010247643
0.00012534283 0.00013162388 0.00029728375
0.00013072589 1.2635318e-05 0.00019540126
0.0024326097 0.0028783644 0.0047913925
-0.035264309 0.0021735909 0.0027292685
-0.013811849 0.00071337528 0.00095329189
0.0060094739 0.0059257825 0.0070068412
0.001249968 -0.02548939 0.0024553223
-0.00039790233 -0.00016322901 -0.0014002242
0.00032271715 0.00031231562 0.00010951605
-0.00015853744 0.00028995148 -0.0017730074
0.00032067017 0.00058477989 0.00096803845
0.00037640196 0.00056179246 0.0026820574
0.00061657227 0.00076862879 -0.013662701
0.00024758992 -0.00058187573 -0.00052112545
0.00020973092 -0.0011660719 -0.0021600635
0.0005124599 -0.00061413029 0.00027458445
-2.4207127e-05 0.00011530095 7.3519732e-05
-1.7011473e-05 -0.00018180601 -0.00037327423
0.00038123157 -0.0010662735 0.00012008873
0.00052842306 0.00067415403 0.00076733221
0.00033673702 0.00035596421 0.00086639624
-0.0007107252 -0.00028747509 -0.00025558841
0.0026325397 0.0018572768 0.0032552239
0.000489083 -0.00048494979 -0.00046658085
0.0013777976 0.00067131425 0.0019364381
-0.0007197191 -0.00015895882 -0.00011421844
0.0022311145 0.0019532305 0.0022426548
0.0016597459 -0.018160641 0.0019377664
-0.00065120799 0.00050504075 -0.0010715838
0.00037543851 0.00028289965 0.00036954906
0.00045741658 0.00072888966 0.0013731994
0.00074214151 0.00066422881 0.0022676361
0.00059882621 0.00083666964 0.0005162037
0.00099294505 -0.0016780701 -0.0013028643
9.2374641e-05 -0.00099056878 -0.00035370942
0.00029296335 -0.0011189112 -0.0006271876
-0.00023648364 -0.0010489101 0.00064921315
0.0042054513 0.00082572672 6.2482475e-05
0.0003052417 0.00049361936 0.00039358402
0.0006516549 0.0014210037 0.00084478979
0.00047244213 0.00063050201 0.00085484912
-7.2166462e-05 -0.00013139902 -0.00012813143
-0.00027803431 -6.7635629e-05 8.3554027e-05
-0.00015606254 2.0274518e-05 0.00017342628
0.0012968144 0.0014532735 0.003083213
0.0026827313 0.0011649673 0.0028759488
0.0024670546 0.0016069285 0.0033864432
0.0017832555 0.0011336691 0.0012313538
0.00023521604 0.000312944 0.00039836796
-0.00028803432 -0.00042159346 -0.00065145263
0.00012023589 -8.2587285e-05 -0.0016974231
-6.0560856e-06 0.00010014551 0.00020261249
-1.3824649e-06 1.3282427e-08 -1.9937763e-06
0.00052963989 -0.0002545751 -0.00097449805
0.00017737415 -0.00046224371 -0.00066699879
-0.00012928867 -2.4193184e-06 -0.00062585261
0.0002831195 -0.00085560948 0.00058882742
0.00020491477 -0.00042432887 0.00068118353
0.020523094 0.0025182592 -0.0040913709
0.001349775 6.2202387e-05 -2.036884e-05
7.7591307e-05 3.987956e-05 0.00011520058
-0.00065813708 -0.0018597667 -0.0015067633
-0.0010776297 -0.0017480584 -0.0019438157
0.0017962258 -0.028811149 -0.038086869
1.6402259e-05 1.4516449e-05 2.1173599e-05
4.7664369e-07 2.6357216e-07 -3.8567791e-06
0.0027527614 0.0018384801 0.0033723277
0.0018318453 0.0017963555 0.0023789548
0.0011040991 0.00065413071 0.0007363726
0.0038724414 0.003209996 -0.063111208
0.001796727 0.0020847872 0.00092433259
0.00043916222 0.0064579481 0.0005659181
0.00056090567 0.00060893531 0.0012894864
0.00084760069 -5.4541128e-05 -0.0019472487
0.0001959801 0.00043810325 -0.00042272036
9.1260968e-05 -0.00084631582 -0.0011631384
0.00017600688 0.00040182812 -0.00081116945
7.2265313e-05 -0.001073249 0.00044971361
0.000436926 -0.00031217752 0.00078886887
-0.0022927518 0.00073220214 0.0012435237
6.4399946e-06 -5.4783526e-05 2.5374918e-06
-1.9534335e-05 -4.8102283e-05 -4.632437e-05
-0.00013380576 -0.00022023781 -0.00014467798
-8.1181955e-05 -3.356687e-05 -0.00023213535
-0.00049501442 -6.9473455e-05 -0.00015576053
9.238434e-05 7.5325202e-05 0.00010809109
0.00051928713 -0.011183184 0.0026311935
0.0044942647 0.0050144074 0.0071188756
0.0044280761 0.0034215283 0.0049481411
0.0012321965 0.0012951413 0.0010381792
0.0014067383 0.00086537242 0.00085652509
0.00012693027 0.0001838725 -0.00030236103
0.00038581138 0.00098391075 6.9199392e-05
0.00019200968 0.00039258346 0.00010898323
0.00011321748 0.00034777264 -0.00086047291
0.00016756095 -0.00065267069 -0.0019292296
0.00027938795 0.00010989598 -0.00086684676
0.0018678996 -0.0012726954 -6.949011e-05
-0.0091807991 0.0003063484 0.0027265982
-0.016056864 0.0034265271 -0.003523631
0.00084291602 0.000139319 0.00034951646
0.00020752948 -0.00040285595 -0.00055935385
0.0004869049 -0.0013346717 -0.00054334331
1.934994e-05 -0.00012499237 8.9291243e-06
0.00064657297 -0.00099942822 -0.0024845477
3.3392429e-05 4.526999e-05 0.000313141
0.00062474213 0.0027317521 0.0072462042
-0.00012409952 0.0044026156 0.0068668663
0.0029737735 0.0075558955 0.011824824
0.00055555161 0.0028703453 0.0039783409
1.7907743e-05 0.00014357982 -0.0001213553
-0.00015167017 0.00031588695 -0.00138623
5.2857231e-05 -7.0732058e-05 -0.00042011376
0.00043271555 0.00063878199 0.00055132632
0.00068755395 0.00099595438 -0.0015449859
-0.00050961826 0.00010426998 0.00019326535
-0.0028892751 -0.0024808461 -0.0010441598
0.0032291133 -0.00081771187 -0.000446105
-0.00026296469 -0.00039961905 0.00012471479
-0.00014367397 0.0004935654 -0.00055518135
-0.00062097533 0.00010073031 0.00016088615
-1.5684053e-06 -8.3928317e-05 -9.7413387e-05
-3.8791884e-05 -0.00025069277 -0.00017479653
0.0003613173 -0.0002884219 0.029830225
-0.0073005161 -0.0010020734 -0.0017368078
-1.7003387e-05 0.00017076811 0.00054752978
-0.0023061372 0.0028209854 0.0057946183
-0.0059117372 0.0046001431 0.0061046663
-0.0027100712 -0.025632141 0.0027677678
0.0004716659 -0.00075421762 -0.00047025239
0.00073728844 -0.00084598095 -0.00066169235
0.00015821688 0.00057171314 -0.00073409261
-3.5482735e-06 -1.7162388e-06 -1.9171666e-05
-5.762955e-05 2.1537307e-05 -2.7535573e-06
0.00011714426 1.0581687e-05 -4.2641132e-05
-0.0084507596 -0.0017043976 -0.0010308827
-0.0034543341 4.7408765e-05 -0.0011178954
-0.0055165333 0.0006461126 0.0012033746
-0.0044149612 -0.0030774551 0.0018430293
0.0021816012 0.0030983484 -0.0034593272
-0.0020491581 0.00086417224 0.0017836972
0.0012043663 0.00087980332 0.00096102554
-0.0050690798 -0.0029146278 -0.0015881526
-8.2308739e-05 0.0013532345 -0.012441795
-0.00017400188 -0.015437679 0.0027210331
6.8878318e-05 2.4175865e-06 0.00035662609
-4.2914227e-05 6.385165e-05 7.8269433e-05
4.4550638e-06 1.0357267e-05 9.1533548e-06
-0.00018972646 -5.6830413e-06 4.2272273e-05
0.0035362146 -0.0020413995 -0.0044696876
3.0388479e-05 -0.0002380536 0.00096052774
-0.00014366517 -0.020832159 0.0021400407
0.00033871297 -0.0017063898 -0.0035288825
-0.002296115 0.00080589246 0.00033471535
0.00026221346 0.00051334215 -0.0012340898
0.0020079503 -0.00072673295 0.018324804
0.001930158 -0.0015538089 0.027460916
-0.00010665513 -0.00090481911 0.037198555
-0.0025341022 -0.0031251721 2.7929286e-06
-2.1730386e-05 0.00018104783 -0.00018838856
-0.00019634834 5.2208794e-05 0.00013769721
-0.00056207989 0.00012467732 0.00014002966
-6.2625106e-05 -9.7268326e-05 -5.6256533e-05
-1.0246937e-05 -1.0284481e-06 3.7487587e-06
3.7465852e-05 0.00013953993 9.5402378e-05
3.568934e-05 3.611865e-05 -3.314688e-05
6.4426822e-05 0.0092197396 0.00019378509
-2.0820539e-06 -4.8577265e-05 -0.00038285364
0.00027902104 -0.0030855297 -0.0045381868
-0.010847112 -0.0014393739 -0.0022714227
-0.00039338454 0.00053576624 0.0016106442
0.00011577225 -0.00043118221 -0.0011825975
2.8620068e-05 0.00018602978 -6.4892614e-05
-0.0029507193 0.001449367 0.0016600527
-0.00063418702 0.00040503248 0.015859278
0.00201023 -0.00019079844 0.014621686
0.0013239401 -0.00079987897 0.017440701
0.00086260971 -0.00071243104 0.030426828
-0.0045261486 -0.0031346022 -0.016968973
0.00019613735 0.0050773579 -0.0024201232
-0.0044013145 0.0025085574 0.0042660856
-0.0081295688 0.0023234361 0.0024265798
0.0070762485 -0.001973778 -0.00038494178
-0.0015571134 4.66825e-05 0.0009472181
-1.5606583e-05 0.0021309392 -0.016991664
-0.00024850873 -0.0024168494 -0.0026013837
-0.00020633526 0.00010132499 -0.00042281096
2.2104789e-05 -0.00016859428 -0.00025147066
6.1031616e-05 -0.00016742099 -0.00018357075
-0.0004653841 -7.5832737e-05 -7.5395306e-05
0.0029063313 -7.0870155e-06 -0.00025515672
0.0017155368 0.00039298789 0.019451935
-0.00078788702 0.00011244935 0.025041563
0.0035955007 0.00098438421 0.010027586
-0.00049941655 0.00024539002 0.014634127
0.0018613982 -0.00063721114 0.024846969
0.0022362971 -0.00058447098 0.017542711
0.0017236723 -6.5811415e-05 0.037069935
0.0022247781 -0.0032380722 0.0033922438
6.2928452e-06 0.00013196985 5.6920799e-05
0.00027896112 6.3733292e-05 0.00010941843
-0.00026412096 6.3997613e-05 7.0057307e-05
-0.002890344 0.00034687831 0.00061187742
-9.7800184e-05 8.345025e-06 2.9320403e-05
-1.2879971e-05 -0.00016221915 -3.9017519e-05
-0.00020972002 -0.00039738865 0.0089763105
9.5361174e-05 0.00020042101 0.00035129252
-0.00023453384 0.0033025974 0.0031006685
-0.00013422969 1.6281936e-05 -7.003537e-05
-0.00059854111 0.0004377304 0.00046890735
0.0003975381 8.2198218e-05 0.017040066
-0.003606129 -0.00067362876 0.042723536
-0.0093534188 -0.0007778338 0.065185823
0.011481387 0.00074717938 0.012559397
0.0033952738 9.1973023e-05 0.034948722
0.00087044568 0.00015391427 0.0063915486
0.0037658601 0.00052808149 0.024431845
-0.011453897 0.0013376176 0.008834091
-0.00058393006 0.00067893224 0.0015462942
0.0031631056 0.00037870751 0.0013302587
0.0011813383 9.9719604e-05 0.00016808469
0.0062873755 -0.0014299252 0.0023406299
-0.023548894 0.0041248794 0.0046298546
0.005552141 -0.0019661265 -0.00015597655
-0.00013443218 -0.00096838776 0.0005149949
-0.00021687483 -0.00041310739 0.01115718
-8.3148363e-05 -0.0012316017 -0.00065257051
0.00034234946 -0.00032202809 0.037956078
-0.0009040311 0.00088061811 -0.0073074605
0.0062736338 0.00089722004 -0.0028346544
0.0039922469 0.00097298727 0.010098208
0.0015437632 0.00080684631 0.037125703
0.0097550927 0.00074842735 -0.016020726
0.00045264413 0.001056868 -0.013464544
0.0029837186 0.0018075989 -0.0037635341
-0.00095158006 0.000208164 0.0050979229
0.0084164096 0.0017090759 -0.0072930134
0.020306487 -0.0010294863 0.021895131
-0.00016542862 0.0016312973 -7.2771851e-05
-0.00065146835 0.0015542307 0.0017610097
0.00030024463 6.5297208e-06 7.5619195e-05
2.4887856e-06 8.0436375e-06 9.694747e-06
0.00010754399 0.0018774322 8.097454e-05
6.8624329e-05 -0.00019877279 3.6221998e-05
-5.3905096e-05 0.00052086433 4.6860896e-06
-0.00025939109 0.0068543549 0.0013583602
-0.00019826835 -0.042298447 0.0013627204
-6.5166438e-05 0.0039969981 0.0042763967
0.00012946999 -0.00021954914 0.0071269125
0.0013141895 0.00028802731 0.00037106653
0.0024154605 0.00095876679 0.021504162
0.00015489393 3.6927187e-05 0.022775218
0.00065311091 0.00016749572 -0.0032588376
0.0051004505 0.0015824371 0.014229448
-0.00059551268 0.00026057381 0.019867521
-0.0039221505 -0.0016837592 0.034744725
-0.00035715502 0.0010939253 0.020277819
0.00076532946 0.0010493825 0.037397701
7.0956082e-07 4.8397178e-06 -9.1193817e-07
-0.00019097472 0.0010894168 0.0016356121
-0.0037051658 -0.0094726617 0.0014268664
0.0014221795 0.026651638 0.00010542951
-0.0026058699 0.0010781906 0.002742803
0.0014190878 -0.010008729 0.0024283407
-0.00020062122 0.010989637 0.00013939776
0.0016750627 0.031427331 0.0012546345
2.0295987e-05 0.0022798176 -7.1301965e-06
0.0024987115 0.042687818 -9.910699e-05
0.0027227537 0.0020858184 0.064636447
0.00016284711 -1.0779946e-06 0.00065900118
-0.00029896438 -0.00010921238 0.010422645
0.0027754847 -0.00021597145 0.05355018
0.0010214719 0.00087575306 -0.010810712
0.00092897657 0.00062904618 0.036781974
-0.0057864925 -0.00049401593 0.038276386
-0.0043985425 0.0012333611 0.016442718
-0.0041918983 0.00047529425 0.055568576
0.008793531 -0.002158727 0.0017747121
0.00037005104 0.0028190569 -0.0014112748
-0.0013397905 0.015322558 0.0025478511
0.0040803575 -0.01048837 0.0021724186
0.00072204979 0.0077391951 -3.8314916e-05
0.00069181953 0.0036355203 1.6392423e-05
0.00075642706 -0.016929492 0.0018241912
-0.0012028741 -0.0010906631 0.00048110541
-0.0036575622 0.0073983618 0.002257175
-0.0021423071 0.023380971 -0.00028912662
-0.00035631366 -0.00038869883 0.00027111132
0.003091627 -0.0041619986 -0.0032350637
-0.0039085876 -6.346937e-06 -0.0003715042
0.00082072854 -2.7614713e-05 0.013051473
-0.0003818477 -2.9447325e-05 0.0053272154
0.00087745656 0.0004369315 0.011759765
0.0076703746 0.0024326926 8.3089246e-05
-0.0025209305 0.0010938796 0.0320617
0.022436026 0.00077657041 0.01390121
0.0003015165 1.4645391e-05 -0.00014419093
-0.022654837 -0.0024067077 -0.046787884
-0.00039705916 -0.014639447 0.00049643719
6.150558e-06 0.00018222835 8.8982291e-05
0.00012158259 -9.7090386e-05 2.6077249e-05
-0.0029062484 0.04167657 -6.5756176e-05
-0.010149994 0.08928296 -0.0012702057
-0.0011480638 0.0103766 7.8704092e-05
0.0049690148 0.058656868 -0.001694463
0.0017793128 0.014651565 -0.00027232748
-6.6184162e-05 -0.00036572645 3.3778299e-05
0.00028467175 -0.00044723821 -0.00067869952
-0.00049296318 -0.00030603525 -0.00025825764
-0.0088848826 -0.0010954299 -0.0015960539
0.0080594001 0.00052653544 -0.0021369061
-0.0031018213 -0.00058645563 0.037785396
-0.0058986796 -7.3500487e-06 0.015146419
-0.0086090602 -0.00050386129 0.024836333
-0.003623401 -0.00032265444 0.0080740983
0.0035696677 0.00019552336 0.0058536767
0.0068843197 -0.00055587984 -0.021139072
0.00066537107 0.014456838 -0.0017344082
-1.2891231e-06 0.028269298 -0.00021546138
0.00057929108 -0.0010155545 0.00024019901
0.00043000682 0.0024637133 3.9956671e-05
0.00065819599 0.0049416074 0.00011978704
-4.5389195e-05 0.00023834233 -5.8333126e-06
-0.0073635201 0.048790157 -0.0017854833
-0.0010472819 0.039223894 0.001155286
-0.0044160681 -0.0019042162 -0.00075542886
0.0024069119 -0.00090218597 -0.00062228285
-0.0013041577 -0.00045957475 -0.00028234199
-0.0064613968 -0.0029626878 -0.0034567737
0.0023217346 0.00016136463 0.024401853
0.003359098 0.00094485638 0.017894136
-0.00051058107 0.00024674286 0.018804802
-0.0057069389 -0.0013600254 0.028126162
0.015671648 0.0012315639 -5.9054466e-05
0.036054887 0.00089875975 -0.033453699
4.1732005e-06 -0.0029160536 -0.00024330957
0.0073546697 0.0029492902 0.00071783509
0.00031231489 0.00029209349 -1.0196586e-06
-0.0024419152 0.013689117 -0.00065469631
0.00304746 0.018299347 0.0021861112
0.0035017901 0.016443714 0.0023191741
-8.6538828e-05 0.0033464397 -1.3870568e-05
0.0032713516 0.010001623 0.00078383728
-0.0074092615 -0.0014055663 -0.0012712693
-0.00031698367 -0.00017237883 -4.3530115e-05
0.00052028295 -0.00047000725 -0.00026115426
0.0034467212 -0.00056361506 -0.0011126507
-0.018615546 -0.0020614858 0.058666497
-0.010271166 -0.0010940848 0.048960615
-0.005105604 0.00045380089 0.031074639
-0.019242994 -0.0021101029 0.023205461
0.020667261 -0.00066043669 -0.019439697
-0.0031403557 0.0028029769 -0.00033351741
-0.011810496 0.023163067 -0.0015780178
0.0036976964 0.012190298 0.00091379572
0.000104233 0.0026513725 2.6341604e-05
-0.0054052523 0.019083403 -0.00063659454
0.00054833101 0.017568441 0.00029975965
-0.012070232 0.054281764 -0.0033190653
0.0020049708 0.006911485 0.0007823612
-0.01360724 -0.0016593788 -0.0028465183
-0.01085599 -0.0016995267 -0.0016599189
-0.031721104 -0.0046727578 -0.0049053505
-0.011138569 -0.0021296698 -0.0023325062
-0.0025272965 -0.00023548269 0.0070984648
-0.010492325 -0.0012917314 0.041535601
-0.021582941 -0.00096677389 0.02223099
-0.011882328 -0.0011497798 0.014673951
-0.018653104 -0.001703947 -0.0022214579
0.0091382498 -0.037355594 0.00085317047
-0.0015273835 0.042130329 -0.0013805443
-0.0037344357 0.01362574 -0.00051672361
0.011131594 -0.0028152918 0.0021319787
-0.0051064515 0.026335398 -0.00075771875
0.0065663485 -0.0077211922 0.00087707164
-0.00098829798 0.0036742338 -0.0001537393
0.00068328739 0.029726921 0.0012257635
-0.0013668253 0.029952982 -0.001145183
-0.004130003 0.059551455 -0.00050974241
-0.011186996 -0.0023837136 -0.002417631
0.0042828075 0.0012179903 -0.009260091
-0.0054362388 -0.00020951411 0.018673267
-0.0082072169 -0.001127969 0.028403096
-0.0066305129 -0.00094295217 0.023957577
-0.025613649 5.8654452e-05 -0.0023635239
0.0052309828 -0.038653839 -0.0023394916
0.0022592591 0.024666887 -0.00016641851
0.0015638659 0.0066966591 0.00082248839
-0.0004773651 0.0035741862 -1.2558373e-05
0.001147505 0.0083235977 0.00048125506
0.0018864293 0.008918169 0.0025338002
-0.0017434164 0.015687371 -0.00024136945
0.0011822897 0.0083078332 0.00059968367
0.0028180445 0.018651135 -0.00081653817
-0.00020538761 0.00045865524 4.1927131e-05
-0.00054149976 -0.00044150234 -0.00039214719
0.0034763159 -0.00015455518 0.026038438
-0.0035063273 0.00037304129 0.014316525
-0.0084748873 -0.00085680943 0.020862358
-0.011418261 -0.0012990159 0.024176456
0.010309162 -0.0019164409 -0.004867238
0.0034286291 0.024809912 -0.001852081
-0.0011334789 0.01346843 -0.00035394184
-0.0047290665 0.035144124 -0.00088011345
0.0012852016 0.00073132984 0.0011392916
0.00083173398 0.0025550115 8.6348734e-07
0.00041347969 0.0021897121 9.4911309e-05
0.00044095592 0.054719437 -0.00079228508
-0.0025462469 0.019853737 0.00033770275
0.002809468 0.050055899 -0.0017541752
0.0026665921 0.057891224 -0.00011502155
0.0040375735 0.04456662 -0.0010500933
-0.0071109049 -0.00010381915 0.029692605
0.0010171734 0.0010794511 0.011903806
-0.019134704 -0.00061751023 0.0061297254
-0.014230816 -0.0018930768 0.021650547
-0.0030043614 0.01003215 -0.00030715964
-0.006691955 0.094580889 -0.00086086098
0.00022749345 0.0030565278 -3.5116373e-05
-0.0014911208 0.00054625381 0.0010559977
0.0017117596 0.051605161 -0.0024581326
0.0013919228 0.021986837 0.00044584519
-0.0027181671 0.020191923 0.00030010988
0.0013034596 0.0046940199 0.00084645808
0.0002668075 0.001396348 -1.0664775e-05
0.0041528172 -0.00083834492 -9.0796784e-05
-0.039744262 -0.0041156989 -0.0042529842
0.024332123 0.0012881004 -0.0008365644
-0.0098389341 -0.0005371641 0.034130611
-0.0083675617 -0.0011797618 0.0093756784
0.012740574 -0.0031719324 -0.0044626063
3.8572965e-05 0.00025729224 9.416172e-07
-0.0037294195 0.015579344 0.00011432027
-0.0054979543 0.029066429 0.0013538384
0.00095958723 -5.6909772e-05 0.00033753153
0.00025773371 0.0034226086 -9.2256596e-05
-0.0023178943 0.0042553809 0.001068081
-0.00016663209 -0.00042151936 4.9067472e-05
-0.0049239267 -0.0022690827 0.0012151412
-0.020713545 -0.024981173 0.0010880888
-0.0010735441 -0.00013632867 -0.00053599896
-0.0022452751 -0.00036306484 -0.00027699023
0.015005671 -0.012974368 -0.0014200879
0.01227815 0.00071990321 0.01611539
0.024264297 0.002182777 -0.0031985608
0.0026843343 -0.00076409749 0.0052508116
0.0038785348 0.026895957 -0.0019974473
0.00067225174 0.021464583 0.00020354299
-0.00040890591 -0.0013364904 0.0018066433
-0.00062796596 0.0018834177 0.0013189489
-0.0034140395 0.021689666 -0.0027146472
-0.00014181035 0.0059228805 -9.5929936e-05
0.00050863228 0.0015780387 4.2383537e-05
0.0040417728 0.042083822 0.0017002431
0.00095191889 0.003249377 1.84903e-05
0.012635428 0.033621382 0.00054483459
0.011631109 -0.035447668 0.01415522
0.010489667 -0.011948935 -0.011830105
0.0045869742 0.0086376807 0.012207911
-0.016194059 -0.0022156702 0.037936978
0.00013600462 0.00052985369 7.8563708e-06
-0.0035219945 0.019332441 -0.00041336086
-0.0049731615 0.03439296 -0.00020777012
0.00011589815 0.0001305593 1.9837333e-05
0.00072889967 0.0030190363 -0.00022556768
-0.002213025 -0.0025371064 0.0013173507
0.008389011 0.032976653 -0.00099132338
-4.6545458e-05 1.8544508e-05 1.05841e-05
-0.00012470354 -0.0038068558 6.2937339e-05
-0.00077755406 0.0005448889 0.00040719984
0.01567927 0.034383588 0.027588636
0.013980708 0.00058778841 0.0077335918
0.010538354 0.002597179 0.0057910713
0.017231958 0.018855046 -0.004787894
0.00056530669 0.001188276 0.00059441396
0.0045987777 0.010407247 0.00044855825
-0.0020164868 0.0012448806 0.00073322846
-0.0065279044 -0.0081075346 0.00226237
0.013780992 0.023281828 -0.0038738255
0.00049117504 0.001498909 -0.0001354277
0.0048243999 0.019994104 -0.001150426
-0.00047220313 0.0027697103 0.00289565
-0.011138752 -0.060745921 0.00098469795
-0.023004865 0.0015526774 -0.0010660882
0.0030146067 -0.032363426 0.0055622151
0.014664216 -0.016533745 -0.020467948
0.0098111331 -0.0087391175 -0.0048676818
0.0099322367 -0.0010813642 -0.028170463
-0.043922201 -0.0045866882 -0.0030854596
-0.010613837 -0.00084132206 -0.00051016704
-0.014616302 -0.010640038 0.001284716
-0.0026460194 -0.0028916821 0.00029887221
-0.0021696046 0.00030034134 0.0010475357
0.00052133622 0.0061839414 -5.942534e-05
-0.00088051771 0.039127313 -0.0007953085
-0.0011806741 0.0077198115 -0.00016979329
0.0023130467 0.0076102563 -9.1079834e-05
0.026851963 -0.0064835437 -0.033081055
1.8298166e-05 -0.0009172202 8.3870276e-05
0.012626678 -0.025700955 -0.030909114
0.0015330419 0.00054998981 0.0015275762
0.0034063633 -0.0014892287 -0.0082196472
-0.013357526 0.0024879968 -0.0012248353
-0.012781724 -0.012566985 0.00048305574
-0.0007935451 -0.00036183497 7.5468481e-05
-0.014952202 -0.0016498467 0.00075163774
0.00038404559 0.00061801955 0.00077170844
0.00019790183 0.00074653531 6.495628e-06
-0.011034529 -0.018136963 0.0025941068
-0.018387841 0.017615743 -0.00012721677
-0.0060830452 -0.016649691 0.060946397
-0.0071660043 -0.00013896258 0.048177369
0.0034801352 -0.022181833 -0.02189791
-0.0043240725 -0.014439203 -0.021883732
0.0036109097 -0.0013008707 -0.00081425748
-0.0208981 -0.019675601 -0.0010284114
-0.036050037 0.027694291 -0.001521299
-0.015165007 -0.017136877 -0.0070032682
-0.016879603 -0.0074893907 0.0066714147
-0.049485136 -0.080454439 -0.056543041
-1.5477404e-05 -2.7670842e-05 -2.2094388e-05
0.019911833 0.0050552925 -0.0085056927
-0.020906426 -0.018362179 0.026738482
-0.0071182428 -0.035595354 -0.0015515451
-0.0073874765 0.0019507437 -0.010608381
-0.043100793 -0.038435783 -0.035973411
-0.018639991 0.0088092703 -0.0013601938
0 0 0 1 0 0 0 1 0 0 0 1 0 0 0 0 0 764 1 0 0
