ply
format ascii 1.0
comment PCL generated
element vertex 764
property float x
property float y
property float z
element camera 1
property float view_px
property float view_py
property float view_pz
property float x_axisx
property float x_axisy
property float x_axisz
property float y_axisx
property float y_axisy
property float y_axisz
property float z_axisx
property float z_axisy
property float z_axisz
property float focal
property float scalex
property float scaley
property float centerx
property float centery
property int viewportx
property int viewporty
property float k1
property float k2
end_header
-0.0018451046 -0.028459666 -0.006715762
-0.00015508883 0.00052076724 6.0614726e-05
-0.0021039806 -0.01501833 -0.0015783119
-0.0017437522 -0.022445057 -0.020199895
-0.0050049499 -0.043418027 0.004257238
-0.00016116412 -0.001641134 -0.00068224961
-0.0021500003 -0.010179082 0.023766289
-0.00091093953 -0.0083315661 -0.0031158202
-0.0017561641 -0.029551661 -0.017991491
-4.1335329e-06 -7.6621385e-05 -3.8783492e-05
-0.00028272124 0.00032811594 -0.0019487281
-0.0059945611 0.0044478164 -0.08419802
0.049326319 0.0015155108 -0.039410714
-0.0031149075 -0.053666625 -0.045303535
-0.0010087404 -0.010803628 -0.0025789551
-0.0017943206 -0.0070524886 -0.0069249347
-3.2416727e-05 0.0031409066 0.0039086766
-5.9412498e-05 -0.015489866 0.00043867115
-0.00036956972 -0.0030719612 0.00087018573
0.00060420594 0.0074001588 0.0014045364
-0.00018943437 -0.001355849 0.00064289948
0.00068727712 0.026221385 -0.00020699005
5.4089091e-05 0.0025389048 7.5448916e-05
-0.00013464516 -0.0014919881 -0.00032597428
0.00010915472 0.0021491244 0.00032380893
-0.0026711344 -0.033241011 0.0026842374
-0.0071024923 -0.15444928 -0.096841529
-0.0024568108 0.0056764595 -0.050600514
0.084627561 0.0026575092 -0.042499632
0.11788054 0.0029250162 -0.064129442
-0.0028765008 0.003965178 -0.047498588
-0.001483668 -0.035158392 -0.030559396
-0.001330101 -0.031654611 -0.031769533
0.00041487033 0.055939835 0.054145433
-0.00035654663 -0.006107925 -0.0011212031
9.359618e-05 0.016054869 0.00047857236
0.00059990422 0.024433531 -0.00093189959
0.00057914568 0.014141659 0.00021385476
-0.00055584632 -0.0031317845 0.0012260538
0.0021455106 -0.0015114971 -0.0023605134
-3.1165859e-05 -0.00014876849 9.9012534e-05
0.00072869199 -0.0018720515 -0.0011560539
0.00082227617 -0.00018571349 -0.00047052029
-0.00091339514 0.0029586991 -0.019023148
-6.4478561e-05 0.00050852547 -0.0031648325
0.026496852 0.0013344302 -0.0031181104
0.030201407 0.00089962105 -0.0023735082
-0.00046547584 0.0023781545 0.0025299059
-0.00052488665 -0.010181492 -0.010315794
-0.0013764773 -0.015100875 -0.016617732
0.00059861509 0.041627277 -0.0012443805
-0.0011482931 -0.0048996783 -0.003637962
0.00027095541 0.011954867 0.00067218661
0.0001028222 0.0037537699 2.8804318e-06
0.0041599041 -0.0027110027 -0.0019179188
-0.00039959734 -0.0069279554 0.00077126309
-0.00011307055 0.0019130574 0.00082315644
0.0008754665 0.00049528334 0.00033202715
0.00015310552 -0.00029679792 -0.00015506324
0.00023619665 -0.0013346963 -0.00037091839
-0.00086994044 0.0013086505 -0.011776665
-0.00075102533 0.0036957806 -0.030828433
0.0004942852 0.00053727528 0.010713615
0.033481337 0.0017887275 -0.002085252
0.02054462 0.00082866504 0.00095756713
8.5309977e-05 0.0010562335 0.011487842
7.477012e-05 0.01109612 0.00042856589
0.00056140625 0.013066176 0.00023828505
-0.00012066683 -0.0049086376 -0.0026759447
0.0001324067 -0.010964558 0.00078472309
-2.904095e-07 -4.635422e-05 1.2165612e-05
-0.00028976792 0.020391282 0.00021164159
-2.8430675e-06 2.3892049e-05 0.00023587665
0.00039801886 -0.00040122154 -0.00068823533
0.0011336267 0.00021505001 0.00043236784
0.0018423662 -0.0015080136 -0.0013015079
-0.00011282007 0.0006552384 -0.0037174001
0.0010326959 0.0038748232 -0.025123466
-6.7240901e-05 0.0014225369 -0.0096561313
-0.0027061766 0.00094113156 -0.0039796326
0.00481509 0.00090003427 0.0071790176
0.0038235111 0.00026531279 0.019733649
-0.011315711 -0.0013376535 -0.0024281084
0.00061971886 -0.0018376017 -0.00157655
0.0010565048 0.047814574 -0.0010377433
0.00067337265 -0.011246612 9.7674754e-05
0.00050210831 -0.002050583 0.00037995187
-0.00033084297 -0.0020736819 0.0014009515
-0.00011930831 0.027187534 -0.0009221888
0.00024150973 -0.0029287548 -0.0033945185
0.00062298373 -0.0018922568 -0.0020843507
0.001814871 -0.0025539899 -0.0032072146
0.00019804205 -0.00040804627 -0.00047955697
0.00028622738 0.0019897961 -0.0056976615
0.0011732677 0.0015306 0.012740563
0.00014002205 0.00088931323 -0.011786465
0.00038524167 0.0013839403 -0.007443069
-0.0012877518 0.00085513754 0.0072543295
-0.0036063686 -0.00085374038 0.060741633
0.0012921931 0.000927213 0.024420457
-0.0065647182 -0.0016981669 -0.0021921636
-0.0028047734 0.032338079 -0.00049396313
-0.00034691842 -0.015187189 -0.0014691957
0.00032872238 0.0054047951 -0.00030029859
0.000394098 -0.0046369703 0.0021624179
9.1259999e-06 0.0024943284 -9.8165496e-05
0.00046537517 -0.0035420745 -0.0043122601
0.00026095746 -0.0015727108 -0.00074892439
-0.00025231062 0.001321697 -0.0064164768
-0.00011181953 0.00045849147 0.00066308043
0.0003476672 0.0018291535 -0.019073144
-9.4535226e-06 1.8080849e-05 0.00014576735
0.00010621108 0.00073915615 -0.0072838156
0.00022502763 6.2446625e-06 0.02493328
-0.0022898114 0.001636356 -0.0017605704
0.00059322151 0.00077131018 0.017560018
-0.0033261902 -0.00049208861 0.03051262
-0.0040446394 0.00044428371 0.038858049
-0.0023842994 -0.00034813315 -0.00018422639
0.00077369763 -0.041946668 0.00097095949
0.00013423618 -0.014231691 0.0008349141
3.9426297e-05 0.0015272158 0.00017201442
-1.4262713e-05 0.026384717 -0.00033344812
0.0001363599 -0.0006991945 0.00068285863
-8.4918662e-05 0.00021583044 0.0021405551
0.00011687316 -0.00070717151 0.04942818
0.0012345404 -3.1323205e-05 0.12062725
1.0590186e-05 -0.00015257778 0.0095826304
9.1963775e-05 -4.1620682e-05 0.045754567
-0.0003897291 -0.0004288627 0.040520459
0.0005869111 0.00099164364 -0.0062045893
-0.0045536789 0.00052216288 0.00087417761
-0.00043380063 3.224393e-05 9.3232338e-05
-0.0060055749 0.0012913316 0.014316156
-0.0099368859 0.0013773108 0.0017091015
0.0016593358 0.00086213986 -0.0080571752
-0.00031855682 -0.0046599768 0.00083653169
0.00022544278 -0.013276679 0.00058786274
0.00029924113 0.020207778 0.0015554075
5.599923e-06 0.022851769 -0.00082010002
-1.9122885e-05 0.0050423709 0.00015870781
0.00064393162 -0.015851205 -0.017855169
6.0348699e-05 -0.00014025043 0.059493039
-0.00011117545 3.673117e-05 0.0082247639
5.767187e-05 8.5992251e-05 0.0024767409
0.00010117992 0.00015990477 0.028289478
0.00062383298 0.00052351679 0.042956885
-1.3358117e-05 0.00020840617 0.0085215019
0.0011336899 0.00095308956 0.0046707029
0.011124982 0.00052178418 0.019318264
0.003164476 0.0011619104 0.020260561
-0.010294548 0.00087720202 -0.0057103736
-0.010181095 0.00090296299 -0.0097529711
-0.00091344875 -0.00023433357 -0.016444312
-8.7587476e-05 0.018653568 -0.00057235634
9.9680394e-05 0.011339874 0.00022607394
0.00038504592 0.012639269 0.0010805118
5.754298e-05 -0.00033159033 -6.0377056e-06
0.00047399357 0.040742148 0.0010529085
0.00025947837 -0.0015135743 -0.0048081158
-1.260234e-05 -3.8788588e-05 0.0018981956
6.2444262e-05 -0.00025568879 0.089037396
0.00051501562 0.0001184678 0.028183404
0.00022787799 0.00049680308 0.012708143
0.00051311689 0.00044087059 0.02432345
0.0018434946 0.0014071278 0.0084190443
0.00083576894 0.00033198539 0.014474849
-0.0038500826 0.00046915715 0.0033464944
-0.015152883 0.00055845361 -0.01098914
0.025910741 0.00058085663 0.03844912
0.015704738 0.00045951325 0.027860248
0.010309813 -0.00031115406 0.033056531
-0.001366121 -0.0024254927 -0.00086997077
-0.00088777911 0.025141392 -0.0018132876
5.2445906e-05 0.12007258 0.00024749368
0.00014811079 0.02407827 -0.00014891678
9.5358355e-06 0.021549551 -0.00034380276
0.0012247405 0.027407855 0.0021675942
0.0003050174 0.004862526 0.0058260318
8.8755092e-05 0.0024357787 0.0016110297
-0.00017997315 -0.0012408429 0.070409045
-1.4356753e-05 9.989164e-06 0.0036035108
0.00057417026 0.00046936341 0.02203452
-0.00011926734 4.8917368e-06 0.0069673131
-3.3619217e-05 -0.00021531859 0.00640928
-0.00045100207 -0.00058064936 0.043579195
-0.0061603417 0.00083279418 -0.0079518342
0.0094574131 0.00097797345 0.022657849
-0.0010532838 0.00016979454 -0.0021946989
-0.0031881372 0.00028835348 -0.0040114382
-0.018471364 0.001433439 -0.020385018
0.0022847559 0.0003728451 0.0058687469
-0.0023863113 -0.0010433961 0.049981009
-8.2716506e-05 -0.00038243106 -0.0020076907
1.576244e-05 0.0021351557 -1.8444602e-05
-0.00012866226 0.046788242 -0.00040333424
0.00036401101 0.042366363 0.00070275035
0.00029748143 0.014507798 0.0011748391
6.3643747e-05 0.010560649 0.00025222602
0.0016590289 -0.03489517 -0.039309464
0.0017260577 -0.009193209 -0.01206006
0.001386981 0.00032795686 0.0055846679
0.00056838733 0.00030286581 0.019789113
0.00069510634 0.00076429901 0.039252702
0.00017942549 9.4118826e-05 0.0057243961
-3.0249932e-05 -0.00024860757 0.044997152
-0.012616793 0.00066834735 -0.012193072
0.0082002217 0.00030841469 0.022562023
-0.012651437 0.00097754877 -0.0091633117
-0.0090286573 0.00074638973 -0.0092265988
4.8564674e-05 0.00023628464 0.0016819488
0.0048498968 0.00058112002 0.026111273
-0.00039671594 -0.0034553325 0.0060085813
-0.00017060088 -1.0167549e-05 -0.00044896174
-0.00030684037 0.059722677 0.00099902169
0.00015415819 0.046323601 0.00035639977
0.00034793929 0.0069578323 0.00063607865
0.00087961927 -0.016937675 0.0014230232
0.00015675323 -0.00051363051 0.00051042496
0.00026404171 -0.0038368914 0.0016374151
0.00093152351 -0.0043993057 -0.0062010535
0.0012765097 -0.012929106 -0.016483786
0.00036001948 0.00064353953 0.00077930943
0.0010549072 0.0011360134 0.070337966
0.0019375152 0.00057568785 0.019129649
-0.00034460693 -0.00036495109 0.056721769
-0.0029787293 0.00032479415 0.0015285275
0.0032214613 0.00097381457 0.072984412
-0.0014969293 0.00013744392 0.00086900196
-0.0028882835 0.00039971466 0.0041047414
-0.0056214333 0.00024640825 0.0018005316
0.003658873 -0.00046686584 0.024352042
-0.015135764 -1.7251612e-05 -0.014179248
-1.6659747e-05 0.0010454057 0.00034268299
0.00012001274 0.00029397506 9.8105829e-06
-6.1600554e-06 0.0013521558 4.0402443e-05
-6.5487278e-05 0.012423861 0.00037911002
0.0002240973 -0.0022134697 0.00045044263
-0.00035360403 -0.00074689783 -0.00053087302
-8.4361483e-05 -0.00021832819 5.5529836e-06
2.2337274e-05 2.2629218e-05 -0.00036752748
0.0038936406 0.0027482803 0.0032032949
0.0015278378 -0.0046434682 -0.010744832
4.5652574e-05 2.4285213e-05 0.0022817468
6.5561428e-05 0.00011249676 0.036355939
0.00054303766 0.00020911978 0.012286462
0.0014606065 0.00042608616 0.029934924
0.0005494653 0.00017233999 0.0110307
-0.010817855 0.00085468095 -0.0039263587
-0.0057479781 0.0014136949 -0.016346449
-0.0024264017 0.0018980273 0.0074760136
0.0029642759 0.0024598241 0.0032527745
-0.004093078 0.00018299276 -0.0015803021
-0.00011431473 0.00024317797 0.00029860117
-0.00028747279 -0.0021276411 -0.00042306338
-3.3491709e-05 0.036442418 0.0004711455
0.00038294031 0.00030922124 0.0014897471
0.00032642687 -0.00015575906 0.0005624789
-0.00076622999 -0.00188554 -0.0012944142
-0.00042386382 -0.00039944195 -0.00033550846
0.00045721128 0.00059678906 -0.0056865988
0.0038420123 0.0023351058 0.0031211718
0.0012437294 0.00087586534 0.0011091301
0.0019650182 -0.0067617637 0.00059081486
-0.00076055067 0.00014931789 0.00089271279
-0.0086966706 0.00023159182 -0.0014836964
0.0022262062 -0.00022226988 0.021876831
0.0015414173 2.1392611e-05 0.017278466
-0.0081444588 0.00076799205 -0.032765493
1.1989039e-05 0.00022293792 0.0052110422
0.00042469928 0.0011372414 -0.0033414867
0.00087626977 -0.00074171741 0.018351663
-0.0034411673 -0.0011069675 0.014120655
-0.00065600366 -0.00092031935 0.0078027532
0.0030914096 0.00056111393 0.00026262357
-0.0059601231 0.001385586 0.0016280791
0.00012086545 2.8476925e-06 0.00045711952
-9.7563927e-05 -0.00050800521 -0.00020023945
-0.0011306864 -0.0020244636 -0.0019305343
-0.00058931852 -0.0011289632 -0.00052493555
0.00089186721 0.00062669569 0.0013784884
0.00053502695 -0.00010858822 -0.00024310124
-0.00063997344 -0.00066102896 -0.00086299243
0.00017972254 4.3323544e-05 0.00026659292
0.00034884797 -0.00048119729 -0.00040447142
-0.017889289 0.0012295834 0.0013343196
5.8918413e-05 0.00883161 0.00067684671
0.0027452784 -0.00049797114 0.020105513
0.0040277657 4.7280391e-05 0.05246754
0.00018310384 1.4044006e-05 0.0038849602
0.00052130944 -2.3402623e-05 0.019614158
0.0025041858 -0.0010203579 0.027185377
0.00099116133 0.0011366445 0.025644446
-0.0017703152 -0.00066928862 -0.0024750337
-6.2310137e-06 -0.0002986716 0.0048069963
0.013215218 0.0022716392 -0.0049018823
-0.0017624766 0.00052164152 0.00097171409
-0.011112747 0.0015957807 0.00083571242
0.011181492 -0.0013141261 -0.000179294
-0.00011952522 -0.001006739 -0.000102324
-0.00066766969 -0.0018240962 -0.004425236
-0.00035715639 -0.00045650473 0.058226719
0.0054227049 -7.3140732e-06 -0.00021716025
-0.001593733 -0.0011995692 -0.0017229192
0.00029445597 -0.00053823844 0.00021644504
-0.00066399877 -0.00063017174 0.02801184
0.00024881549 0.00060513493 0.0011512788
0.0009050201 0.00096304779 0.00089966145
0.0053096316 -0.0010141921 -0.0015335329
-0.00065735582 8.9039611e-05 0.047607448
-0.0016814017 0.00049382204 0.066011898
0.00079716078 0.0006445818 0.042903606
-0.0001402186 -0.00049502164 0.040831629
-0.0024392707 0.00053147302 0.013066182
0.00097928219 -0.00088861282 0.00097412703
0.00081038056 -0.00016183431 0.0046947477
-0.00067132775 0.00019502855 0.00029170737
-0.00054464932 1.797477e-06 4.3578293e-05
-0.00034784188 -2.8485647e-05 -5.3918e-05
-5.2601695e-06 -0.00018968426 0.00044039736
-1.7306089e-05 -1.5300375e-05 0.0081305504
-0.0015504124 9.3766248e-05 -0.0006263075
0.00040263665 -0.0018445031 -0.0090246229
0.00073177752 -0.00081878802 -0.0094620958
0.00094902044 0.00068567524 0.00078896643
0.00065515633 0.0016192704 0.0014943354
-0.00085093547 -0.001315652 -0.002179319
-3.1333715e-05 -0.00051362521 0.00062704494
0.0142518 -0.0033552912 -0.0028431937
0.0049146507 -0.00073016743 -0.0019936198
0.00060900551 -0.00057326269 0.057913423
-0.0011293408 -0.0017260975 0.073051788
-0.00041347378 -4.6637273e-05 0.041643307
-0.0012658969 0.00055988791 0.013711724
0.0018856367 -0.00096871267 0.013310776
-0.0030666073 0.0001199097 0.0010333832
-0.0017078259 0.00306299 -0.0038411925
0.0061976472 -0.00022273626 0.0016519726
0.0027502787 -0.0013228168 -0.001027636
0.0062289611 -0.0010465409 0.00090438745
0.00076254009 9.5042589e-05 0.0028951706
-0.00011731099 -0.00070523948 -0.0023317859
0.00063322525 -0.00097518181 -0.0018455959
0.0010222266 -0.0016674205 -0.0041168653
1.3342588e-05 -7.2727444e-06 -1.4149871e-05
0.00038302396 -0.00034565141 -0.00077405002
0.001745502 -0.0028046239 0.17424113
-0.007198438 -0.0030443871 -0.0041336967
0.00263553 -0.0019828724 -0.0028994188
-0.0009043903 -0.00073465583 -0.0017998404
-0.0032789765 -0.00081085024 0.057740115
-0.0011643128 -0.0012773023 0.0739116
-0.0024866515 -0.00025359681 0.0087030558
-0.0014449906 -0.0012179494 0.027055452
0.0033668394 -0.00061180326 0.017061573
0.0062504495 0.00048369297 0.0010940441
-5.0750703e-05 0.00018121606 -0.00020594861
-0.00085007929 1.2637264e-05 0.00028553803
-0.00031759456 -0.000219849 -0.0002348721
-0.0014787472 -0.00029215639 0.00013170621
-0.0067383028 -0.0015636139 -0.0021789335
0.00014476992 -7.9110418e-05 -0.00047793204
0.00081530435 -0.00055085873 -0.0014969637
0.0048217159 -0.0023304443 -0.0041559865
0.0007469767 -0.00068664103 -0.00093850802
0.003580034 -0.0015127338 -0.0069487328
0.0018147961 -0.0020613861 -0.0044266479
0.00043407152 -0.0013425689 -0.0011553968
0.0013270022 -0.0013776113 -0.0016745919
-4.9581296e-05 -2.3577752e-05 -5.7407058e-05
-9.0122026e-05 -2.3168581e-05 -0.00010076454
-0.00018353533 3.2992797e-05 0.00037250039
-0.011094013 -0.0009999068 0.045775
-0.0036336775 9.4977506e-05 0.01999099
-0.0011105981 -0.00045050358 0.0015552556
0.00028487027 -0.0020423799 0.0012296119
0.0044361949 0.0031220119 -0.0035018623
0.0033232013 0.0013454338 0.0020622914
0.0035335703 -0.0012889899 -0.00087854418
0.0059791314 -0.0025985322 2.8276483e-05
0.0015531851 -0.00023760329 -0.00034365724
-4.8856597e-05 -0.00050583167 0.047534268
0.00073883409 -0.0022282971 -0.00091203954
0.0012028391 -0.00059772743 -0.0010160564
0.00066556648 -0.00038654514 -0.00090688706
0.0005262568 -0.00028558946 -0.0010107963
0.0017809802 -0.0014006173 -0.0032351234
-0.023361195 0.052163862 -0.002572889
0.0049204966 -0.0018835351 -0.0044416976
0.0003311974 -0.0009226324 0.071555272
0.0061706682 -0.001624741 0.15417691
-0.0049124267 0.0010086995 0.008474024
0.00071405544 7.8079429e-05 0.0076011666
0.0012719684 -0.00084937544 0.02075698
-0.00034989603 -0.0013661034 0.059935592
-0.0011257387 -0.0013221342 4.8886501e-05
0.0009203353 -0.0047298986 -0.00049373112
-0.0017004099 -0.0077124583 0.00034232833
-0.0007378622 0.0098149264 -0.00011370259
-0.00098495313 0.012370728 -5.2941465e-05
-4.1707051e-05 -0.00066177285 -0.00083051651
0.00021455099 -0.00035560998 0.024156034
0 0 0
-6.1419331e-07 -3.5476328e-06 -6.6685407e-06
-0.00032727604 -0.00096783193 -0.002884273
-0.00028893939 0.010386173 -0.00082416681
-0.00025111189 0.012978638 -0.00078368356
0.0015757056 -0.0019050543 -0.0029560002
-0.0003673129 -0.00042079567 0.055217758
0.0015003321 -0.0011924794 0.084661238
0.0020152212 -0.00090627209 0.060149364
-0.0014585861 0.00048052959 -0.0038638921
0.0013794709 0.00037239003 0.0014640905
0.00030056498 -0.00021905682 0.0078329686
0.00055605429 -0.00042658596 0.020625923
-0.0041165994 -0.005866617 0.036241148
-0.0032138594 -0.03663943 -0.0011696348
-0.00060016924 -0.012517868 0.0027384276
0.0039772214 0.035186183 -0.00094467989
0.0090358248 0.029763291 0.0009794361
-0.00037343925 0.000558267 0.00027989579
-0.00033560942 -0.0013724833 0.00058524741
9.7597615e-05 -0.00017069263 0.0063307378
-3.2896856e-05 0.00019815563 -6.5568449e-05
6.9641442e-07 0.0034779403 0.00059632328
-3.7117716e-05 0.0040153963 2.0822422e-06
2.658395e-05 0.0011111747 -4.400378e-05
7.6996712e-06 0.00010762634 0.019748695
-0.0035807104 -0.00060239661 0.090444654
-1.0743629e-05 4.7359696e-05 0.048943959
0.0015012327 0.00060273369 0.021304179
0.0020917214 0.00053193601 0.016984802
0.0034556612 -0.00011509066 0.01242695
0.00098568201 -8.6518288e-05 0.0047986163
0.0013836537 0.00029638686 0.024140911
0.0049352688 -0.0029873312 0.0014202623
0.00097591651 -0.032935012 0.00082002726
-0.011162051 -0.04701091 0.0034146155
0.0025760471 0.0096168071 0.00067038258
-0.0051917862 0.0024206985 0.0020029559
-0.0092363879 0.0040557152 0.0027841688
0.00010639949 0.012831148 6.5919819e-05
-0.0001069725 0.082981594 -0.0022984878
0.00011819216 -0.0017952948 -0.00070364721
8.6279681e-05 -0.0035801788 -0.0039601414
0.00051045651 -0.0010327046 0.051722758
-0.00060389348 0.00064473203 -0.0071091382
0.0036354142 0.00085710938 0.057225987
-9.6996075e-05 -2.2505625e-05 0.0036982745
-0.00016364375 -4.3393055e-05 0.0030479862
-0.00083562045 -1.1654449e-05 0.045490693
0.011725805 0.0010831286 0.057288755
-0.0079048024 -0.0025218988 0.094186537
0.0014440106 -0.00035068451 0.01445295
0.0085980892 -0.0015476263 0.027830675
0.0081919273 0.0011036154 0.00052335678
0.00060935394 -0.0027086332 0.00037277228
0.00040821542 -0.00057719514 0.00022487341
0.00062716432 0.0020811961 0.0008347609
0.00030716788 0.010384846 0.00023877177
-0.00066965236 0.06035402 0.00042103001
-0.00022624167 0.020479338 0.00018441248
-0.00084870658 -0.016059067 -0.012149429
-0.00033167645 -0.0024252089 -0.0010798232
0.00011716121 2.5853498e-05 0.0088714901
-0.00032224433 0.00052507047 0.00043719463
0.01414048 0.0017695524 -0.0052901432
0.0060909116 0.00096039649 0.0075389207
0.0023254158 0.00032975266 0.0093722744
0.0011545841 0.00028879941 0.004371047
0.00074555929 0.00079261529 -0.018036066
0.00099757535 6.4435691e-05 0.014406119
0.0051513417 -0.00094631122 0.050918821
0.012929082 -0.00040033655 0.035534326
0 0 0
0.0087001063 -0.045395732 0.00048527747
0.0072220103 0.0085969474 0.0017474762
0.012178035 -0.038368933 0.0049072043
0.0012851458 -0.0034084932 0.00074204832
0.0014450421 0.016583409 0.0023461217
-0.0012673842 0.042626914 -0.00067320984
-0.0015569993 0.019027878 0.0003016197
8.7099006e-06 -0.00067447533 -0.00063492951
-2.7475198e-05 0.00015115003 6.4421758e-05
0.00098770449 0.002112855 0.001517958
5.1754712e-05 0.00066189031 -0.0015652397
0.013973569 0.0015058324 -0.033561729
0.00088685169 0.001019135 -0.0095741134
0.00045288846 0.0023818088 -0.0044874921
0.0020302811 0.0010878703 -0.0092829205
0.0025288709 0.0010825138 0.023255724
-0.0019571001 0.00024823585 0.021756934
-0.0019040462 -0.00019392442 0.055477139
0.0011303421 0.00040663782 0.047504373
0.0057825982 -0.0017268809 0.066529885
-0.0024402728 -0.035546221 -5.3703105e-05
-0.00027747155 0.0014860542 0.00051131262
-0.0012480295 -0.0071321796 0.00084465207
-0.00061503914 0.0013679684 0.00021306294
-0.0018743883 -0.0039847628 0.0010589446
-0.0021130312 -0.0052962983 0.0011811347
0.0056978511 -0.0018746303 -0.0020727771
-0.00029960938 -0.0019241261 -0.0019064721
0.00018166301 0.00026962315 0.00034348882
-0.00016208416 -0.00013204796 0.0044921208
0.0016309152 0.00018981379 0.038807519
0.00913365 0.0012582995 -0.01848875
-0.0005896503 0.0004587532 -0.004456067
0.00090012845 0.00094571104 0.011373433
0.0042367624 0.0018054703 0.032963496
0.004898584 0.00097649504 -0.0022237443
0.0090122754 0.0016745667 -0.0036715255
-0.012383195 -0.0004913907 0.047641054
-0.017115129 -0.0017983494 0.092724808
-0.0077457302 -0.0043480815 0.084136374
-0.00034336478 -0.003001557 -5.3234729e-05
0.0048620445 0.012418252 0.00035542116
0.0047401516 -0.030606845 0.0047849636
0.001272577 0.00016769154 -2.1592685e-05
0.0063107153 -0.00038125869 -0.00011066894
0.0032049078 0.00045717024 0.00094524177
0.00053855818 -0.0004357422 -0.00046673091
0.001304667 -0.00032868006 -0.00017884544
0.0046918932 0.00028851183 0.0006905715
0.00029661853 -0.00026742887 0.0074018911
0.00058707158 0.0003141218 0.0034291234
0.023239879 0.0028686807 -0.024640502
0.010560689 0.0011453339 0.0018521026
-0.0009694848 0.00054460805 0.0087253135
2.9990545e-06 0.00014379718 0.0029059902
-0.012020051 0.00026412355 0.035051208
-0.0038506475 0.00034485094 0.03126657
-0.008200367 -0.0010538318 0.055471387
-0.021531358 -0.00068039901 0.064359464
-0.029729538 -0.0047396659 0.041861665
0.0064580031 -0.013824293 0.0007503485
0.0089478297 0.0050771912 0.0019757324
0.021007422 -0.020451501 0.00469052
-0.002533599 0.00016630457 -7.1164919e-05
-0.0030070462 -0.00038884705 -0.00054753153
0.0013322554 1.0219349e-05 7.506524e-05
0.002446285 -0.00084407476 -0.00078797981
0.008792473 -0.0012402973 -0.00053872442
0.0074910708 -0.0029286256 -0.0025206949
0.0026763424 0.0019032806 0.0011054934
-0.00030433392 0.0006157342 0.0068531889
0.0053664003 0.00067047577 0.014185192
0.012671464 0.0013582746 -0.022778884
0.010936762 0.00093040813 -0.022857562
0.015065416 0.0014387115 -0.062151223
-0.0079859346 -0.00064728624 0.017073995
-0.00098724884 -0.00029631364 0.011107045
-0.0031419247 -0.00070952083 0.027409343
-0.048117835 -0.0032916232 0.061202902
-0.00076033617 -0.0007822183 -0.00017830967
0.00019269095 0.0063601001 0.0001395521
0.001216725 0.0026292393 0.00021808789
-0.0062714927 -0.00099985546 -0.0011581279
-0.0062464532 -0.0011800826 -0.0010373085
-0.007318167 -0.00057312968 -0.00050722458
-0.0013317188 -0.00035225131 -0.00035627588
-0.0028591759 -0.00030133087 -0.00038955756
-0.0054638092 -0.00083694566 -0.00089972053
-0.0015847645 -7.0284754e-05 0.005889311
-0.0018785709 0.00034198011 0.018073186
0.00064619299 0.00033438561 0.022184012
0.029018098 0.0023439256 -0.015945222
-0.0052257599 -0.00050586573 0.04072969
0.020090835 0.0013394357 -0.029979004
-0.000625733 -3.8752372e-05 -3.8495295e-05
0.005177883 -0.00038029347 0.022967687
-0.025968285 -0.0021216162 0.021172637
-0.0044931164 -0.00087699929 -0.00073239725
-0.00061311352 0.0091114324 -0.00021742271
0.0048287371 0.0051921899 0.00018624149
0.0024996542 -0.0010124734 0.00029186791
0.00013288381 0.0090724137 -7.6252254e-06
0.0074550691 0.0082598124 0.0017815907
-0.018462472 -0.0027683128 -0.0024621843
0.0071768258 0.0015908496 0.0077218516
0.0053360621 0.00041077659 0.017598854
-0.0058224234 -0.00058581447 0.014913229
0.0038199925 0.00074638764 0.021256205
0.0017943577 0.00044411971 0.017092587
0.00095914659 0.00030786876 0.0028372484
0.0020440146 0.00023494288 0.017902737
0.013192046 0.0020010115 0.019865759
-4.2074666e-06 -6.6385328e-06 0.00078818633
-0.0035886071 -0.00044828412 0.0072508366
-0.037595306 0.019832466 -0.0036372074
-0.016156577 0.02441946 -0.0023383638
0.0074739605 0.0094474768 0.0010359478
0.02322909 -0.0063533704 0.0046780389
0.00037253532 0.010231894 3.4806199e-05
-0.0028280595 -0.00034667083 -0.00037594151
-0.0056005432 -0.00082048122 -0.00080051506
-0.0033308105 0.002077122 0.004064831
-0.0018832947 -3.0845229e-05 0.022196976
0.00078011729 0.00052979827 0.003910678
-0.0043551694 9.3942923e-05 0.031947825
0.0033089742 0.00025548675 0.028319439
0.0055892728 0.00076675887 0.0055217929
-0.010447897 -0.0016966518 0.04527564
-0.018821895 -0.0011022163 0.019662675
0.012070658 -0.0015072126 0.027747096
-0.018342806 -0.00020776167 -0.02597194
-0.0029928221 0.0071339258 -0.00057499483
-0.0018872055 0.0070992773 -0.00026818196
-0.0034499818 0.010803074 -0.00040204526
0.0033714881 0.012717566 0.00074019708
0.0040712124 0.0083708232 0.00067692128
-0.0075121028 -0.00096236606 -0.001034205
-0.0014573761 0.00033917004 0.005232587
-0.0084735742 0.00079574395 -0.0036242511
-0.0069116298 -8.2546449e-06 0.045106612
0.0026002948 0.00030329451 0.0077681397
-0.0054849065 -0.00048865948 0.037222583
0.0075964443 0.00091707968 -0.0045750868
-0.0042003994 -0.00050022866 0.020490274
-0.00043732987 -0.00082134444 0.027210739
0.0027240857 -0.00058879628 0.013302516
-0.0018518406 -0.0011718997 0.022208557
0.0086769387 -0.06103655 -0.0031515004
-4.3327247e-05 -0.00034141043 8.3868792e-05
0.007444947 0.037872251 0.0015706522
-0.00081271189 0.006110373 -6.6774657e-05
-0.00045164095 0.0062319096 -0.00014090222
0.012396061 -0.00050867756 -0.00024799281
0.0044484558 -0.0013704377 -0.0014268721
0.001053315 -0.00017468903 0.01632968
-0.00061916851 -0.00011552995 0.01894282
-0.0027135587 0.00031281656 0.0010598747
-0.0040655765 -0.0006076842 0.021758337
5.2830845e-05 1.5495827e-05 0.00031164577
0.0038200484 0.00018289163 0.031110292
-0.0016730077 -0.00037381868 0.011039279
0.0025805358 -0.00076052127 0.016755311
0.029070631 -0.00087982224 -0.01805019
-0.0026942994 -0.01509903 -0.0012195433
-0.00042333049 0.002681653 -6.4289881e-05
-0.0012341778 0.074907973 -0.0013021373
0.0013639071 0.004896482 0.00031414075
0.0052424418 -0.00088546769 -0.00067942851
0.0015394812 -0.00049135298 -0.00021301857
-0.0039538722 -0.00055340043 0.018334506
0.00045645449 -3.0311574e-05 0.0012564739
-0.00096643681 -0.00084905414 0.041834284
0.0019242133 0.00023653242 0.013123542
-0.021153783 -0.0025807938 0.03060204
-0.0075966017 -0.00013538002 0.050844539
-0.016368376 -0.00085058075 0.05687011
-0.0065023694 -0.001190462 0.044033263
-0.0049049738 -0.0010048168 0.015715595
6.4920132e-06 -0.039919555 0.00044330515
0.0019535404 0.019122103 0.00045917646
0.0015541426 0.009449237 0.00021448109
-0.0001841621 -4.169812e-05 0.00014962643
0.001616426 -0.00046738575 -0.0010026295
0.0038796391 -0.0040758541 0.0047508241
0.0069107651 -5.3205335e-05 0.019701876
0.0010263892 0.0021702265 -1.2501113e-05
-0.012592089 -0.0010128603 0.0039997729
-0.0032227354 0.00042567414 0.0021792501
-0.012549078 -0.0024249554 0.026915438
-0.010240699 -0.00026693713 0.03631293
-0.0045613307 -0.00030250498 0.028469237
-0.000650728 -0.00094909297 0.0068220557
0.0096708573 -0.0012659543 0.047127951
0.00024565961 0.0015616346 -6.6774123e-06
-0.0038757322 0.010791896 0.00071195018
-0.00029471063 -0.0017011083 0.003789762
0.0014883301 -0.00041107551 0.00057331385
0.0032081478 0.0089785764 -0.00015864683
0.0012078586 8.8088227e-06 -6.1426726e-05
0.0067723915 0.0099815512 0.00033232558
-0.0062102699 0.00069909106 -0.0049526524
-0.020164831 0.0013361907 -0.034924224
-0.0072694668 -0.00046015682 -0.0017413264
-0.0048104627 0.00055005803 0.00092388765
-4.4466095e-05 -2.5432351e-05 0.0049887663
0.013840001 0.00059695484 0.045147359
0.001840447 -0.00051144883 0.013923854
0.0045688255 -0.00097127736 0.0089049162
-0.00028115755 0.00012290303 -1.3356861e-05
0.0035531826 0.026077379 0.00084783224
0.00051111862 0.0016894069 0.00036823185
-1.4834383e-05 0.00097708066 0.00020426592
0.0010994535 0.016066132 0.00015673088
0.0015176116 0.00066069613 0.0013631515
0.025696807 -0.0015981569 -0.0015962155
0.027894707 -0.0032858809 -0.0030737524
-0.0012630721 2.0548672e-05 -7.3659219e-05
-0.019577965 -0.00068025955 -0.037179403
-0.018257568 -0.0016635732 0.026844366
-0.0052606869 -0.00016264225 0.031009782
0.033207763 -0.027219102 -0.022156797
-0.013750089 -0.0016536044 0.020579137
0.0070809675 0.011804645 0.00010439461
-0.0061415983 0.033562295 -0.00069555937
-0.00026976047 0.041451573 -0.0005046252
0.00032591479 0.00021034732 6.2586718e-05
-3.3270251e-05 0.00090866856 7.7518715e-05
-0.0021239507 -0.0034310077 0.0017115392
0.0070154276 -0.00067365466 -0.00073985494
0.0038647733 -0.00057924917 -0.0006560667
1.3553677e-05 0.00012899256 -0.00022575496
0.00027997151 -0.0011898342 -0.02334235
0.015345507 0.027378766 0.031050734
0.015802834 0.0060900678 0.012106365
0.027196219 0.0016843181 0.00037942926
0.0072464547 0.017405231 0.0022276298
-0.00022248909 -0.00065461127 -0.00065094087
0.00047414488 0.0027390595 0.00056354346
-0.0023906487 -0.0012858006 0.00054548914
-0.00040446239 -0.00011336259 9.7283955e-05
0.015710056 0.023676988 -0.0016335812
0.00074097002 -0.001150051 0.00063472707
0.0050573875 0.022383474 -0.0010513421
0.0030995025 0.0067471084 0.0026093102
0.02697406 0.0019605407 0.00039966404
-0.017550921 -0.0012240607 -0.00083929196
-0.00096089568 0.011917662 0.027069397
0.036400471 -0.027077079 -0.024879057
0.012750032 -0.0035136803 -0.00041886003
0.00093842356 -0.0037533443 0.037995547
-0.0027574431 -0.0020575507 -0.002762353
0.00014866352 0.0089336438 6.1347011e-05
-0.026466699 -0.026244335 0.0013211879
-0.0007634231 -0.00015333777 0.00034456342
0.012767143 0.0088915508 0.00075183209
-6.1259103e-05 0.00011398509 1.6451551e-05
0.00029498115 0.036430299 0.0015665719
5.760694e-05 0.0013813602 0.00080894562
-0.0040248348 -0.0070474967 0.0020089212
-0.038120575 -0.0017549687 -0.00021638662
0.022483148 0.012977774 0.02278774
0.0055588163 -0.0013819152 0.0054888073
0.0037133705 0.00046809821 0.014959916
-0.0067440444 -0.0038639675 0.066778772
-0.0008811751 -0.0018110576 -0.00072947063
0.00093688985 0.0001250685 0.00028251371
0.0020672542 0.0034001481 8.1923434e-05
-0.0070427102 -0.0045452346 9.2980474e-05
0.0055455389 0.020485058 -0.0010213936
0.0013193939 0.0051840721 2.39045e-05
-0.017788863 -0.033567023 0.0042007025
-0.011830281 -0.011207725 0.0031649356
0.0082005011 -0.014328688 -0.016600277
7.7325974e-05 0.00030226691 1.0595888e-05
0.0023251758 -0.029156869 -0.023219168
-0.002119995 -0.0083286026 -0.0090380572
0.010331861 2.1354332e-05 -0.00058979465
-0.00031882056 0.015006313 -0.00063629792
-0.039183211 0.033357374 -0.0010633452
-0.0053746132 0.017579626 0.0012920166
-0.027419917 0.0057831453 -0.00047476988
-0.032163829 0.0087970467 0.00048703892
-0.0027345056 -0.004115459 0.00020731527
-0.041844025 0.0073288945 -0.0015011323
0.0017170697 -0.050099105 -0.041449577
0.00082982564 0.00083936023 0.01198552
-0.0045972927 -0.010832213 -0.0070881746
-0.020908739 -0.024865231 0.0022783852
-0.018408926 0.091903262 -0.0045684515
0 0 0 1 0 0 0 1 0 0 0 1 0 0 0 0 0 764 1 0 0
