ply
format ascii 1.0
comment PCL generated
element vertex 764
property float x
property float y
property float z
element camera 1
property float view_px
property float view_py
property float view_pz
property float x_axisx
property float x_axisy
property float x_axisz
property float y_axisx
property float y_axisy
property float y_axisz
property float z_axisx
property float z_axisy
property float z_axisz
property float focal
property float scalex
property float scaley
property float centerx
property float centery
property int viewportx
property int viewporty
property float k1
property float k2
end_header
0.0078650173 0.00015789446 -0.0029655269
-0.011570727 -0.00052866444 0.03486263
0.017286405 0.00028957293 0.0098727206
-0.0012324299 -0.0041217729 -0.004159864
-0.014468103 -0.0059636515 -0.0066108946
0.00034513749 -0.0012547963 -0.0013449971
-0.011958276 -0.0024029124 -0.0035648819
-0.014067492 -0.0013267533 -0.0016320543
0.010624886 0.00035176289 0.00024037367
0.019851925 0.00012483847 -0.00020969535
0.019347819 0.0011952468 -3.9996001e-05
0.068618976 -0.017593557 0.0021198699
0.067820154 0.011330237 -0.00041993838
0.023599483 -0.00080692244 -0.00069936487
-0.0022117598 -0.0024213931 -0.0019040288
0.022706028 -2.3882634e-05 -0.00046206079
0.023287782 -0.0036260157 9.4111187e-05
0.0010795983 0.0012709703 0.00010919317
0.0053262678 0.0015205014 0.0041203201
-0.023354666 -0.0020012246 0.090029217
-0.0088063842 -0.00046270355 0.020933131
-0.019431066 -0.0014025315 0.12356731
-0.002537922 -0.00017042979 0.021084236
0.003899232 0.00016497805 0.013109667
-0.014415448 -0.001771827 0.035750955
0.013219246 0.0002085568 0.013379403
0.0037990981 0.00034030667 -0.0011687215
0.018405207 -0.012032285 0.00069888809
0.019922812 0.00048812747 0.00083160214
-0.0036004079 0.0052888091 -0.00021424128
-0.025452441 0.040834632 -0.00090757292
-0.018178863 -0.0012150627 -0.0012248609
-0.02072593 -0.001431213 -0.0016684462
-0.0011036355 -0.0013648052 -0.0007798532
-0.0020164601 0.0011762459 0.0077857631
-0.00030173463 0.00042327133 0.0013532228
-0.027648807 -0.0020734186 0.070519738
-0.049686119 -0.0031716418 0.099000029
-0.011227248 -0.0001982828 0.025166607
-0.0064680609 -0.00043034329 0.032850757
0.00013771383 -3.8365197e-06 0.00032925769
0.023385644 0.0047941678 0.0034568487
0.027033191 -0.023395535 -0.02434534
0.017667916 -0.017104466 -0.013035831
0.054898649 -0.050908465 -0.046976198
0.013342464 0.0021306358 0.00083086034
0.004870709 0.019005094 -0.00044107757
0.0023951789 0.017489756 -0.00032194695
0.0032190406 0.0088815317 7.043482e-05
-0.035350036 -0.0036069844 -0.0036639294
-0.049677022 -0.0054608257 -0.0061970479
0.0021067096 -0.00049080979 0.035538163
-0.00064749521 -0.00097647827 0.015699117
-0.0056789406 -0.00081951352 0.041983373
0.001905257 -0.0017377126 -0.0038784838
4.9274749e-06 1.1942255e-06 7.815734e-05
0.0076147025 0.00058754411 0.027685402
0.032237228 -0.018806858 -0.020248124
0.0053358767 2.3108396e-05 0.00065107114
0.027285187 -0.018369345 -0.022685926
0.016507903 0.0018666495 0.001645989
0.00084258051 0.0083044721 3.4372388e-05
0.0086218584 0.00083196134 0.0012558444
-0.00096176955 0.02252272 0.00026016019
0.010088325 0.0042951768 0.00045331588
-0.0093034841 0.033098079 -0.0012542128
-0.002660301 0.020448746 -0.0004268146
-0.0077778189 0.024019083 -0.00091787352
-0.0019475202 -0.00017708878 0.0092501128
0.00088746333 -0.00015282059 0.0061080405
4.2167826e-06 3.7254935e-08 4.288226e-05
-0.0018752777 0.00018522343 0.0080167856
-0.0038584247 -0.00028813325 0.037628341
-0.0029809033 -0.0032694945 0.0022757577
0.024034835 -0.0201931 -0.022847921
0.022336744 -0.027895031 -0.023884684
0.0088499207 0.0095931953 0.00052083435
0.023015309 0.001897802 0.0040823119
-0.001958488 0.0017142823 0.00060761202
-0.0006159544 -0.0032463302 0.0011166859
0.0030525746 -0.0027855011 0.00062016718
0.0020724286 0.0096158106 0.00042915426
-0.0021085863 0.019088304 -6.7741006e-05
-0.0096017942 0.026976954 -0.0010698952
0.010147441 0.020117989 0.0016679533
0.0063971183 0.0012412438 -0.0029049718
-0.0011091088 0.001537618 0.0015037042
-0.0029255066 0.0015805727 -0.0092001595
8.2922757e-05 0.00027476464 0.021970142
0.0025858309 0.022006933 -8.8145998e-06
-0.0019107048 0.0093484754 -0.0028802196
0.0108387 -0.020498287 -0.022429831
0.003700909 0.0023260927 0.015124821
-0.003573965 0.011566079 -0.00048738584
-0.0023622678 0.024983879 -0.0016370083
-0.0023367293 -0.003470677 0.0022798229
-0.0045175618 -0.012511984 0.0013069154
-0.0014066284 -0.0069086486 0.00047204318
0.0013005786 0.044097528 -0.00030894819
-0.0037478504 0.022909133 -0.00060470926
-0.005973476 0.023599772 -0.0010572262
-0.0029780651 0.03704948 -0.0012240952
-0.00011560413 0.00034711629 0.024455154
0.0030777825 -0.00015557076 0.040772952
-0.0023355701 0.0021481162 -0.0057975487
4.281474e-05 8.5064348e-06 0.00068648625
0.0026911441 -0.039785251 -0.051478755
0.00098527363 0.013268977 0.0069039129
-0.0001238914 0.0021686365 7.783567e-05
-0.0020104672 0.046243288 -0.002690386
0.00045755881 0.015989015 -0.00044111372
-0.00052382099 0.0022001106 -0.00011447291
-0.0015820013 -0.0033877108 0.00095021696
-0.00027600146 0.010258212 0.0010180089
0.00046536748 0.033435315 0.0007929838
-0.0005025299 0.0071500149 -2.0342517e-05
0.0011199143 0.022392889 -0.00093236571
0.00013931459 0.036468439 -0.0012135353
0.0001762333 0.0034131666 3.5221899e-05
0.011665503 -0.00088525581 0.019341845
-0.00044640302 0.00064048218 0.0046490449
-0.0002408694 3.1830838e-05 0.0013954105
-0.0045143263 0.00024562367 0.021215614
0.0011901181 -0.027742589 -0.03562228
-0.00013736991 0.0010188544 -2.9965919e-05
-0.0006248391 0.015277066 0.00091084692
0.0085394448 0.10721549 -0.0022299897
-0.00011629174 0.00087651389 -3.1307671e-05
0.0019592617 0.03220709 -0.0017878456
0.00067031611 0.00061077578 0.00056865724
-0.00032290356 -0.0080248397 0.0016272999
-0.0038340378 -0.002340795 0.00050535705
-0.00019985618 4.0587249e-05 1.3177339e-05
0.0059419102 0.016074279 0.00012663235
0.0077074477 0.01034073 0.00033173355
-0.00033293755 0.002532664 0.00063086703
0.0080243228 -0.0022522481 0.038603056
0.010632145 -0.00044550002 0.016092218
-0.0027785525 0.0014153856 -0.0010274802
0.00043690327 0.0001663685 0.0061790794
-1.2756673e-05 -5.0494298e-05 0.0055753882
0.0089676594 -0.0046660947 -0.0046838163
0.0034353356 0.070982911 -0.0024056034
0.00074693386 0.0084079346 -0.00040306614
0.00011268869 0.0051545645 1.2777849e-05
0.0018779788 0.01366448 -0.00051175465
0.0029689621 0.020920265 -9.723704e-05
0.00014016226 0.0058871126 0.00051322556
0.0044465726 0.0061793821 0.00066692202
0.012529433 0.015101007 9.6850788e-05
0.018556638 0.018531706 -0.00031484989
-0.0019191924 0.0047810138 0.0005806241
0.0010707863 0.0024615123 0.00055132288
-0.0046792794 -0.0016345619 0.0013322562
0.014590994 -0.00072218536 0.013326628
0.0057061426 -0.00042730427 0.01255471
-0.0073446883 0.0018209628 -0.0088772774
0.00034539483 0.00057380076 0.0012977727
-0.0052567301 0.00075177546 0.040851753
0.0072805365 -0.0017258534 -0.0013023852
0.00014908695 0.0054377913 -0.00014597971
0.0038264766 0.044923279 -0.00080032554
0.0022602237 0.015529685 -0.00058464683
0.0018201412 0.0090545937 0.00023901119
0.0026896417 0.0094533134 -0.00070583454
-0.0013246015 0.0035885735 0.0025253305
0.0035096954 0.013750049 0.00030948597
0.0088783344 0.0070255608 0.00013463169
0.0094828755 -0.00046600041 0.00060251524
0.036205724 0.021304769 -0.001194944
0.02333124 0.017618872 -0.0003954421
0.015634691 0.027225269 -0.00057197991
0.0025202192 0.012708776 0.00092334417
0.001285909 -0.00132694 0.0092854686
0.016831269 -0.00081822916 0.049550962
0.0077541075 0.00034726624 0.010526316
0.0073679569 -7.7785793e-05 0.019412929
-0.0086529916 0.0024012423 0.0029130054
-0.00062630756 -0.00093819347 -0.00081855472
0.043685321 -0.0058303522 -0.0047290502
0.0065295901 0.019828899 0.00045221299
-0.0011033161 0.0035275896 0.00032502646
-0.00023239138 0.00329209 0.0012370055
0.0069372831 0.026781961 -0.00256761
0.00069684704 0.0024476489 -9.179367e-05
0.0070681605 0.013733677 -0.00015534893
0.032720335 0.0089413095 -0.0023905081
0.030562762 0.012867141 -0.00075662608
0.00188822 -0.0016573987 0.0005834765
0.0046580243 0.0037798928 0.00049881003
0.037525836 0.0411423 -0.0028447851
0.028252732 0.04525581 -0.0015361946
0.0018899243 0.013434028 0.00030521626
0.011426285 -0.0017889673 -0.00085737696
0.00014526599 7.252464e-06 -1.5424746e-05
0.0040957383 -0.00029299594 -0.00015689121
0.0043711774 0.00021764346 0.012625142
0.00076756143 0.0009476007 -0.014405359
-0.00014778548 0.0002127357 0.010019749
-0.00026369267 0.00040242818 0.0007512758
-0.0030218721 -0.00085331441 -0.0012717008
0.0020807993 -0.012789429 0.0020878753
-9.0495625e-05 0.00095396023 0.00049582589
-0.00095815788 0.018721417 -0.0029415814
0.0087456349 0.012795782 -0.0012075792
0.011969086 0.011788727 -0.00048638775
0.010161123 0.00042452195 0.00058466615
0.0081350589 -0.00032135955 -0.00061519514
0.01400591 0.0039779302 0.0017068062
-0.00063976017 -0.0025694747 0.0021605855
0.010495819 0.0092566283 0.00046527563
0.0050655259 0.015924729 0.00094966864
-0.012971922 -0.019027149 0.0012898847
3.5823388e-05 -4.4613589e-06 -4.5217062e-06
0.004619298 -0.00065218983 -0.00050901721
0.0063396213 0.0010469877 -0.00054151192
0.0010531668 0.0006854618 0.00012212455
0.00055654568 0.0006202783 -0.0076033077
0.00053675118 0.00046929359 -0.0031842899
0.00064611639 0.0010935747 -0.0067135128
-0.0010158733 -0.0014135023 -0.0015783233
-0.0026323302 -0.0017393033 -0.0017665951
0.00046922237 0.0025880281 0.0014858531
-0.00052142021 0.021289133 -0.0011160369
9.1107649e-05 0.0011428618 0.00062550243
-0.00077738875 -0.00080788025 -0.0014810731
0.0032363636 -0.00011393327 0.00039354051
0.026184365 -0.0018068297 -0.0022305674
0.00083413784 -0.0004009488 0.00053184194
0.0021738694 -0.00046177302 0.00068907463
0.0028438068 0.0056576231 0.0013848875
0.0017789302 0.016776554 0.00034472824
-0.005135423 -0.007778286 0.00089147012
0.0038865707 0.0016465364 -0.0013639003
-0.00033251918 0.00076280849 -0.00013213984
1.6587082e-05 6.4521686e-05 7.7369059e-06
0.00038818191 0.0026300785 0.0015634064
0.00039830702 0.00049724441 -0.0067242845
0.00082453137 0.00080642622 -0.012872819
0.00066257257 0.00078191509 -0.015757715
-0.0020386409 -0.0011831727 -0.0016279791
-0.0020947296 -0.00090602163 -0.0010676878
-0.0007037886 0.010429715 -0.00040937617
-0.001790544 0.034424856 -0.00021486184
-0.00090530852 0.01944562 0.00031574737
-0.00044516512 -0.00038546824 -0.00080857991
0.012839159 -0.00047660575 -0.00073270453
0.00091892033 -5.715061e-05 -0.00014674501
0.0033177081 -0.0013811173 0.0014093043
-0.0028522217 0.00020879421 0.0020190477
0.0039842036 -0.00050232187 -0.00028914373
0.0056487848 0.031654552 -0.00035390086
0.0012010072 0.0023925581 0.00046266473
-0.00017350435 4.3540502e-05 -0.00028203978
0.0017198646 -0.00024033766 -0.00012501565
0.0021159695 0.00045623246 -9.2828952e-05
-0.0001028787 9.694101e-05 -0.00013405978
0.00035285865 0.00029539602 0.00029379467
0.00080056151 0.0018267381 -0.012006876
0.00031014788 0.00065501319 -0.011185925
-0.00053591642 -0.00063182053 -0.00022754644
-0.00029386109 -0.00035810014 -0.00027681008
-0.0015464271 -0.00070853054 -0.0015119747
-0.00271681 -0.0021436333 -0.0025374771
-0.0010731547 0.021726657 -0.00064631476
-4.43342e-05 -2.9246376e-05 -2.256838e-05
0.027078897 -0.0010310655 -0.00093341852
0.0077060768 -0.0012761976 -0.0015737198
0.00030758689 -0.00010686204 -4.6220797e-05
0.0014371969 -0.00014856548 1.3860308e-05
0.0074421866 -0.0010548682 -0.00097434828
0.0011571217 -0.00027764865 -0.00059237529
0.0024313896 0.017040243 -0.00060151663
-0.0031121718 0.0033902791 -0.00086941908
6.4064217e-05 0.00020785585 -0.00013027524
-0.0058333059 0.0018853442 0.00056915043
1.9628227e-05 5.2941158e-07 8.2058085e-07
0.022186501 -0.00076477428 -0.0016364483
-0.0011127528 -8.661607e-05 -0.00085559255
0.00065728521 0.00050944462 -0.0065979394
-6.0298735e-05 -0.00031769727 0.00037191078
1.235069e-05 6.7743647e-05 0.00011063158
-0.00053882285 -0.00038995489 -0.00014535619
-0.002191195 -0.0012429474 -0.0019429449
-0.0042740344 -0.0021364794 -0.0043199998
-0.0016089582 -0.001362808 -0.00092712295
-0.0012511757 0.037670437 -0.00083402102
0.016766841 -0.0010334477 -0.00016991554
0.0091829896 -0.0014076803 -0.0019474338
0.0018539977 -0.00033746089 -0.0003511894
0.0030695307 -0.00044434002 -0.0008276017
0.0016020917 -0.00066479575 -0.00096242962
0.0017321749 -0.00020175759 -0.0002810806
0.00071667251 0.013463589 -0.00014054094
0.00014788152 -0.005023926 -0.00039836991
-5.5173241e-05 -0.00027443049 0.020414496
-0.001166663 -0.0036722703 -0.003028891
0.0084428024 -0.00047150883 -0.0010489947
0.012652495 -0.00088078488 -0.0019300573
0.00040541621 0.0012329557 0.0019179018
0.00018854311 0.00068819051 0.031949047
-0.00080903195 -0.00057569874 -0.0011341318
-0.00072928343 -0.00036426741 -0.00081539422
-0.0014596477 -0.00091130962 -0.002547415
-0.00059193984 -0.0010225642 -0.00094238669
-0.00039420745 -0.00049882953 -0.00084977172
-0.0029616761 -0.00251176 -0.0035035755
-0.0027685354 -0.005069775 -0.0029629522
-0.010071076 0.040606864 0.00015883251
0.0036326109 -0.0015802253 -0.001703958
0.0026526002 -0.0027008292 -0.0012909968
-0.0016356035 -0.0010371878 -0.0010498877
-0.011373544 -0.0022567899 -0.0032789996
0.00036095546 -9.3104252e-05 4.3917986e-05
0.00014748292 0.014413457 -9.5712137e-05
0.00022328486 -0.0062291408 -0.00033319177
-0.00014324569 -0.00053576683 0.0072645689
-0.00073106971 2.6749714e-05 -0.00042026659
0.00088638859 -4.503107e-06 0.0069525428
1.4805683e-05 2.2170998e-06 0.00095794682
0.00021449586 9.1693204e-05 0.016978391
3.5310026e-05 -6.7155081e-05 -0.00018631636
-0.00097555452 -0.00094418868 -0.0032885114
-0.00096144562 -0.001788353 -0.0038773499
-0.010938277 -0.0039342768 -0.0053776009
0.0013925632 -0.0046153232 -0.0065035555
-0.0011024437 -0.0039385469 -0.003858082
-0.0017128054 -0.0051273583 -0.0048276214
-0.00055561174 0.06793002 -0.0018761391
0.010982018 0.071522914 -0.0020627859
0.001454609 0.0069129071 -0.00014967071
-0.00039527277 0.019498114 0.00030582238
-0.0022089819 -0.0012141787 -0.0016697069
0.00011687358 -1.1544119e-05 0.00010652361
0.00030697419 0.0166754 -0.00069742597
0.00025395182 -0.0051199528 0.00020155698
0.00037852529 -0.002540417 0.030868787
0.0060230177 -0.0019357974 0.051588047
0.0074642031 -0.00085120421 0.10327452
7.7814213e-05 1.3679508e-05 0.0016770443
0.00075309217 -0.0041342024 -0.0069178017
0.0004484588 -0.0005650323 -0.0017085861
0.00091083016 -0.00061095308 -0.0027247157
0.0010624168 -0.0025989155 -0.0032146468
-0.056547679 -0.0062793694 -0.0079869442
-0.029459769 -0.0042254641 -0.0061619342
0.00034977373 -0.0031513027 -0.0032657539
0.00050542358 -0.0044618468 -0.0041157547
-0.00038485674 -0.0038172728 -0.0017045049
0.0025273093 0.045614872 -0.00057012797
-0.0010591733 0.040464386 -0.0025721649
-0.0035559186 0.060249146 -0.0026656559
-0.0011683787 0.011857994 -0.00060186995
0.00034128194 0.048641171 -0.0032138489
0.00013805446 0.0061489441 -0.00045108874
0.00052489276 -0.016240885 -9.8559649e-05
-7.3008027e-06 -2.8141048e-05 0.00057745882
-0.00081816921 -0.0004404416 0.010358972
-0.0026276126 -8.4512016e-05 0.014277071
-1.3146861e-05 1.1370111e-07 0.00016873573
0.0005022508 -0.0011123223 -0.0018522721
0.00031243626 -0.00027376015 -0.00077120389
0.0018059682 -0.00081936148 -0.0017686634
0.0010443465 -0.0015552356 -0.0021032684
0.0011946168 -0.0015775099 -0.0025318244
0.0031165536 -0.0032325522 -0.0046568657
0.0026365658 -0.0047537652 -0.0054222532
0.0010830909 -0.0053332266 -0.002283209
0.00051588134 -0.0036107812 -0.0033198777
2.3480616e-05 0.0011114874 -2.1225031e-05
2.5356707e-05 0.0018524138 -8.7183238e-05
-9.5055366e-05 0.00098742906 4.9421269e-05
0.00031849311 0.030945206 -0.0013053268
0.00036427987 0.011753803 0.00017453931
0.00015826065 0.0058680461 -6.362563e-05
0.00045470809 -0.016674867 0.00017194924
-0.00029222138 -0.0040997094 0.044443022
0.00047912489 -0.00016075993 0.0072076903
0.0050044614 -0.00051059161 0.064228252
0.0031694693 0.0030601069 -0.023866015
-8.2037048e-05 -0.0026419566 -0.0031385364
0.00014517744 -0.00025628955 -0.00033772373
0.0014398883 -0.0010014306 -0.0011622454
0.0015922214 -0.00079056976 -0.0012944931
0.00032431263 -0.00010973324 -0.00026996658
0.00060957525 -0.00033744134 -0.0008018291
0.0052381614 -0.0026123733 -0.0075320015
0.0049519176 -0.0050341361 -0.0071575441
0.00030670594 -0.004473215 -0.0037717484
-0.00014805645 0.067268565 -0.0011404504
0.0086611928 0.11156739 -0.0054693492
0.00026364595 0.019641904 0.0014326187
0.0047775684 0.038583007 -0.00012756418
0.00031337506 0.020352947 -0.00079022447
0.00085177831 0.039640155 9.059679e-05
0.00028722399 0.0052105295 0.001069532
-0.00039803502 -0.0035515646 0.042703677
-0.004256743 -0.0014849572 0.029409882
1.6267586e-05 -1.9045376e-05 0.019403404
-0.00047624717 -0.00015622062 1.1649008e-05
-0.00022449056 -0.0025411709 -0.0024765201
0.0001577181 -0.0021699024 -0.0025442401
0.0033880675 -0.005201526 -0.0055027609
0.0011652139 -0.0016820981 -0.0026619276
0.00026800999 -0.00025207293 -0.00046787786
0.00075013551 -0.00069887156 -0.001664579
0.003230426 -0.0022860158 -0.0055965353
0.0021532068 -0.0022103819 -0.0031509961
-0.006494781 -0.0015297525 -0.0020464663
-0.0097931018 0.058368422 -0.0021184967
0.0013497575 0.04181264 -0.0023283148
-0.00013243723 0.003864666 0.0013754746
-0.00010466608 0.0096191233 0.00092275126
1.8886207e-05 0.0087689152 -0.00050347194
0.00040476481 0.013324328 0.00020030602
0.00044648853 0.081911676 -0.0041215518
-6.0604798e-05 -0.00027201264 0.0037380217
0.004902632 -0.00037869703 0.013377615
0.0061962442 0.00049145927 0.031123068
0.022003245 -0.0014229679 -0.0016731806
-3.4908837e-05 -0.0011100731 -0.00092980696
2.9777635e-05 -0.0010690815 -0.0011484702
-0.00044340154 -0.00091225543 -0.00089086732
-6.4866549e-06 -0.0036211016 -0.0049142484
0.00027690758 -0.0015479991 -0.0025696766
0.0014165819 -0.0022303483 -0.0026504768
0.0011252653 -0.0007510616 -0.00097364531
0.0017855735 -0.0021123122 -0.0028902604
-0.030961888 -0.0039662779 -0.0072548846
-0.0031215271 0.03557384 -0.00085151789
-0.0033242013 0.012951124 -0.00053513172
0.0007721759 0.022895066 0.0011900757
0.00018897836 0.009980605 0.00084068853
0.00011554457 0.0026366794 -4.4222816e-06
-0.00014183593 0.011383595 0.00080214487
0.00091181486 0.036784127 -0.00015527944
-0.00013611524 -0.00015008476 0.0078357812
0.021332197 0.0003422267 0.043319028
-0.0060314024 0.0011232425 0.0069429702
0.018712034 1.5850828e-05 9.3669521e-05
0.0076503577 -0.0035705133 -0.0033437184
-0.00093149894 -0.0028653194 -0.0028757106
8.2874321e-05 -0.0010686853 -0.00074805407
-0.00038642521 -0.0011782096 -0.0013661598
-5.4107164e-05 -0.00026110117 -0.00015129615
0.00028891407 -0.0014468747 -0.0015263625
0.0011280722 -0.0020185611 -0.0024144452
-0.033814754 -0.0027590129 -0.0047544092
-0.0025510427 -0.00025485182 -0.00047834276
-0.00016735212 0.002204393 1.6969874e-05
-0.0091367047 0.026567219 -0.0013725202
-0.00843844 0.041499633 -0.00098699506
0.0016762507 0.075749375 -0.00084562256
-5.1685965e-05 0.014326532 -0.00026646792
7.1008151e-05 0.035306796 -0.0015400226
-0.00025969907 -0.028469572 -0.011249235
-0.00095452822 0.0181311 -0.00017247334
0.00044276493 0.00046528876 0.00032195495
0.0020590494 3.9087445e-05 -1.2902204e-05
0.0026674338 -0.0010582097 -0.0010902401
0.0097991126 -0.0017079239 -0.0018335445
-0.00028805583 -0.0020964642 -0.0016636713
0.00023248371 4.7234564e-05 -3.6810892e-05
0.00014774024 -0.00046236711 -0.00018749321
0.00015198685 -0.00055933389 -0.0005305009
-0.0032750834 -0.00057650666 -0.00074961904
-0.00363743 9.5164484e-07 -0.0015796875
0.0031564462 0.010614258 0.00088118424
-0.0021476361 0.021254661 -0.00030253519
-0.00084758829 0.0027202058 -1.7020502e-05
-0.0005683307 0.0040640282 4.8729439e-06
-0.00086273975 0.020571413 -0.00018212617
0.00068907905 0.052738756 -0.0011329843
-0.0003431598 0.055799201 -0.0012981927
0 0 0
-2.9135977e-05 0.0027497367 -6.0147431e-05
-1.3383011e-05 0.035138927 -0.00014683873
0.0041926252 0.050350651 -0.00074578082
0.00093920535 -0.0018115118 0.0011521669
-3.7137037e-05 -0.004767078 0.0031793616
-0.0013479477 0.036725074 -0.00059827144
0.0060048699 -0.0012143288 -0.0016181315
0.0076831453 -0.0010363626 -0.0010290839
-0.00074569584 0.00017511827 0.00011466632
-0.00023032031 -0.0014467293 -0.00035245487
0.00024263015 -0.00023876045 9.4118906e-05
-0.0057465159 -0.00077047065 -0.0010369287
0.00053704187 0.00033705391 0.00083644566
0.0026115179 -0.0048811194 0.0019287277
0.0022038026 0.020464418 0.0004119431
-0.0020870615 0.017768575 -0.00096346805
-0.00085939764 0.015636958 -0.0001385284
-0.0029408669 0.034758057 -0.00033199263
0.00038666459 0.054661404 -0.0021886386
-0.00019343906 0.039077017 -0.0021880539
-5.6865261e-05 -0.015055506 0.00015230846
-0.00028935258 0.01835792 0.0016466969
2.279627e-05 0.011926544 -0.00012193231
0.00047189358 0.012657303 0.00025499371
-0.00050463068 0.0020700067 0.00036493802
0.00019187953 0.00092371763 6.9480287e-05
0.0047968915 0.026445579 0.0005922413
0.0083158975 0.023474505 0.0025177633
-0.002024434 -0.016778825 0.00074589811
-0.0011740096 0.0085882051 0.00035479185
-0.0084475754 -0.0024964737 -0.0022243678
0.0088145733 0.00037117934 0.0027683205
0.00072878605 0.0015395397 0.00043077918
-0.00019276724 0.0088091623 0.00012032558
0.0021383746 0.016651016 0.00044632252
-0.0010905699 0.032068577 -0.00080293976
-0.0049385931 0.017455261 -0.00081807468
-0.011342971 0.020770382 -0.0012054764
0.0010683927 0.050588761 -0.0023766905
0.00061128289 0.062456079 -0.004141896
7.5419382e-05 -0.007908213 5.2202897e-05
-9.184314e-05 0.0033321755 0.00096391904
-0.00023938801 0.023664791 -0.00051864906
0.0034517983 0.032428913 0.00030429536
0.006713002 0.027881328 0.0014807937
0.0041255299 0.046368252 -0.0010704219
-0.0010673215 0.011406286 0.00052215747
-0.0016524927 0.0013978132 0.00042798332
0.0056535485 0.057760093 -0.002102915
0.00041728345 0.011781462 0.00049039267
6.7995119e-05 0.0016672456 0.00022422631
0.00042427619 -0.0001143834 2.3178831e-05
0.016902484 -0.027430223 -0.035852145
0.00029717776 0.0061905701 3.1923086e-05
-0.0019405436 0.014933288 -0.00033248932
0.00038198347 0.0082237395 0.00042550548
-0.0029489039 0.035158388 0.00091332378
-0.010705374 0.03418725 -0.00055041973
0.00044458002 0.019328507 -0.0014798536
0.0022152483 0.087975599 -0.0070217624
-0.00059188518 -0.018258143 0.0012632086
-0.0018684181 -0.0091589345 0.0037207427
-0.00039183046 -0.0057555744 0.0017663121
9.7067161e-05 -0.00099423307 9.0465554e-05
-0.00058948772 0.0042056814 0.00025863791
0.0007566046 0.0027036709 0.0001114429
0.0092340205 0.10906968 -0.0022533853
0.0010580617 0.0094512384 -8.3282706e-05
0.0020697906 0.016508229 8.6816517e-06
-0.018070392 0.013316765 0.00089444843
-0.00051287742 -0.00020580474 -0.00016700149
0.003864018 0.020596787 0.0010634993
0.003853874 -0.0059653712 0.00095169252
0.002223517 0.016482057 0.00021562589
-0.0047545126 0.02191283 -0.00084400887
-0.012613167 0.025733525 -0.0009661481
-0.0066577815 0.024728065 -0.00081947813
-0.010786577 0.0099666202 -0.00077756855
0.0014089543 0.025393048 -0.0023734197
2.4844123e-05 -0.0029625569 0.00011243133
7.4207084e-05 -0.00031760221 0.0010101148
-1.8655541e-05 -0.0006331543 0.00048873393
0.0035995825 0.013012577 0.00011052369
0.010221767 0.014199402 0.0026725978
0.0026116942 0.0058422755 0.00058878754
-0.0061581479 0.026642235 -0.00035987989
2.1448415e-05 0.011429291 0.00018838346
-0.006738551 0.064766638 -0.00098951499
0.002729638 0.023311595 0.00076388859
-0.003289548 0.010555218 -0.00055535365
0.0010007351 0.023974355 0.00057935854
0.0038737881 -0.001017163 0.0022580768
-0.0097839832 0.027192483 -0.0016108409
-0.0051796609 0.014002972 -0.00074626523
-0.0077269208 0.021269446 -0.00042070515
0.0090408688 0.0082963873 0.0006939469
-0.027322978 0.037378985 -0.00287797
0.00073545566 0.0029465463 -0.0006800571
-0.00032771018 -0.0035295833 0.0012461713
0.0064250859 0.0039720284 0.0003563494
-0.00042462567 0.003285826 -5.1533538e-05
-0.00099315029 0.0098716589 7.689718e-05
0.0056954073 0.028344639 0.001859348
-0.0025278316 0.026971325 -0.00066013582
0.0024368882 0.034525976 0.00031007096
-0.00240783 0.012836555 -0.00026316597
0.015004456 0.034828767 0.0016718685
0.0057738563 0.011704271 -0.00024421691
0.0035367811 0.025295688 0.0016322044
-8.9440793e-05 0.0012323017 5.9555256e-05
-0.0029363071 0.012498699 0.00010072331
-0.0070342259 0.040543988 -0.00042578546
-0.0012871437 0.027601793 0.00019758628
-0.0086050993 0.0049967184 -0.00081355294
5.5515784e-06 -2.1404801e-05 -6.0753678e-06
0.00044114696 0.011055744 -0.00036177452
-0.0057276669 0.032661662 -0.00091608794
0.008729022 0.0056717079 0.0016740485
-0.00091969577 0.0086696008 -0.00010523145
-0.0024505276 0.013174799 -4.9905037e-05
-0.0041363486 0.017979404 -0.00081272633
0.0052426253 0.018470103 0.0013311176
-0.0038974355 0.012670676 -0.00058030256
0.0055421782 0.0051505915 0.0008492581
-0.0042123161 0.022468148 -0.00076164835
-0.00056863966 0.02956553 0.00063476001
0.0011452532 0.0034089317 0.0005042007
-0.0037536279 0.044852316 -0.00055612094
-0.0019433562 0.022410752 -0.00010654143
0.0070074499 0.013180444 0.00054678106
-0.032769006 0.060421519 -0.0032253074
-0.0033453533 0.0082237385 -0.00065628643
-0.0024770284 0.019581836 -0.00067898113
-0.003108087 0.0092797661 -0.00033716339
0.001226856 0.0071398225 0.00047363149
-0.00065787608 0.017525652 -0.00039702031
0.010210612 0.016535394 0.0019818426
-0.0075313114 0.027392751 -0.001314334
4.8474532e-05 0.0046796454 0.00027683852
-0.013582038 0.067985997 -0.0019874021
0.0006867745 0.013956711 0.0004951767
-0.0068345643 0.025988519 -0.001187234
0.010720574 0.011307422 0.0028184352
-0.00095787016 0.022880569 0.00010165435
-0.00023979785 0.028226504 0.00021000822
-0.010044901 0.0052550621 -0.0011525342
0.013093596 0.00011969527 -0.0018911163
0.0083566299 -0.056973424 -0.0029320526
0.003997351 0.036694501 -0.00037615033
0.0041746171 0.032183461 0.00026353262
-0.00025998984 0.0049602375 2.0928752e-05
0.0011136802 0.013340711 -0.00035434423
0.0011420831 0.0018882449 0.0026067505
0.015949117 0.054678116 -0.0020417699
-0.00012581077 0.0041909902 0.0006667173
0.0039568646 0.020723576 -0.00053455919
-0.0017415429 0.0017958912 0.00045017817
-0.0011722801 0.017384581 -0.00074989442
0.00012702447 0.00055400725 7.1527065e-05
0.005746258 0.0075164959 0.00045936106
0.0038323379 0.017536214 0.00031536314
0.027475748 0.00035722586 0.01023231
0.038236789 -0.0057233255 -0.020085633
-0.0029726946 -0.016152063 -0.0015268079
-0.00040343899 0.0025658067 -5.9358186e-05
-0.0010721986 0.073390968 -0.0012329712
0.0016887784 0.0045952415 0.00046317815
0.0051313583 0.013381507 0.00051607197
0.0018558375 0.012064029 0.001199763
0.00096968818 0.013221228 -0.0004172051
-0.00052516849 0.030954689 0.00011979522
0.0022231776 0.041468315 -0.0014139136
0.0020775942 0.039656941 -2.5911439e-05
0.0077500395 0.051867992 -0.00027642495
0.015309175 0.033237945 0.00167523
-0.010598656 0.021447364 -0.00074638368
0.0031498563 0.01440813 0.00056858512
-0.0028014306 -0.00086557306 0.014225865
-0.00010371632 -0.036247116 0.00019106801
0.0018127513 0.022528784 0.0002025366
0.0016898233 0.010779717 0.00022092531
-0.00040442258 -8.5440501e-05 0.00035944764
0.0010647452 0.019504476 -0.00026899099
0.0029627243 0.0099653928 0.0023271467
5.9707281e-06 -0.00052660517 0.00053002621
0.0019261009 0.0059430655 0.0025664447
0.0034816486 0.014500351 -0.00033689165
-0.00077499991 -0.0063509806 -0.00022706769
-0.0093246149 0.043535892 -0.00090817787
0.0042042746 0.045109451 0.00015734663
0.0094002625 0.0055986652 0.0040397174
-0.00048476315 -0.00087816216 0.0055414471
0.011850771 -0.00085406209 0.040892042
0.00047225258 0.0032000814 -5.6696317e-05
-0.002706727 0.017347386 0.00036079754
0.00013230815 0.0081318095 0.0028661552
0.0025491524 -0.00039583241 0.0009438339
0.00038220274 0.0012565615 0.00020147407
-0.0025184671 0.0022682662 0.0012846192
-0.0011018115 -0.0030531713 0.00049582712
-0.0034476602 -0.00086757372 0.0011202544
-0.029091116 -0.035548333 0.0024935121
-0.00015807011 -0.0032098894 -0.00066741306
0.003565206 0.0048422068 0.00036262156
-0.013615387 0.038446575 0.020212987
0.018421849 -0.0063126935 -0.0011002164
-0.0032759984 0.0087000849 0.0038987454
0.0067212395 -0.00095193082 0.0060301553
-0.00015105482 0.00078867393 -5.8356905e-05
0.0019593744 0.032967784 0.00040365447
0.00034821569 0.0010179461 0.00072381931
0.00050054898 -0.0010130922 0.0011868809
0.00045581331 0.0062882039 0.00013780218
0.00074475928 0.0047283438 0.00051406014
0.00076134282 0.0018449965 -2.2447446e-05
0.00127707 0.051763996 0.0016474139
-0.0016190854 -0.00053237134 0.0002780052
0.00027019554 -0.0029974678 0.0016450853
-0.018884644 0.020507099 -0.0012908796
0.0035783388 0.0024582515 0.005386312
0.022046909 -0.0011486487 0.0091613783
-0.015203393 -0.0013019226 0.038267851
0.0067434097 0.010172804 -1.2677033e-05
-0.0031812065 0.015200928 -9.6059084e-05
-0.0011744139 0.01959116 0.00096851314
0.003587408 -0.0082602315 0.0030342743
-0.00058049452 0.0017598643 0.00051426928
-0.0011114058 0.0028059334 0.0020937352
0.0045097717 0.022645907 0.0011278577
-0.00018931451 0.0037729174 0.00048317286
-0.012557291 -0.048522566 0.0039979066
-0.0030821706 -0.0041771731 0.0010822123
-0.018851951 0.015576174 -0.0021530273
-0.002247147 0.0020347764 0.0066492311
0.013692871 -0.012364252 -0.0091751097
0.014474541 -0.0024237069 -0.020409463
0.030059246 0.0073614586 0.00021103007
0.0028497619 0.006416657 0.00036013609
-0.0011154795 -0.0005416107 0.00045759822
-0.0099965502 -0.01700468 0.0037614768
0.0038676371 0.0050094281 0.00018264049
0.00097375549 0.0002175501 0.00053496571
-0.00011476086 -0.0005685137 0.00011571227
-0.0012534447 -0.001346944 0.001951409
-0.0083368449 -0.017533889 0.0015172699
-0.020809321 0.0053676395 0.00030331683
0.0092830723 -0.0093093859 0.001506475
-0.0069338344 0.021894518 0.035364211
0.002570048 -0.0028504287 0.0028149111
0.0088766171 -0.0031392428 0.035528049
0.002226664 5.7864977e-06 -4.1259489e-05
-0.0063657206 -0.0034700569 0.00043556374
-0.013291777 -0.0093476884 0.0011718824
-0.0013335032 -0.0013790664 0.00017207295
-0.0076833852 -0.0056771045 0.0010299932
-0.019074626 -0.017496459 0.0050252699
-0.00069204532 -0.0011132183 0.00029460908
0.00014957797 0.00086241751 9.7637952e-05
-0.0057103443 -0.0084622875 0.0027128931
-0.0062651248 0.0040703015 0.0033134788
-0.00036343237 0.0013308213 0.0036676049
0.0088277292 0.0055969269 0.016394395
0.00057460077 0.0074136332 0.030551186
-0.014822233 -0.0031800594 -0.0032399155
-0.00063378009 -0.00076593051 -0.00016317921
-0.015748689 -0.016021933 0.0010561259
-0.049363855 -0.052149404 -0.034205548
-0.040085554 -0.050680004 -0.062281813
-0.026872497 -0.045064759 -0.061288837
-0.0073404033 -0.021458948 -0.020538611
-0.018453164 -0.10595262 -0.11229919
-0.0004652534 -0.00010317782 -0.0095623964
0.012990853 0.010645626 -0.010180313
-0.00055943971 -0.0008932738 0.038001999
0.0039320439 0.010977023 0.0094436724
-1.695946e-06 0.00014518676 0.00052187731
0.019471958 -0.0013099019 -0.0024313538
-0.031781919 -0.028776171 0.012046331
-0.0086793862 -0.0077991374 -0.0033463892
-0.021274887 -0.020697389 -0.0087189199
-0.032285474 -0.063782811 -0.073353976
-0.016583143 -0.038546972 -0.031316187
-0.0028664947 -0.0072545935 -0.0063314713
-0.063408665 -0.0013851247 -0.052552845
0.00050240767 0.076843321 0.0077027748
-0.044837106 0.015689854 0.052050602
0.0037049358 -0.0006530541 0.083218813
-0.00010265382 -5.6547036e-05 0.00075311464
-0.016864154 0.063398309 -0.0091157015
0 0 0 1 0 0 0 1 0 0 0 1 0 0 0 0 0 764 1 0 0
