ply
format ascii 1.0
comment PCL generated
element vertex 764
property float x
property float y
property float z
element camera 1
property float view_px
property float view_py
property float view_pz
property float x_axisx
property float x_axisy
property float x_axisz
property float y_axisx
property float y_axisy
property float y_axisz
property float z_axisx
property float z_axisy
property float z_axisz
property float focal
property float scalex
property float scaley
property float centerx
property float centery
property int viewportx
property int viewporty
property float k1
property float k2
end_header
0.0008986044 0.0010961044 0.0010266274
0.00071077369 0.00048253144 0.00081305334
0.00046790432 0.0006383846 0.0019490126
0.0002588674 0.0015455609 0.0020780333
-0.00010597477 0.0025497132 0.0030530544
2.8255541e-05 0.0012247274 0.0023541623
0.0003143253 0.00094629131 0.0024631969
0.00067652424 0.0018549315 0.0018836251
0.0013522485 0.00082235172 0.0010457167
0.0021196203 -0.00070320594 -0.00068234
0.0021948654 -0.0013002632 -0.001827923
0.0038213397 -0.0016349232 -0.0032852772
0.0022116145 -0.00066567445 -0.0012409738
0.0020744442 -0.00049806677 -0.00052141427
0.0014179173 0.00051883579 0.00065769971
0.00077198708 0.0014439069 0.001846071
0.00026907271 0.0022916507 0.0021077967
0.00028507452 0.00073622103 0.00040027991
3.3253396e-05 0.00011473755 0.00038021556
-0.00019050323 0.00032617757 0.0010746026
-0.00082153641 0.0019745622 0.0019912613
-0.00090635091 0.0019676266 0.0022884868
-0.0012540427 0.0019982089 0.0027605928
-0.00063450442 0.00082804804 0.001267496
0.00014622886 0.00090210582 0.00056248932
0.00095436448 0.00035134528 -7.1430994e-05
0.0026592007 -0.0011721608 -0.0011916998
0.0026369188 -0.0018315058 -0.0023570554
0.0032964961 -0.0014133636 -0.0026552198
0.00228466 -0.0006463285 -0.0013016184
0.0020276257 -0.00029826676 -0.0005922303
0.00081482378 0.00090618659 0.0004905719
-0.00024165258 0.0019487046 0.0014927356
-7.3651121e-05 0.0032022635 0.0030085547
0.00051915727 0.0011396053 0.0010405775
0.00032311131 0.0018343527 0.001599684
-0.00057670509 0.0010140147 0.0016572375
-0.0013437332 0.0023515932 0.0023893013
-0.00071989029 0.001244772 0.0023343074
-0.0012142252 0.0020682688 0.0024476878
-0.00060770888 0.0015116178 0.0023540081
0.00020058159 0.00092958519 0.00089582382
0.00091209763 0.00012276183 7.0294955e-05
0.0016108004 -0.00080057897 -0.00061667792
0.002046553 -0.0010362989 -0.0012716679
0.0018786844 -0.00080584164 -0.0014966942
0.0020653009 -0.00036422344 -0.00051689439
0.0010285347 0.00027602163 -2.7487873e-05
0.00089280354 0.0010253701 0.0010011188
-0.0001029117 0.0016685872 0.0016788337
-0.00044222875 0.0025078487 0.0025777833
0.00064593944 0.00089185149 0.001240015
-8.2235194e-05 0.0016943848 0.001051127
-0.00026617554 0.0016293793 0.001511789
-0.0008982413 0.0020527481 0.0018591951
-0.0005994995 0.00076493883 0.0006026362
-0.00023099153 0.00073079491 0.0016113155
-0.00039771834 0.0012246717 0.0014232703
6.3209307e-05 0.0014556863 0.0015777478
0.00028518672 0.0003907074 0.00045728494
0.0013267819 -0.0004782094 -0.00030838174
0.0010340468 -0.00079204893 -0.00073385111
0.00072803831 -0.00033726753 -0.00069076015
0.0015133851 -5.7157387e-05 -8.4221239e-05
0.00085360557 0.00024052318 0.00060548855
0.00042775401 0.00094248122 0.00093120855
-0.00018605085 0.0015314441 0.0019057388
5.0258086e-06 0.0021214979 0.0025327019
-0.00014000776 0.00081003911 0.0012085394
0.00030004943 0.0011457474 0.0010509138
0.00015267983 0.0012559326 0.0013846406
0.00041336031 0.0014433955 0.0013186757
-0.00016844773 0.00064854132 0.001178008
-3.2183372e-05 0.0010396966 0.0013175959
-0.00043756916 0.0016647222 0.0017921505
-4.491787e-05 0.00088118453 0.00086435012
0.00048685662 0.00072052953 0.00055924617
8.4178653e-05 -0.00012816141 0.00016235764
0.000291153 -0.00028722736 -0.00033793156
-7.5769727e-05 0.00020779971 -1.7619655e-05
0.00052342855 0.0003512133 0.00036689377
8.1694678e-05 0.00062392122 0.0009693029
0.0001307528 0.00086461438 0.0014350854
0.00030012883 0.0011839308 0.0018305735
-0.00030990576 0.0017491747 0.0022857764
0.00035401309 0.00038277041 0.00088997663
-7.3253468e-06 0.00077547936 0.00070191611
0.00011256211 0.00072102022 0.001248701
9.4498428e-06 0.0009698536 0.00097706344
0.00046550366 0.0013560328 0.0015653429
0.00010579183 0.0030363302 0.0027887132
-0.00046991662 0.0016697102 0.0017883768
-0.00012298852 0.0010661905 0.002083184
0.0001256316 0.00082030304 0.00068217388
0.00012570669 0.00036778764 0.00038665431
0.00038583099 0.00035480002 -0.00010597309
-0.00013431687 0.00060317735 0.00034390818
0.00018311414 0.00083442859 0.0012720297
-0.00014757106 0.00076515629 0.0012689908
0.00020407482 0.0009010387 0.0017090539
0.00016340337 0.0010684646 0.0020658539
-0.00044446043 0.0013666638 0.0021651157
0.00029808434 -4.6640958e-05 0.00089682313
0.00031308629 0.00087147066 0.0010110608
-0.00011936361 0.0006693402 0.00070266827
0.00022180691 0.00048593251 0.00059913006
0.00021508211 0.0017082335 0.0012513964
-0.00033317 0.0022471815 0.0017461126
8.2563885e-05 0.0018428067 0.0015360792
-0.00011501182 0.00077175483 0.0018833085
-0.00017123492 0.00084745878 0.0013138506
0.00048058081 0.00030212515 0.0005343688
0.00036032411 0.00070775556 0.00032017916
0.00013865398 0.00083280558 0.00044950351
8.9135363e-05 0.00099316437 0.0011570046
0.00025493876 0.00067455421 0.00097820105
0.00031577449 0.00075048266 0.0014282118
-0.0002272018 0.00060796726 0.0015949993
-0.00030746279 0.00080298586 0.0020135359
-0.00018036141 -0.00081229029 0.00064963318
-9.9984107e-05 0.00055681716 0.00062044145
0.00035820139 0.00049303187 0.00069486763
0.00014227006 0.00078498421 0.00059247593
-0.00022536598 0.0007522236 0.00076326868
0.00025218015 0.0012954549 0.00088956382
6.1025825e-05 0.0019310095 0.0014999566
-0.00014207597 0.00080412516 0.0021008409
0.00025261138 0.0011589502 0.0018892011
0.00045071464 0.00030740359 0.0010902762
7.1925497e-05 0.0010087324 0.00081591617
0.00040910157 0.00098362344 0.0005617229
0.00040549869 0.0010790097 0.0007362616
0.00086368172 0.00056603737 0.00096531695
0.00048886979 0.00041587811 0.0011583888
6.8116686e-05 0.00028050196 0.0012541199
-0.00039877687 0.00042366504 0.00089933316
0.00032222431 -0.00083516497 0.00032717455
0.00024205673 -0.00041226004 0.00054894621
0.00023077705 4.6919999e-05 0.00048217009
-0.00015558689 0.00026484506 0.00049672433
0.00039881901 0.00041980372 0.00071392936
0.00030490637 0.0019103287 0.0012895621
9.8505145e-05 0.0021446219 0.0013560927
0.00029795617 0.00070773496 0.0014843966
0.00025280763 0.00063245906 0.001224519
7.3599505e-05 0.00045567576 0.0016127594
-7.3492542e-05 0.00092743378 0.00076417881
0.00043955055 0.0010111228 0.00034352517
0.00072757143 0.00081898732 0.0004051525
0.00093861396 0.00073820492 8.0769663e-05
0.00093024084 0.0003516365 0.00049842888
0.00040809452 6.2750805e-05 0.00074143917
-7.0416158e-05 0.00016846423 0.00075602648
-0.0002812212 0.00029625464 0.00034214696
0.0001070983 -0.0014013785 0.00077511184
0.00033767236 -0.00083583151 0.00037825026
2.8864441e-05 -0.0010022393 0.00015283471
0.00011689616 -0.00061575015 0.0001816202
0.00010249209 0.00038175061 0.000761954
-0.00017708806 0.00094991701 0.0006415096
0.00035175282 0.001446423 0.00071228592
0.00020147557 0.00084314297 0.0014111836
-4.8234092e-06 0.00038329762 0.0012398334
-3.6105916e-07 0.00056341209 0.0015757828
9.3179558e-05 0.00073491951 0.0010681034
0.00073628896 0.0010586407 0.00038828349
0.00056959572 0.00065725233 0.00027377534
0.00047196067 0.00052062667 0.00015313018
0.00089926983 0.0005009874 0.00024020243
0.00099683029 0.00058563333 -0.00039156014
0.0010092844 0.00078968139 0.00022492303
0.00091421074 0.00095660466 -6.3001615e-05
0.00075871137 0.00074092462 -0.00062190089
0.0001759133 -0.0017265442 0.00029511296
5.3797543e-05 -0.0010335357 0.00036097111
0.00012182568 -0.00099492422 0.00029632109
0.00030845398 -0.0008510779 0.00021807803
-0.00021875721 -0.00033167939 0.00044949359
3.6628029e-05 0.00012771397 0.00045433157
0.00020796531 0.0024490382 0.0013307525
-4.0906576e-05 0.00044221891 0.00056466099
1.7958517e-05 0.00019111624 0.00055614568
7.4805016e-06 0.00023637534 0.00013472232
0.00067281467 0.00060061086 0.00082780403
0.00068484165 0.00079375884 6.9933449e-05
0.00049421424 0.00019765612 0.0001313594
0.00073571422 0.00036802085 1.6013295e-05
0.00090699748 0.00060178345 8.7580047e-05
0.00070039043 0.00087505102 -0.00061099691
0.0010257892 0.00096910505 -0.00035046772
0.00095845899 0.00099565869 -0.00045622798
0.00074625365 0.00078538625 -0.0005876075
0.00071619119 0.00071991334 -0.00095332804
-1.7983937e-05 -0.001965397 0.00076991436
0.00010104745 -0.00096164073 0.0005333228
0.00036388417 -0.00070990424 0.000194398
-7.8326557e-05 -0.00091887859 0.00036299138
-0.00016410997 -0.00029656236 0.00010952372
-0.00035463547 -0.00036668003 0.00053984777
-0.00076459657 -0.00010853284 -0.00025236272
-0.00057063589 0.0003581318 -0.00018602231
-0.00021539413 4.1146181e-05 -0.00059812097
6.8145455e-05 0.0001211927 -0.00053342432
0.00034890187 0.00063118484 0.00017706674
0.00061470369 0.00046572491 -0.00017530633
0.00059794215 0.00026750338 -0.00016774598
0.00051817112 0.0003411549 9.1242509e-05
0.00054863293 0.00075000792 -0.00026505688
0.00046562334 0.00069577759 -0.00053823489
0.00063568377 0.00078216399 -0.00048087578
0.00080671994 0.00071517 -0.00059032324
0.00060324278 0.00083770248 -0.00082174869
-2.7143606e-06 0.00059721316 -0.00090162433
0.00014571322 -0.0015074806 0.00057560275
0.00020394176 -0.00090472959 8.3503641e-05
-0.0001043201 -0.00055722409 0.00033970864
5.5891298e-05 -0.0004600778 0.00014238179
-0.00041235212 -0.00060921116 0.00036407707
-0.00039425533 -0.00043496586 -0.00015825027
0.00044048278 -0.00030999453 -0.00032277321
-0.00057695608 -0.00047853048 -0.00076387054
-0.00026691635 0.00012904986 -0.00010291039
-0.00041018921 8.7849301e-05 -0.00090121798
0.00036888302 0.00057767384 -0.00019875741
0.00027042482 0.00042650965 -0.0001639464
0.00043523341 0.00017323997 0.00012402039
0.00055215275 0.00036824701 0.00021583909
0.00028116733 0.00085818401 0.00022914975
0.00013760362 0.00077162468 -0.00022565298
0.00037995068 0.00047731341 -0.00066591892
0.00072604237 0.00063867797 -0.00084812834
0.00058900344 0.00078776095 -0.00093224988
0.00024566569 0.00052404561 -0.0012659814
-1.0188899e-05 -0.0022689286 0.0012466345
-6.1562554e-05 -0.00072864711 0.00025175579
0.00035766762 -0.00010126756 0.00042551389
0.00048217599 7.4490781e-05 0.00061064161
0.00023672954 -0.00029820413 0.00010336365
-0.0010909768 -0.00053335301 -0.0002909287
-8.3830397e-05 -0.00045639693 -0.0019107212
-0.00052414328 -0.00061571487 -0.0011462535
-0.0019630445 -0.0020101278 -0.0024186017
-0.0019806207 -0.0017089475 -0.0026368892
-0.0020484263 -0.00027899625 -0.0010000725
0.00015181147 0.00040644355 -0.00033391005
0.00025037548 0.00012024841 0.00048859289
0.00042163295 0.0005615133 0.00083919783
0.00036494469 0.0010528318 0.00063477008
0.00020244977 0.00087543734 5.844422e-05
0.00023476782 0.00018935418 -0.0007124226
0.00039152446 0.00044121157 -0.00098198315
0.00068596867 0.00048180227 -0.0011644817
0.00017355905 0.00038079225 -0.0012729657
0.00017863391 -0.001138445 0.00068845233
0.00014602467 -0.00018758303 0.00034736693
0.0001057499 0.00073570706 0.00063073629
0.00016396114 0.00050353416 0.000603828
-0.00038966277 -0.00024269942 -0.00011252033
-0.00029520792 0.00012927182 0.00060467579
-0.00010283489 -0.00014452804 -0.00080393784
-0.00082639465 -0.00054724416 -0.0010079113
-0.0026834453 -0.002915584 -0.0040392093
-0.0013604199 -0.0013554571 -0.0013344559
-0.0017107701 -0.0010920789 -0.0013989772
-0.00088363519 -0.00035311389 -0.00059883797
3.8804068e-05 0.00014316117 0.00031376764
0.00016620483 0.00048019405 0.00030351142
0.00048095651 0.0009376618 0.0011488639
0.00049932685 0.00036574155 -0.00014476763
0.00042038359 0.00010626818 -0.0009260978
0.0005510734 0.00037792267 -0.0012260427
0.00028679907 0.00043598394 -0.0013042423
0.00011916824 0.0006338089 -0.0012731571
0.0007914782 0.00037699996 -0.0013686777
0.00010735435 -0.0017389051 0.0013987622
3.1605148e-05 -0.00041255908 -0.00032937943
0.00059674418 0.00077957951 0.00058443536
0.00059551082 0.0010304126 0.00096358644
0.00059891568 0.00076401094 0.00084597542
0.00023638745 3.7759692e-05 1.7474211e-05
-0.00030316564 -0.00027849415 -0.00027163143
-0.00054856186 -0.00081535318 -0.0019977854
-0.0035062465 -0.0022365146 -0.0035947454
-0.0035713313 -0.0023917987 -0.0029828914
-0.0035493644 -0.0027389172 -0.0041320887
-0.00088592683 -0.0013665463 -0.0012389183
-0.00074196554 -0.00051513431 -0.0016257545
0.00033133698 0.00097818428 0.00098213821
0.00057047425 0.00084740849 0.00080130727
0.00071746419 0.00018517756 -0.00014939321
0.00066430814 0.00019470666 -0.00080764014
0.00044403173 0.00033923084 -0.0015656428
9.9987665e-05 0.00081050611 -0.00058061763
-6.2881045e-05 0.0008862979 -0.00089260074
0.00013092424 0.00057358755 -0.0010288062
-0.00014855489 -0.0020667983 0.0017493059
0.00023478748 0.00049725937 0.00029010521
0.00069038873 0.0013520468 0.0014302823
0.0018394395 0.0034313404 0.0030415629
0.0015296096 0.0022770094 0.0022307837
0.0011150423 0.0010478422 0.0018755456
0.00056526839 0.00052416226 0.0017190478
0.00053201581 0.00034962237 0.0012411111
-0.0022730527 -0.0018118198 -0.0039378027
-0.005005308 -0.0039432454 -0.0053708842
-0.00129445 -0.0011222513 -0.001453158
-0.002473373 -0.0019684481 -0.0022085644
0.00027024787 0.00017964521 -0.00018498633
0.00038060383 0.0015078733 0.0015366869
0.00037698765 0.0011878796 0.0014553213
0.00019425683 0.00070197071 0.00054209545
0.0001649394 0.00093504961 0.00013230539
0.00010570264 0.00081482937 -0.00037809124
-5.7980291e-05 0.001158622 -0.00034696021
-6.5946129e-05 0.0009052151 -0.00035925736
0.00022564788 0.00073341059 -0.00099500106
-0.00051530008 -0.00074834906 9.3728631e-05
0.00011801936 0.00071475131 0.00034205825
0.00015026888 0.00022385377 0.0003154497
0.00015972093 0.0006306048 0.00047686521
0.00062210788 0.002778796 0.0033383965
0.00032227815 0.0010307343 0.0020108847
0.00040248796 0.001707488 0.0032780084
-0.0015412857 -0.0013627573 -0.0022737465
-0.0051648053 -0.0038769387 -0.0064846762
-0.013152493 -0.010097571 -0.014370964
-0.0049144067 -0.0041426439 -0.0041965987
1.6210093e-05 -0.0011850599 -0.0013710543
0.00026713993 0.00074325141 -4.6941976e-05
0.00025933492 0.00097918592 0.0017387043
0.00017382673 0.0014023252 0.0010472577
-0.00016928407 0.001375838 0.00062114664
-0.00012934553 0.0011029777 8.3475163e-05
-7.4286138e-05 0.0011927263 -0.00033504132
0.00011559858 0.0010424808 -0.00060133659
0.0004345768 0.00074845913 -0.0008941241
3.4928718e-05 -0.0017360846 0.0022112206
5.7858011e-05 -0.00081432785 -0.00021566094
-0.00042687746 0.00031288189 0.00096214656
0.0001767535 0.0022643716 0.0031622013
0.00012061081 0.00087626628 0.0011226018
4.5522684e-05 0.00090800045 0.0026135244
1.7562261e-05 -7.8568963e-05 -6.7269444e-05
0.00012686782 -0.0010603842 -0.0029061125
0 0 0
0.0032352952 -0.0047084652 -0.007868195
0.00082351558 -0.0027552517 -0.0033487077
-9.5764073e-05 0.00047824549 0.0011270925
-2.0293581e-05 0.00093718374 -0.00015781001
-3.0946347e-05 0.0010009973 0.0015959177
2.7292466e-05 0.0012179923 0.00091438444
0.00012257414 0.0016707692 0.00073924835
3.0495681e-05 0.0010568466 0.00022896948
9.1347421e-05 0.001298565 -0.00024539337
0.00025434059 0.00090847193 -0.00054022734
0.00050309533 0.0010355256 -0.00079556904
-0.00011723135 -0.0015943191 0.0016637353
9.5482763e-05 -0.00064798055 -0.0002205824
5.2579449e-05 -0.0002288963 9.9149031e-05
5.0072904e-05 0.00034949032 0.00058233395
-0.00032992303 0.00083419005 0.00073610636
-0.00037809936 0.00073795579 0.0021623238
1.7812097e-05 -6.2268286e-05 -8.6639979e-05
0.0013436616 -0.0021899035 -0.0028217463
0.00074082019 -0.00062354805 -0.00084580603
0.00076030771 0.00043466655 0.00097210007
-0.0006583035 0.0010178003 0.00097091211
-0.0006533197 0.0021194671 0.0016150111
-6.8766472e-05 0.0010308088 0.0015340574
0.00047782442 0.0012881878 0.0012246557
0.00019162368 0.0012836967 0.00093632855
0.00032419554 0.0011670466 0.00054003712
0.00045240507 0.001648279 0.0001656086
0.00022839819 0.0011844408 -0.0003302535
0.00036674252 0.0012606017 -0.00064419192
0.00028634476 0.0012224335 -0.00064299925
0.00014061078 -0.0020450819 0.0016056406
-0.00013843352 -0.0014286622 1.2933684e-05
-6.9280999e-05 -0.00097978499 0.00010175127
-0.00045250167 0.00031548305 0.00067848008
-3.2336899e-05 0.00016312442 0.00012345817
2.9620353e-05 0.00038180806 0.0006346156
0.00013757577 0.00050402648 7.9235142e-05
0.00019148609 4.61073e-05 7.449188e-05
-0.00034869023 0.00040275353 0.00059928582
-0.00018792161 0.00019285199 0.00043564179
-0.0026275748 0.0031552804 0.0048762886
-0.0014033169 0.0023753489 0.0033783377
0.00019457802 0.00099940621 0.0018137364
0.00036142636 0.0022772762 0.0014371797
0.00029294469 0.0015464188 0.0010829456
0.00020654584 0.0011339405 0.00032443379
0.00021028212 0.001564336 -9.1062335e-05
0.000158999 0.0012608405 -0.00032928621
0.00018414258 0.0013095203 -0.00049528771
0.00014176557 0.0013807286 -0.00042984798
-0.00014456717 -0.0015387943 0.00090919971
-7.5723096e-05 -0.00091363472 8.4297135e-05
-2.4332856e-05 -0.00054268737 6.5067921e-05
-8.2680082e-05 2.1591613e-05 0.00037420166
-6.2008739e-06 0.00020124634 0.00055165554
-0.00011668233 0.0015253993 0.0013411841
0 0 0
4.6162957e-05 0.00084521226 0.0012154502
-4.0597483e-06 0.00060876639 0.00076211127
-0.00036015431 0.00058637891 0.0018348703
-0.0021480601 0.0022285869 0.0048281411
-0.00098862953 0.0017513481 0.0023673424
-0.00018307204 0.0019167424 0.0013203695
2.3437711e-05 0.0010845384 0.00085738621
0.00013346308 0.0014449717 0.00051396445
2.2432361e-05 0.00099010009 9.0724301e-05
5.0340703e-05 0.0015262079 -0.00018894892
0.00010427903 0.0013222459 -0.00036800769
0.00010743445 0.0013855085 -0.00035354836
-7.9094461e-05 0.0014917101 -0.00028434355
2.2343251e-05 -0.0021883268 0.00053409697
-0.0001583908 -0.0023147801 -0.0002002891
-8.2242796e-06 -0.0017048969 0.00018686018
0.00016455509 -0.00031045912 0.0006680041
8.8963177e-05 -0.00019122254 0.0015985523
3.0389263e-05 0.0022810418 0.0015286829
8.4299099e-05 0.00071879331 0.00065350044
0.00027835631 0.0011628658 0.001609749
-0.00021560919 0.0019621933 0.0036393434
-0.00071607769 0.0012820468 0.002381312
-0.0021648372 0.0018760577 0.0031030925
-0.00087662542 0.0022777717 0.0010981557
-0.00020158252 0.0013752183 0.0003242869
-0.000130039 0.00064865116 0.00013013805
-0.00010731469 0.00090564275 -0.00020128519
-6.3975262e-05 0.00092620146 -0.00032113859
-9.4091913e-05 0.001424948 -0.00030756128
1.6630538e-05 0.0013665678 -0.0001252066
5.5639299e-05 0.0015460787 -0.00033433156
-0.00034574192 0.0016150138 -0.00026661309
-1.8070601e-05 -0.0013061929 6.5876317e-05
-0.00019175591 -0.0011038006 -0.0004807736
-0.00051385892 -0.001387461 -0.00071725511
-0.00029855801 -0.0005573174 -0.00014190792
-0.00022315882 -0.00030997672 0.00030965341
-8.5787025e-05 0.00027974011 0.00099759339
0.00053678255 0.0022793696 0.0016888529
-4.670343e-05 0.00054733403 0.00065287272
-4.1367141e-05 0.000622697 0.0014122347
-0.00026228753 0.00069191493 0.00091952481
-0.00016455473 0.00099587359 0.00015675352
-0.00020289734 0.0005555838 -0.00027048207
-0.00020452825 0.00055487856 -0.0003812419
-0.00019723528 0.00048587364 -0.00030957526
-0.00022815056 0.00075034663 -0.00054863025
-0.00020774514 0.00093054835 -0.00044406153
-0.000202564 0.0013603718 0.00016812597
-4.1585376e-05 0.0014188353 -0.0001762449
0.0001334124 0.0015941088 -0.00023917135
0.00012438066 -0.0019077817 -0.00097326247
-6.0037523e-06 -0.002388618 -0.0014098481
6.9438342e-05 -0.0023592093 -0.00095137092
-0.00010513833 -0.0010300188 -0.00024076909
0.00013829448 -0.001308185 5.4665361e-05
0.00024325962 -0.00052784471 0.00085332798
0.00014530809 -0.00025498602 0.00088523404
5.0035183e-06 -0.00054714386 -8.5174484e-05
-0.00025971548 -0.00023465333 -0.00035184104
-0.00020072996 0.0011128448 -0.00073437323
5.2164083e-05 0.00072043593 -0.00089354411
0.00036449032 -0.00027662076 -0.0015762654
0.00011069148 0.00012382869 -0.00039087248
-0.00020046074 0.00035762679 0.00011444664
-3.9685136e-05 0.00030252879 -0.00049303524
-9.6565651e-05 0.0001345098 -0.00061887357
-0.00024099811 0.0011575491 0.0001043798
0.00012810102 0.0014453259 -5.5588866e-05
0.00024647999 0.0015567938 -7.0215654e-05
0 0 0
0.00021075431 -0.0012850252 0.00031112949
0.0004259336 -0.0022707745 -0.0011335906
7.1014212e-05 -0.0012159173 -0.00089159783
-0.00013602662 -0.0012103107 -0.00091938849
9.4975534e-05 -0.00039247106 -0.00032365846
-0.00012180245 -0.0004320328 -7.9353173e-05
-0.00027052482 -0.00026960403 0.00021801073
-0.00042765634 -0.00021374601 0.00013969652
2.0481004e-05 -0.00036632168 0.00062377448
0.00018283811 0.00047297697 -6.8156107e-05
-0.00027368005 0.00051182194 8.1230355e-05
-0.00010988772 0.00028955584 -0.00068197906
-2.3147626e-05 -0.00082538108 -0.002108719
0.000102949 -3.8239112e-05 -0.00082671945
0.0001740095 0.00012830083 -0.0002176659
0.00013004939 0.00054320006 -0.00073087408
0.00027296838 2.8447614e-05 -0.0015565202
6.8663619e-05 0.00068517728 -0.00073595275
0.00020344277 0.001127735 -0.00050233083
0.00025863442 0.0018703105 -0.00010400645
-9.0281559e-05 -0.00062111439 0.00021194707
-0.00047767072 -0.0024605987 -0.0013468588
-0.00043276144 -0.0021974661 -0.0016992973
-0.00030591723 -0.0028667683 -0.002110624
-3.8256032e-05 -0.00090563716 -0.00026424753
0.00024346827 -0.00048086088 -0.0002364595
0.00030077546 6.579714e-05 0.00038164153
0.00018266878 0.00068709737 0.00048420421
-0.00038724011 -0.00012989683 0.0001139653
-0.00027737184 0.00073082099 5.2812088e-06
0.00041114254 0.00036796409 -0.00046912357
0.00025912543 -0.00049718353 -0.0011214575
-4.8698075e-06 -0.00041930209 -0.00094003486
-0.00019241123 -0.0001544735 -0.0013337313
-5.5029061e-05 -0.000392616 -0.001839339
9.135282e-05 7.8501529e-05 -0.0014604132
0.00051133416 3.0917186e-06 -0.0018334637
0.00036230864 0.00021223394 -0.001397959
0.00015322081 0.0010410384 -0.00033542878
6.0360067e-05 0.0018302478 -0.00038758159
4.7640984e-05 -0.00095617492 0.00029623084
0.00059675984 -0.00094869925 -0.0010713259
0.00012701894 -0.00096410344 -0.00084643712
5.3459273e-05 -0.00057890482 -0.00023342816
-4.2718846e-05 -0.00075636373 -0.00076735026
-0.00029247961 -0.00025975483 -0.00025983661
0.00011217041 -0.00036063965 -0.00029647045
-6.5671047e-05 0.0012569281 3.4524215e-05
0.00022089281 0.0011749294 0.00069441041
0.00012095672 0.0007689108 -0.00045889898
-7.6098171e-05 0.0003245018 -0.00030993472
0.0003582247 -0.00060008059 -0.0010822666
0.00052937103 -0.00055585429 -0.0014684161
0.00011655356 -0.00025357064 -0.0014199172
-0.00016739299 -6.2296982e-05 -0.0013023432
0.00033251013 0.00025526297 -0.0020932057
0.00064247393 -1.1218474e-05 -0.0018022642
0.00066582713 0.00018777292 -0.0010619122
0.00029629908 0.00031276053 -0.00038716989
-9.2681048e-06 0.001239703 -0.0001827356
0.00027712595 -0.0015043648 -8.8633962e-05
0.00015794126 -0.00050697534 -0.00070475973
1.2301821e-05 -0.00073029473 -0.00079642452
0.00012605602 -0.0010380257 -0.00084113551
0.00013836259 -0.00062640465 -0.00060355081
0.0002166315 -0.00035226723 9.1072776e-05
0.00011013755 -0.00039024264 -0.00033824894
-2.6164995e-05 7.6831857e-05 -0.00024505076
-0.00046755988 0.00060259568 7.7314347e-05
0.00040705796 0.0016663003 -0.00022648345
-0.00013194923 0.00020116853 -0.0001477482
0.00011123995 -0.0005586808 -0.00077447819
0.00027186575 -0.00024425247 -0.0011586242
0.00031224953 -4.9281458e-05 -0.001475291
0.00044460833 -0.00011713601 -0.0016913872
0.00020836366 -4.0478702e-05 -0.0016193807
0.0010182328 3.2860444e-05 -0.0018127393
0.00079460605 0.00054174504 -0.00072935532
0.00061523187 0.00073456235 -0.00089485943
1.8773321e-06 -0.0013294112 0.00041407181
0.0005055854 -0.0010148176 -0.0011879038
0.00065462047 -0.0011389466 -0.0016505955
0.00059055915 -0.0015372677 -0.0011384065
0.00021943901 -0.00055603776 -0.0004371409
-9.4711868e-05 -0.0001963845 -0.00017983257
-4.6850641e-05 8.2610917e-05 0.00010385482
-1.8669161e-05 8.6220978e-05 -0.0002429021
0.00067793543 0.00028436011 -0.00043227992
3.875227e-05 0.001793261 -4.8710011e-05
0.00033828156 0.00028775475 3.1086707e-05
2.2533268e-05 0.0002052397 3.4162065e-05
0.00029679236 -0.00033019079 -0.00096843875
0.00028484283 0.0001742733 -0.0013362626
0.0004819842 0.00010366718 -0.0013134569
0.001093858 -1.5100819e-05 -0.0016826948
0.0013379748 0.00011805943 -0.001308242
0.00089736859 0.0007139346 -0.00097581791
3.1529595e-05 -0.00063148898 0.00023655737
0.00064424385 -0.00064114749 -0.00059798104
0.00092629017 -0.0011148113 -0.0010879199
-7.9041369e-05 -0.00049997109 -0.0003945356
0.00023072321 -0.0011717391 -0.0011812357
0.0005283971 -0.0010119908 -0.00090002624
0.00059463922 -0.00078527199 -0.0010077838
0.00061264378 -0.00068216026 -0.00094473117
0.00012724503 0.00011610863 -0.00028250212
0.00044856413 -0.00042734644 -0.00091066945
3.1823183e-05 0.0007378913 0.0002708105
2.1101578e-05 5.9300637e-05 1.8093961e-05
-7.3183153e-05 3.5601937e-05 -0.00020436864
0.0005437886 3.131943e-06 -0.0010751652
0.00050885283 0.00059991021 -0.00086706376
0.001117377 0.00016130983 -0.0013367445
0.0013811185 0.00098981487 -0.00067187235
3.9349135e-05 -0.00056924456 0.00087306835
0.00052171532 -0.00031407818 -0.00028991868
0.00066164805 -0.00072942337 -0.0011179295
0.00056157913 -0.00098997005 -0.0012688763
0.00021140142 -0.00028227028 -0.00045660249
0.00014373258 -0.00035262105 -0.0001370344
0.00022439069 -6.2572093e-05 -0.00059653184
0.0004281397 -0.00043649494 -0.00088661979
0.00063792599 -0.00038848809 -0.00066813757
0.00054579391 0.0002303764 -0.0010083313
-3.6352412e-05 -1.1865732e-06 -0.00027283782
-0.00011595362 0.00045879034 -9.779963e-06
0.00011777036 0.00018523032 -0.00030613755
0.00068057032 0.00066885882 1.3735148e-06
0.00070788187 0.00065439986 -0.00012213655
0.0013980285 0.00086851348 -0.00046600017
0.0010274888 0.0016703114 -0.00012937101
0.00037985062 -0.00069498661 0.00050196011
0.00027681992 -6.5067055e-05 2.1774156e-05
0.00028100619 -0.00026756604 -0.00049701938
0.00074008328 -0.0013100584 -0.0015992207
0.00064440118 -0.00099143886 -0.0011703356
0.00022467462 -0.00028553547 -0.00038747452
6.4461319e-06 2.4632366e-06 -8.8453788e-05
0.00019856932 0.00081458903 -0.00055576122
0.00010395847 4.1899817e-05 -0.00014589167
0.00040882299 0.00062959496 -0.00046576798
0.00032655109 9.1001901e-05 -0.00028403185
0.00032809586 0.00051679247 1.3342114e-05
0.00030223242 0.00045331719 7.4992342e-05
0.00046337306 0.0010486306 0.00048494647
0.00099843321 0.0017163588 0.00073880103
0.0011439394 0.0013539444 0.0002960772
-0.00017539176 -0.00020158889 0.00083558436
0.0001617474 -0.0002800411 -8.0336642e-05
0.00048251782 -0.00038582881 -0.00046584677
0.00039144256 -0.00050225935 -0.0005147091
0.00013901611 -0.00029948176 -0.00017877047
1.8054121e-05 -0.00019215209 0.00014598243
0.00018193625 0.00033204557 0.00028314843
7.8206918e-05 0.00023028722 -0.00014539457
0.00019129996 0.0010352809 0.00073687505
-4.9571721e-05 0.00067048747 -0.00013002238
0.00011562082 0.00065289752 0.00032715715
0.00026803979 0.00087225431 0.00019418546
0.00014930402 0.0010080391 0.00057185395
0.00059799943 0.001588963 0.00089594233
0.0005444102 0.0019836661 0.00084084127
0.00084131456 0.0020920713 0.00085740472
6.8937967e-05 -5.9502395e-06 0.0002345221
-7.9283564e-05 -0.0002618134 -4.3196094e-05
0.00012536228 -0.00021684164 0.00010003005
0.0001763239 -0.00054441241 -0.00045653502
1.4863669e-05 -5.1303192e-05 -1.9029703e-05
-0.00018120503 -0.00016597239 -0.00016552418
-0.00014471886 5.7351543e-05 -8.4311039e-05
0.00017889259 0.00083586317 -9.718191e-06
-0.00011842939 0.00084689131 0.00034214591
-1.0419905e-05 0.001053286 0.00086910056
-0.0002411029 0.0010777841 0.00045816222
0.00091072684 0.0012528485 0.00079223764
0.00010315063 0.0014757817 0.00092789548
0.0001327178 0.0017681487 0.0010550923
0.00079952361 0.0018918404 0.0010057532
2.040471e-05 -5.8957979e-05 0.00052719528
0.00010964034 -4.0916411e-06 0.00029540766
6.4241263e-05 -8.1162347e-05 0.00033154496
-0.00027078186 -0.00039466814 -7.8824596e-05
-0.00025531795 -6.1495863e-05 -3.5147496e-05
-5.8809368e-05 5.1291274e-05 7.3973708e-05
0.00072976697 0.00092520704 0.00025660178
0.00013859807 0.00046020275 0.00025063226
2.3156907e-05 0.00057318329 0.00016892029
0.00051734806 0.0012657567 0.00056606665
0.00036157944 0.0016828307 0.00080836535
0.00032918758 0.0012204889 0.0011001333
0.0011051546 0.0013403523 0.00077919575
0.00081312435 0.0017120717 0.00044433714
0.00072851841 0.0022209943 0.0013230628
0.00012512032 0.00018489767 0.00048065284
-5.3058178e-05 6.5849148e-05 0.00019563451
6.1362095e-07 -0.00010297757 0.00037065471
0.00015482389 -0.00014005715 4.0180589e-06
9.588481e-05 -5.8382451e-05 -2.8127881e-05
-0.00021255203 -5.5679175e-05 -0.00058072817
-3.7507729e-05 0.00010318669 0.00013799089
7.600469e-05 0.00068796566 0.00020110184
-0.00017753932 0.0014568283 0.00066916982
6.6145454e-05 0.0015163531 0.00082925369
0.00060228538 0.0018502633 0.00069284142
0.00045302417 0.0017862552 0.0016756097
0.00049623742 0.0012435059 0.0012903697
0.0011201523 0.0015093324 0.00062307896
0.00041683123 0.0018936519 0.0010321151
-0.00016963 0.00039311379 0.00034378489
0.00018747298 -0.00012046296 0.00010635598
-0.00011488471 -0.00031410131 -7.3067124e-05
-0.00015333516 -8.5262131e-05 3.22956e-05
-0.00015272689 -0.00011670896 5.243707e-05
-2.3844572e-05 -0.00016633885 -6.890537e-05
-0.00021370496 9.5384261e-05 -0.00010784173
-0.00013994265 0.00035253281 6.8509245e-05
0.00029386839 0.001015847 0.00045424799
-0.00017076469 0.0013257099 0.00029329472
0.00075383659 0.0018931113 0.00073449296
0.00045255787 0.0014006606 0.0013662514
0.00014453231 0.0014308713 0.00084423542
0.0011883321 0.0010396121 0.00032115521
0.00029673733 0.00025627634 0.00050318986
-0.00012254612 0.0001428558 0.00039072314
6.8844522e-05 -0.0001515975 0.00038587724
0.00034156215 -0.00012370576 -4.5602719e-05
-0.00015845752 -3.2391952e-05 -2.7682003e-05
-0.00034144433 -0.00041946623 -0.00043618676
-0.00013921226 0.00017719014 0.00030982355
3.5631943e-05 0.00034684126 -6.0953327e-05
0.00064645079 0.00035406198 -0.00027958464
-0.00014250506 0.0012141977 -0.00044263271
0.00065819541 0.0020103187 0.0012092447
0.00065209909 0.001365558 0.001000692
0.00095423841 0.0010466098 0.00052004162
0.001666658 0.00055485562 1.5634998e-06
-0.00027099592 0.00071694487 -8.4467618e-05
0.00015154111 8.5089603e-05 0.00026427736
-0.00019247633 -0.00017406183 -1.697854e-05
-0.00015567181 -7.3495627e-05 -4.1751951e-05
7.4486081e-05 -0.00022732245 -6.8952038e-05
1.5731528e-05 -0.00026737669 -0.00031745958
-0.00013429706 -4.6098376e-06 -0.00027605917
-0.0002851699 0.00030161563 -0.00056137925
-0.00047042538 -8.889626e-05 -0.00069930701
-0.00011522452 0.00038404111 2.1254133e-05
0.0002812928 0.0012703025 0.00074872165
0.00099623273 0.00073427142 0.0006806663
0.001372579 0.00056406658 4.3153381e-05
0.0016193036 0.0011421125 -2.7700713e-05
0.00014770751 0.00029433015 0.00042361693
-0.00030473791 0.00011491185 -8.9979505e-05
-0.00022960718 -0.00024597108 -0.00010836061
-6.9430876e-05 -0.00011940427 -7.0600276e-05
-0.00028527682 -0.00015559136 -0.00023868994
-0.00019758873 -0.0002691024 -0.00054198841
0.00018419052 -0.000434257 -0.00036766686
-0.00029097631 -0.00026389115 -0.00076395378
-0.0004917648 1.6807904e-05 -0.00055269967
0.00044574507 0.0015093728 -0.00038321459
0.00075551291 0.0014696422 0.0012610623
0.00072198029 0.0010529866 0.00073773891
0.00082333683 0.00033300917 0.00051305169
0.00038335245 0.0017679026 0.00039937167
0.00016099763 0.00015607144 0.00030351532
-0.00053285569 -0.00048819077 -0.0004251106
-0.00068097358 -0.0002431203 -0.00042467142
-0.00021749655 -0.0002228536 -3.436525e-05
-6.2792293e-05 5.6862202e-05 -0.00017717872
-0.00013331902 -0.00015376827 -9.3853574e-05
-3.4417353e-05 -0.00029766877 -0.00077726936
-0.00011834687 0.00023428534 -0.00060668448
0.00044830685 0.0020836859 0.00022237567
0.00069051125 0.0016858066 0.00084158109
0.00011032326 0.00054398621 0.00057718199
0.00073906773 0.00061746553 0.00075061899
0.00015397705 0.0022606156 0.00077216112
-0.00026862949 -0.00037650156 -3.1763793e-05
-0.0008211573 -0.00042151142 -0.00040765866
-0.00030764382 -0.00033123791 -0.00021154854
-0.00047168855 -1.0207979e-06 -0.00031134806
-0.00045463763 -0.00019118581 -0.0001783481
-0.00016184887 0.00028374651 -0.00034540429
0.00037660293 0.00097525993 -0.00048256054
0.00032864994 0.003995541 0.00061788247
-1.270205e-05 0.0013078777 0.00085211918
2.3221633e-05 0.00083105708 0.00076690578
0.00032059557 0.00021149064 0.00066985603
0.00074005104 0.0024998398 0.0012921311
0 0 0 1 0 0 0 1 0 0 0 1 0 0 0 0 0 764 1 0 0
