ply
format ascii 1.0
comment PCL generated
element vertex 764
property float x
property float y
property float z
element camera 1
property float view_px
property float view_py
property float view_pz
property float x_axisx
property float x_axisy
property float x_axisz
property float y_axisx
property float y_axisy
property float y_axisz
property float z_axisx
property float z_axisy
property float z_axisz
property float focal
property float scalex
property float scaley
property float centerx
property float centery
property int viewportx
property int viewporty
property float k1
property float k2
end_header
-0.0017863057 -0.027740415 -0.0079762777
-0.00060877431 0.002706775 -0.00021421465
-0.0048435726 0.031191861 -0.0025443947
-0.0011049721 -0.015816698 -0.004156264
-0.0020449415 -0.023498926 -0.0063262703
-0.0021059252 0.0071042958 0.043064177
-0.0024202815 -0.013417541 0.018056395
-0.0012085234 -0.011088656 -0.008095148
-0.0019805583 -0.033677939 -0.02058596
-5.9907061e-06 -0.00011016084 -5.5331559e-05
-1.7458378e-05 -0.00033604726 -0.00028949557
-0.0022085286 -0.020508682 -0.036057666
-0.0054241139 -0.056924615 -0.10099588
-0.0017786727 0.0024894907 -0.0048308624
-0.0011766937 0.00033293336 0.013762096
-0.00016867401 -0.0037991828 -0.0028256404
-0.00013245466 0.013274497 0.013113952
-0.00020426103 -0.020396084 0.00047373041
-0.00036362285 -0.0033056024 0.001146247
-7.691835e-06 -2.5195075e-05 2.7024817e-05
0.00012568296 0.0037847136 -1.3294617e-05
0.00076900097 0.030026432 -0.00028130991
3.9735341e-06 0.0007470877 6.0916791e-05
0.00089855248 0.0092160543 -0.00018985796
0.00065025483 0.010993424 2.241979e-05
-0.0030969868 -0.041074187 0.0030783545
-0.0081893206 -0.17623869 -0.11009277
-0.0041004606 -0.087764509 -0.080468521
-0.005668899 0.0049344441 -0.10468955
-0.003400251 0.0039301175 -0.065241307
-0.0027964937 0.0039130254 -0.045176961
-0.0012442176 0.0029104738 -0.025198972
-0.00072726386 0.0010059923 0.010345268
0.00025331805 0.05073151 0.042982779
-0.00017551852 -0.0011105344 -0.0011440953
0.00018585568 0.01298756 0.00059709349
0.00053179386 0.021858471 -0.00051445776
0.00056260743 0.013268614 0.00018228387
6.2525163e-05 0.0013250521 0.00015553136
0.00046311936 0.023993397 0.0015362765
0.00034792171 0.014885808 -0.00067722588
0.00066641648 -0.0013831806 -0.00084647589
0.00069299672 -1.2190686e-05 -0.00047660735
-0.00053401256 0.00099429872 0.0011400185
-0.00039881954 -7.9078136e-06 0.00010949868
-0.0021900043 0.0019749172 -0.032173142
4.2055537e-05 0.00079197239 0.00077871798
-0.00069216162 0.0026117545 0.0010778757
7.6968012e-05 0.00039451296 0.0075001586
0.00015244355 0.00089046347 0.026807634
-0.00035202291 -0.0017727506 0.015031353
-0.0012485257 0.0029802171 -0.0028828294
3.078087e-05 0.019008856 0.00034660252
2.91673e-05 0.0025139807 0.00012136729
0.0039245849 -0.0024681159 -0.0017792613
-5.2310753e-07 -2.8945011e-05 1.2412292e-05
-0.00023740834 0.0023114977 0.001447047
0.00033300079 0.00028459248 0.00046751206
0.00069618295 -0.00062088261 -0.00095416151
0.00017896737 -0.00080327137 -0.00025429344
-0.0010569412 0.0014110096 -0.013837505
-0.0013671571 0.005404064 -0.042427283
9.1864231e-06 6.7627457e-06 0.00010379691
-1.1788692e-05 0.001426472 0.00080959196
-0.0013974255 0.0008419418 -0.019022219
-6.7621404e-05 0.0016807968 0.025499525
-0.0004249583 0.0008488759 0.0089357253
-2.676365e-05 -0.00031454305 0.00037006618
-7.3165749e-05 -0.0087338649 -0.0022913115
2.6077656e-05 -0.0080363909 0.00058722752
-3.1832262e-06 -0.00029397698 1.6957663e-05
0.0013826574 -0.0016841234 -0.0019386387
1.4357033e-05 0.00081307971 2.5983954e-05
0.00036415408 -0.0003427997 -0.00062108762
0.00029949271 0.00054939231 0.0011047785
0.0029253659 -0.0031492128 -0.0033349323
0.0004518753 -0.00016848711 -6.8463916e-05
0.00083340099 0.0025333276 -0.034100071
-0.00011253746 0.00095218094 -0.0044206353
5.7291345e-05 0.00040116627 -0.00078317319
-4.8218826e-05 0.0023457771 0.004651384
-0.00022068004 0.00078380125 0.0064565279
5.7230809e-05 0.00062636996 0.0062312908
0.00019035075 0.00026572234 0.028331313
0.0003799164 -0.0048096026 0.038709961
0.000959581 -0.020808639 0.00014737558
0.00069680944 -0.0073792241 0.00056575885
2.1780328e-05 -0.017603636 0.001285373
-7.901324e-05 0.020093398 -0.00057061989
0.0002961721 -0.0043304418 -0.0054479223
0.0010509249 -0.0032816702 -0.0045859148
0.00062401581 -0.0014511709 -0.0017621979
0.00093562552 -0.0021788245 -0.0030369326
9.7718279e-05 -0.00026284668 -0.00031218937
0.00099867245 0.0011570822 0.022290677
0.00018569759 0.00066459156 -0.007845209
0.00017331704 -2.7347207e-05 0.0027622117
0.00014747839 0.00073604943 0.017738096
-4.7104731e-05 0.0017654658 -0.013770431
0.00015122077 0.00031203998 0.01592795
8.7541011e-05 -0.00046300795 0.075760163
-0.00093917461 -0.0028622122 -0.006288622
-0.00022935515 -0.014728191 -0.00082048163
0.00018449205 0.0010946783 -4.2668817e-05
0.00032120946 -0.020428358 0.0017732354
9.2337505e-06 0.0025224607 -9.1250506e-05
0.00049984833 -0.0035023969 -0.0042430679
0.00025152427 -0.0014683666 -0.00063484907
-0.00039154687 0.0019712513 -0.01166807
0.00014933984 0.00032245947 0.050246276
4.8077025e-05 -0.00021415134 0.011290266
-5.2138416e-06 1.1079247e-05 -5.0050989e-08
4.9715443e-05 0.00042446287 -0.0040008421
0.00017681099 0.0020387657 -0.0073932917
0.00019482104 0.00082506286 0.010872282
0.0019981505 0.0028203069 0.0083668791
0.00098042563 -0.00041784786 0.068178371
0.00014940384 0.00034648526 0.047485813
-0.00016018024 0.00015921483 -0.0022751831
0.00077899412 -0.04228076 0.0010332695
-2.1516957e-05 0.014950453 0.00075592444
-1.6733673e-06 -0.00046465939 2.9105262e-05
7.3642345e-06 0.041659445 -0.0017152581
0.00064251554 -0.0013964704 -0.0012502667
-9.7781951e-05 0.00024007612 0.0030604606
0.0001110966 -0.000625038 0.048275772
0.001150497 -7.9360885e-05 0.1238975
-4.9910836e-06 -0.0001316233 0.0091392528
0.0004242693 0.00037079776 0.044598829
9.2679955e-05 3.0312778e-05 0.033813994
0.00039586928 0.00068687857 -0.00079772883
0.00023317942 -0.00057773531 0.027462693
0.00081100967 0.00063774845 0.028769478
0.0004010144 0.0012941298 0.016753199
0.00018544235 0.00084374048 0.0064323386
-0.0006082147 0.00028623338 -0.0058575333
-0.00022485951 0.0015123739 0.00081522728
0.00026842492 -0.016338965 0.0006144389
0.00025130864 0.011411437 0.0011165866
1.6086e-05 0.018777248 -0.00061095005
-2.8975646e-05 0.0065303394 0.00021576528
0.00063801667 -0.014102985 -0.016543278
-3.1137683e-05 -0.00035048035 0.061023418
-8.8354958e-05 5.3257249e-05 0.005946964
2.4735629e-05 5.9074166e-05 0.0024173711
0.00011264216 0.00014021742 0.031189211
0.00043397871 0.00035787834 0.04080512
-0.00016479284 0.00014524873 0.013573957
-0.00047139244 -0.00086605363 0.027545359
0.00038040138 0.00097389647 0.010777527
-0.0012612375 -0.00133539 0.060730845
-4.6443296e-05 0.00033008307 0.0076847854
0.00029382613 0.00030546967 0.008906737
-0.00085566402 -0.00017306517 -0.013974112
-5.3429965e-05 0.0050170859 -0.0011373551
0.00013086946 3.5749147e-06 0.00027710357
0.00042221515 0.011260401 0.0010762388
-1.0170281e-06 9.3841927e-06 1.7910759e-05
0.0005094987 0.044918999 0.0010610626
0.00024869194 -0.019655837 -0.022612367
-0.00026925132 7.9876896e-05 0.018150382
0.00019263859 0.00054099795 0.015007008
0.00080132874 0.00012452541 0.046384931
0.00016044373 0.00043958411 0.01703993
0.00010758729 0.00020644006 0.0089439033
0.0012533839 0.0010807023 0.0063040284
-0.00018132526 -0.00056900014 0.034310289
-0.00056537968 -0.00033299808 0.036961164
0.00012305814 0.00037285787 0.03873013
-0.0020769727 -0.00073545327 0.04758662
-0.002932102 -0.00049419241 0.066510752
-4.7833797e-05 -3.1896627e-05 0.0037110299
-0.00024591861 0.00045243767 0.00067834411
-6.7919987e-05 0.0014580121 -0.00037294815
0.00029180534 -0.0011344682 7.3903648e-05
0.00021297224 -0.00016474734 -0.00011182894
-5.3748165e-05 -0.00026355183 7.6094519e-05
0.0010295457 0.00010461789 0.0017164754
0.00011561345 0.0072071594 0.0055390261
0.00063395232 0.0013244604 0.0077056764
0.00023741704 0.00053689606 0.014414012
5.1245966e-06 8.7168024e-05 0.017388638
0.00039737992 0.00053793791 0.010327988
-0.00023568928 1.8192701e-05 0.014656653
0.00036311787 0.00021051534 -0.00067756075
-0.00048016757 -0.00060154841 0.042754628
0.00025534772 -3.9210034e-05 0.016844993
-0.0018516226 0.00027983234 0.064260356
-8.643826e-05 -7.7993296e-05 0.0044901622
0.00083663478 0.00098905293 0.0019970203
0.00090275495 0.00081206998 0.0013410203
0.00082237989 0.00071234413 1.0033e-05
-0.0013239785 -0.00086545432 0.003107202
-0.00015561903 0.0049272133 -0.001730743
2.5302077e-07 -6.0512626e-05 -2.931199e-05
-7.1032489e-05 -0.00056413427 -0.00024144091
0.00051802973 -0.0017719632 0.00076901738
0.00033546958 -0.00040447153 0.0011414991
-0.00018705192 7.251288e-06 0.00015047716
0.0010773493 0.0020981231 -0.027065093
0.00043192497 -0.006051519 0.00077215652
0.00082310766 0.00031428007 0.00039342276
0.00070848793 0.00097533962 0.00023016588
0.00062208012 0.00090633135 0.029316436
0.00053101673 0.0001464591 -0.00014833082
-0.00014749546 -0.00025903294 -0.0016077632
0.0012055073 0.00082116597 0.046261687
-1.4570495e-05 -3.4138033e-05 0.0016332637
0.00041497464 0.00025609659 -0.00036948553
-0.00018445529 -2.6347238e-05 -0.00022942277
0.0010451055 0.0013189401 0.00090793107
0.0009153994 3.2822682e-05 0.0012539241
2.0416244e-05 -0.00016959741 0.00011293413
-0.00012037258 0.00070341211 -0.00050249742
-0.00039902056 -0.0014842593 -5.0517301e-05
0.00021151808 -0.0010509302 -0.00048115716
8.9325607e-05 -0.00030908844 0.00024994215
-0.00017531999 -0.00031618314 0.00023361327
-0.00070941186 -0.00081446074 -0.0014795426
0.0021815207 0.0021425858 -0.033965502
-0.024001876 0.0014585559 0.001541958
-0.0029589701 -3.0881063e-05 0.00012037721
0.00018704342 0.00055027677 8.0238988e-06
0.00037519881 0.00066818163 -4.9467922e-06
0.0026328156 0.0010047642 0.0035029224
-0.00043927689 -0.00037386009 -0.0020183546
0.00013034743 5.9357611e-05 -8.2250554e-05
-0.00011105785 0.00049028819 -0.003094407
3.7192964e-05 -7.8707002e-05 -0.00011514989
-2.8954471e-05 2.8255306e-05 -0.00038070523
0.00080680021 0.001574592 0.00028059509
6.0560778e-05 -1.3385388e-05 -4.0288902e-05
0.0003333434 -0.00044957903 -0.00061759155
-1.5536665e-05 -0.0001234466 0.00014679738
5.1217336e-05 0.00012390365 -1.5929898e-05
-3.0493984e-05 4.7026944e-05 -7.4833969e-07
-4.5920831e-05 -0.0002885001 0.00029229029
0.00039607353 0.00044961111 0.00095755869
-0.00047385835 -0.00053835736 -0.00050898048
0.00047913159 0.00048324029 0.0007645213
0.0037872866 0.0033805671 0.0036900605
0.00057582924 0.00045151214 0.0005556473
0.0030097172 0.0028692875 0.0036283366
0.0035659845 -0.02563313 0.0028412659
0.00034846031 0.00012248958 0.00020531373
0.00047275005 0.0001964955 0.0004955433
-7.6871693e-05 6.7736204e-05 -0.0010357562
1.4336911e-05 5.3674627e-05 -0.00028463398
0.00046370574 0.00097430561 0.00039651923
0.00047580808 0.00062950881 0.00094680046
0.00024382495 0.0008333461 -0.00020848206
-0.00010070315 0.0010948003 -0.00041554886
-0.00038365609 -0.00090094114 -0.00060814235
-0.00010276193 -1.0355766e-05 0.00018528005
-0.00033691982 -0.0020453883 -0.00068068213
-0.00017184306 -0.00074016704 -0.00052564882
-2.534422e-06 -3.9095776e-05 3.6934296e-05
0.00010938052 0.00015356782 0.00030760237
-0.0013982513 -0.0012052674 -0.0015685112
0.0015500305 0.0010003514 0.0016681587
0.0010537183 0.00030425302 0.00094506604
0.0023029882 0.0021279335 0.0023971677
0.0035274704 0.0047367588 0.0050317417
6.5030319e-05 4.5019773e-05 5.489968e-05
0.0017778965 -0.011738494 0.0010288598
0.00022550845 0.00012454293 0.00033941519
-0.00078146253 -0.0008714 -0.0023370499
-6.8052293e-05 -9.7028875e-05 -0.00086127507
0.0007157771 0.00065310154 0.0021717388
-0.00010715711 -2.8962466e-05 -0.00023478176
0.0007039695 0.0021683932 0.0032360917
0.00038205975 -0.0023104756 -0.00074354408
0.0001621675 0.00048732565 -0.00010264778
-0.00066955009 -0.0015927273 -8.7385861e-06
2.937416e-05 0.00015382151 -0.00060326728
0.00035712327 0.00035432144 0.00018417176
-5.2545849e-05 -0.00016806372 -4.5314075e-05
-0.0017351004 -0.0035894958 -0.0029966123
-0.001779784 -0.0021178571 -0.0022381993
0.0013905258 0.00087465456 -0.012657634
-0.00081750576 -0.00054472283 -0.00061762007
3.5654768e-05 2.247518e-05 3.3226941e-05
0.0049547451 0.0043291696 0.0059048468
0.0012928803 0.0010023382 0.0012686325
-0.11477286 0.007256866 -0.10017735
0.0022521508 0.002427571 0.0033472751
0.0015666756 0.0018512163 0.0018844816
-0.00032358649 -0.00079969357 -0.00092845131
2.3735274e-05 -0.00032182067 -0.001726795
-0.00016518877 4.0315328e-05 -0.0001915657
0.0004076008 -0.00030463969 -0.00078490551
4.0988394e-05 0.00024424447 7.9366828e-06
0.00010885017 0.00040189977 -0.00046697195
0.00028338551 -0.0012115185 0.00040957768
-2.6658809e-06 -0.00084068585 0.00020981643
0.0058664819 0.00040354009 -0.0024601803
-0.00053551595 -0.0018718794 -0.00082782941
-0.00039508924 -0.00045837028 -0.00038913853
-0.00064963073 -0.0036618344 -0.0032322428
-0.00046508096 -0.0017950059 -0.0020654157
-0.00082365109 -0.0010020261 -0.0030839113
-0.00038485785 -0.00031607784 -0.00058045232
-0.0020300758 -0.0011068152 -0.0030220698
9.389859e-05 -0.00091724022 8.8306428e-05
0.0073085451 0.0066983518 0.009747168
0.0043293834 0.0026901115 0.0039299591
0.0024985624 0.0025019557 0.0030460211
0.0012822289 -0.009780501 0.0014664029
8.2618972e-05 0.012821293 -6.8577923e-05
0.00044875545 -0.0003977342 -0.0013190419
0.0012718659 0.00051092257 -0.0010522841
0.00067561487 0.00059297332 -0.00043711715
0.00018132912 -0.00095753785 -0.00099100312
0.00017105509 0.00024898688 -0.00059329619
-3.0604664e-05 -0.001119123 0.00051528413
0.00028275911 -0.00062481459 0.00044208506
0.00012902491 0.00024382684 -0.00016740561
0.00015523224 -2.5968362e-05 7.5648946e-05
-0.00084672286 -0.0034254149 -0.0034654702
-0.0020968199 -0.0055008088 -0.0048243981
-0.00096918014 -0.00317779 -0.0042391508
-0.00047655721 -0.0004701757 0.05828049
-0.0013178964 -0.0016341744 -0.0051099993
0.0011189656 -0.0007258387 0.0022004531
0.003995249 0.0030200507 0.0046660774
0.0033515377 0.0026705293 0.0036903382
0.00056469272 0.00039558727 0.00036479346
0.00029658136 0.00070653408 0.00025062147
0.00070399838 -0.00066628208 0.00028026235
-0.00066409662 -0.0013986437 -0.0023320667
4.4257715e-05 -0.00074306282 -0.002569343
0.00013509303 0.00055775692 -0.00053916528
0.00014611945 -0.0003910714 -0.0013877874
0.00023225661 0.00014128858 -0.00067773799
0.00013740304 -0.0015203174 6.89917e-05
0.00010642633 -0.00010546655 0.0003415629
0.00046180547 0.00052446651 -0.0010762379
-0.00070906011 0.00033866908 -5.9625589e-05
-0.00016846506 0.0005642983 0.00038396605
-0.00012389696 -0.0019372997 -0.0022805403
-2.7591814e-05 -0.0003037843 -0.00045402031
-0.00015635317 -0.0014640464 -0.0041218423
-9.2735017e-06 3.9293966e-05 3.5559835e-05
-0.00023180649 -2.5893432e-05 0.00035966278
0 0 0
0.0014972768 0.013114301 0.021306129
0.0010017452 0.0037847343 0.0055261077
0.0010392853 -0.00053566956 -0.0013177729
0.00018939415 9.5298419e-05 -0.00019387521
0.00014071682 -0.0011124096 -0.0018120019
9.2307302e-05 -0.00096847559 -0.0023965617
0.00031419177 -0.0014406967 -0.0022737931
8.19411e-05 -0.00020840895 -0.00026591984
-0.0014586274 -0.001731017 -0.00085750071
0.0054534576 -0.0016827172 -0.0013843138
0.0045637172 3.4963403e-05 0.00073274079
-8.4513929e-05 8.7086919e-05 -0.00015149637
-2.3273951e-05 2.0457001e-05 4.3122003e-05
-1.0768325e-05 0.00026806811 0.00031591501
-5.4881388e-05 -0.0031833211 -0.0032022826
3.4344506e-05 -0.00016706855 -0.00037412706
-0.015570594 -0.0018023064 -0.0037576428
0.0045690746 0.00042016266 0.0004271027
-3.3560307e-05 0.0016222713 0.0021239591
0.00011988548 0.00015099731 -3.7663802e-05
0.00032060896 -9.7488599e-05 -0.00010729871
-0.00048299102 -0.0018839068 0.00088362367
0.00015157559 0.010238566 -0.00058759906
0.00063255726 -0.0023904447 -0.0026327679
-5.2416144e-05 -0.00012024407 -0.00021293573
-0.00036184551 -0.00011158873 -0.00029749353
-0.00015203808 3.0828076e-05 4.6214838e-05
-0.0094254874 -0.0015268443 -0.0018642462
-0.0028101476 -8.48704e-05 -0.0010154122
-0.00065507775 -0.00043542782 0.00020127624
-0.0011239612 -0.0017948051 0.0023104732
0.0050888406 0.0026506796 -0.0049703359
0.0044310712 -7.1202543e-05 0.0010855633
-0.00030768535 0.0016571485 0.0019356947
-4.3556644e-05 -0.00057040394 -0.00036273373
0.00020587142 -0.0007742914 -0.0022636161
9.9164827e-06 -0.00086744595 -0.0007859639
0.0010805267 -6.0279431e-06 0.00020919112
-0.0006311335 -0.0099509442 0.00073811848
5.2035004e-05 -6.4898166e-05 -0.00015014381
2.0108291e-06 -2.2889712e-06 -6.307253e-06
-3.3406712e-05 0.0051443833 -6.3501851e-05
0.0025897257 -0.0057328069 -0.0031085247
0.00042770396 -0.0010362592 0.0001648138
0.00072726171 -0.0014170961 -0.0027788684
0.0056936555 -0.0021949173 -0.0065412433
-0.0040323613 0.00075159303 0.0012513704
0.0007603413 -0.0001321374 -7.9926591e-05
0.0014184653 -0.0011009744 -0.0004900521
-0.00014991889 -0.00080897787 -0.00074285676
-0.0010252087 -0.00074137986 -6.2157451e-05
0.00023070055 7.2192182e-05 -0.00011534009
-0.00036734279 -2.2328499e-05 0.00025240079
-0.0019743971 0.00041393429 0.0004550181
-0.00099405227 -0.0013352982 -0.00060605886
0.00092322059 -0.00052207056 0.022826076
8.4338564e-05 -0.00042872646 -0.00042836179
0 0 0
-9.4814322e-06 -7.6475189e-05 -0.00010809053
-0.00022385429 -0.0028146547 0.00056411553
0.00028403674 -0.00041060796 0.025762921
0.0020463262 -0.003133063 -0.0052066864
8.049047e-05 -0.00023184704 0.00025231912
7.0321994e-06 -0.00018444494 -0.00049490196
-0.00012440786 -0.0016952112 -0.0027750302
0.002275961 -0.0011016937 -0.0027704963
-0.0013307091 0.00040933839 0.0010365009
0.0013826684 0.00018810117 0.00027210303
0.00064008578 -0.00043862985 7.1974728e-06
0.0006663237 -0.00051915884 -0.00030677262
-0.0050918637 -0.0030532305 0.0021536695
-0.0018784599 0.002044101 -0.001710183
0.00095841713 0.0011710839 0.0021062356
-0.004888495 0.0023125196 0.003050847
0.0033158208 -0.00018472613 0.00024664923
0.0022121985 -0.0014623607 -0.0016338744
-0.00071545504 0.0007829091 -0.00022598516
-0.00037376749 -0.00097238849 -0.0011604432
-3.2926855e-05 -0.00010592356 -0.00012633992
0.00032103108 -0.0028698291 -0.0051313369
0.0012876263 -0.0050346456 -0.0071449601
-0.017962361 -0.0020370081 -0.0024588823
-0.02317916 -0.002786435 -0.0049174144
-0.003209318 -0.00059389282 -0.0028895463
-0.00019457978 -5.0194845e-05 -0.001385892
0.0011692294 0.00052726176 -0.00044565104
0.0027686027 0.00059754035 0.00046671898
0.00295028 -0.0002325591 -8.8606306e-05
0.0012492735 -0.00022709221 0.010072005
0.0012595314 0.00024150548 -0.00055222819
0.0031403967 -0.0030516642 0.0011896096
-0.00089761219 0.0015641605 -0.0001837451
-0.0041095722 0.0021562853 0.0022133926
-0.018976448 0.0036312842 0.0043919729
-0.0010817715 0.00026181416 0.00068725011
-0.0078611113 0.00064669346 0.0025064489
0.00016157943 0.00020684268 -0.0016061728
-0.0004665239 -0.0010000697 -0.00080305198
-0.00011853084 -0.001097884 -0.0013413037
-5.6068096e-05 -0.0021109255 -0.0034892804
-0.00066644372 0.00077608711 0.00090983475
0.00059210567 -0.00085467158 -0.0022294309
3.3922981e-05 0.00028764803 -0.00010704255
-5.4027394e-05 -1.8896504e-05 -0.00010758892
-0.00028444463 -4.10211e-05 -8.3135506e-05
-0.0018298922 -4.8023292e-05 0.049635109
0.0070324345 0.00070854137 0.03020996
0.0025717681 -0.00013646224 0.051101536
0.0040001697 0.00091444975 0.017146923
0.011425748 -0.0018324581 -0.00096229935
0.0016276457 4.805861e-05 0.00010320028
0.0025257645 0.00040686352 0.00085852423
0.0016112949 0.00081648945 0.0012668596
4.5872843e-05 0.00010381985 0.00031340899
-0.0025261836 0.00058232131 0.0011537422
-0.00065531908 -0.0016658643 -0.00014341356
0.00020187239 0.0010456531 -0.0039099297
-0.0013236951 0.0013156387 0.0014075044
-0.00014551978 0.00040017898 0.00060634664
0.00016997757 -0.00049476966 -0.00055922527
-3.7461417e-05 0.00018216821 -0.0030755831
0.016270244 0.0022966149 -0.024204023
0.006880729 0.0011415421 0.0023896513
0.0021616057 0.00031302299 0.0093564671
0.00085623143 0.00023909411 0.0061416328
-0.00070991862 0.0018672142 -0.037893247
0.0032079206 0.00044981093 -0.012565327
0.0070740655 -0.0002293189 0.053912055
0.0054892045 0.00014066519 0.026811605
0 0 0
-0.00015118787 0.0031614311 -0.0003260081
0.0079368241 0.0024606315 0.0023757305
0.013191751 0.0021319115 0.004542876
0.0077628898 -0.03135078 0.0041315295
0.00032509316 0.0044923089 0.00097913528
-0.00081390259 0.004811266 0.0032048018
0.00010844114 0.0060620815 -9.2168753e-05
5.3171843e-05 0.0043221517 0.00028007192
-1.5848262e-05 -0.014998085 0.00055886229
0.00076316477 0.0029273662 -0.0017929038
0.00030877022 -0.00076875312 0.016349841
-0.00082573615 0.0011208297 -0.048850518
0.00066050934 0.0011935249 -0.016711855
0.00018804873 0.0024536748 -0.017786987
0.0023782796 0.0014532986 -0.010256378
0.0023724604 0.0011902436 0.030284837
0.0043275552 0.00065776671 -0.017384879
-8.3632822e-06 0.00030201118 0.0016847284
0.011962821 0.00084703689 0.033340354
0.0056755142 -0.0033496562 0.066824034
8.2132799e-05 0.00060035015 -0.00010405568
-0.00028709386 -0.0031950644 0.00031659569
-0.0015451104 -0.0061291438 0.00079515681
-0.0036385956 -0.014865568 0.0012931493
-0.00081605924 -0.00097575388 0.00036909734
0.00019042358 -0.0046064616 0.0012249341
-7.3557436e-05 0.016800042 7.9147294e-06
-3.7857393e-05 0.021366442 0.0022917234
0.00019520578 -0.0098294942 0.00039018391
0.0001451602 -0.00033086256 -0.00058205344
0.0001802755 0.00063792546 0.027717162
-0.00012227752 0.001401189 -0.028099805
9.4910065e-05 0.00050678343 -0.0097175762
0.00034160941 0.00061717851 0.0044850763
0.004251855 0.0019484843 0.025363015
0.0050021517 0.0011802167 0.0080979783
0.018353201 0.0023014105 -0.0075215618
-0.0059533338 -0.00028345952 0.022634462
0.00026142935 -8.754535e-06 0.031683408
0.0062132711 -0.0012682856 0.015474771
0.00059571728 -0.0079319682 -0.0013661516
0.004550857 0.010288732 0.00037971453
0.0051964759 -0.025431937 0.0041032275
-0.0022771168 -0.056616746 0.0047070337
0.0010100359 -0.0042648823 0.001521213
-0.013183537 -0.02297884 0.0044276845
7.422686e-05 0.0039993864 4.6860921e-05
0.00024089041 0.003923628 0.00072671525
-0.00062797085 -0.0011796159 -0.0024613519
0.00028186821 -0.0004748021 -0.00045664381
-0.00032477619 -0.0010640707 -0.00092431699
-0.0010992539 0.0016221285 -0.0087913675
0.0068145469 0.00079019536 -0.0073253615
-0.00014729955 0.00056020223 0.0016732969
0.00063334621 0.00051636226 0.0036285014
0.013068422 0.0034896489 -0.042231444
0.024435718 0.0016694115 -0.023118485
0.0041989852 -0.00010519737 0.014159737
7.3152019e-05 0.00012459411 0.017730687
0.0011389949 -0.00029313643 0.0033779843
-0.00017875762 -0.016585473 0.00040853163
0.015917627 -0.0034874019 0.0027273479
0.017483775 -0.014314449 0.0039661094
0.0023849648 -0.015328854 0.0018599876
0.00028664953 0.0025151698 9.022162e-05
0.0041700522 -0.0013117497 0.00096297095
-5.9731385e-05 0.0080742519 0.00018865343
-1.3833117e-05 0.014604966 0.0034910424
-0.00065278553 0.00052497408 -8.8446795e-05
0.00019014142 -2.1484355e-05 -0.0025415574
0.00044253381 -0.0010478876 -0.0008584999
0.004262432 0.00043555934 0.012274568
0.0057915291 0.00022647387 0.023066938
0.00025916909 0.00059272983 0.015628422
0.016753253 0.0017501035 -0.056451898
0.0041281572 0.00029392805 -0.0047394666
0.041966069 0.0020087312 -0.0073360717
0.0026490497 0.00013178568 0.00038627375
0.010449855 -0.00016511777 -0.026019432
-0.0025519989 0.0047110463 -0.00052034121
-0.00069691625 0.011591791 -4.2104941e-05
0.0015086565 0.0071428125 0.00023736595
0.030020768 -0.0057285633 0.0027725562
0.0021508248 0.016579228 0.00042943441
0.010926828 0.012833104 0.002669726
6.6087217e-05 0.0044839918 -6.3644358e-05
0.00012245143 -0.00038585099 -0.00049007445
0.00089644181 -0.00086171564 -0.00095665426
-0.0010384234 -0.00026566998 -0.00066717213
-0.006187404 -0.0020154726 -0.0014560488
0.0018973837 0.0005442251 0.026451115
0.029181119 0.0023661924 -0.021972375
-0.0016830527 0.00010566304 0.047612838
0.027137026 0.0019472406 -0.02295327
0.028430145 0.00199198 -0.041254457
0.0010911005 -2.4840497e-06 0.0071683135
-0.029018881 -0.0020874368 -0.010062352
-0.00663062 0.0058079897 -0.00070429174
-0.0045629735 0.011883887 -0.00042208584
0.000208674 0.0071468255 -0.00014306037
0.0012536981 1.2424125e-05 0.0001527909
9.2040762e-05 0.011665683 -0.00012851578
0.0031582068 -0.0042890674 0.00058036327
0.0082016783 0.010072395 0.0014931643
-0.010877323 -0.0015746 -0.0011082552
-0.018690063 -0.0015692979 -0.0022632251
-0.00052047725 -0.0021145516 -0.0023065081
0.0019216209 -0.00074520969 -0.00053964654
0.001448981 0.00027603438 0.012069499
0.0011821861 0.0003801696 0.0037100913
0.0054169176 0.00058435794 0.0024099515
0.0069491761 0.0011936993 0.013796066
0.034045704 0.0016650987 -0.034202497
0.033966612 -0.0012126892 0.0065324488
-0.0044318135 -0.017334713 -0.0011452661
0.00018956154 0.0013259377 3.3718123e-05
0.0012866162 0.01414498 3.1437161e-05
0.018434502 0.0028990277 0.0035416931
-0.00069433392 0.012226023 -0.00011719073
0.0031531258 0.0025434378 0.00045276195
0.009074335 -0.0076018805 0.0017884631
0.0018533987 0.0039819232 0.00046727582
-0.0053892825 -4.6345969e-05 -0.00048786585
-0.0028566697 -0.00080226758 -0.00068085699
0.00057600276 -0.00083504256 -0.0006847328
0.0092185559 0.00036629129 0.02993755
0.0048524961 0.00066866702 0.0075746337
0.00013313923 1.2575205e-05 -1.1215389e-05
-0.029120991 -0.00061801169 0.031520188
-0.011057284 -0.0013727058 0.021701414
0.007865712 -0.00030118582 -0.0022261308
0.02023373 -0.055885341 0.0021196785
0.00376182 -0.0037785063 0.0010017285
-0.0015916323 0.0026335954 -9.8820499e-05
0.01094026 0.0061832457 0.0018237742
0.0112607 -0.0091459844 0.0024016625
0.0039680097 0.0065740715 0.0008044393
0.0021075546 0.0037610559 0.0012317202
-0.0040812315 -0.00080425345 -0.00052566559
-0.00064409914 -7.2419556e-05 -8.8858935e-05
-0.0048775314 -0.001143271 -0.00058163702
-0.0010086431 -0.00025837164 -0.00021940052
0.010556073 0.00087571103 0.012077943
-0.0062165931 -0.00080011989 0.023776347
-0.0023423983 -0.00097029097 0.026569704
0.00030238638 0.00024170527 -0.0083273305
-0.015533754 -0.00059710699 -0.0058509405
-0.0015830392 -0.044733014 0.0013315714
-0.0057925577 -0.023796309 0.0046104603
0.00061437069 0.0017170635 9.5993411e-05
0.009625162 -0.0044661881 0.0019355032
0.0031352232 0.003175779 0.00041748036
0.0022724194 0.004602564 0.002546337
0.00034454389 0.0029434063 3.8632345e-05
-0.0076100891 -0.0021125057 -0.0010245416
0.0021044933 -0.00065903313 -0.00079714414
-0.00091583817 -0.0010825478 -0.00043524077
0.00014070937 -0.00032888676 -0.00018663435
0.00087310036 0.00021520245 0.012093366
0.0005999381 0.00019673942 0.008266828
2.6319443e-05 -0.00052721222 0.016050681
0.0022098911 -0.00095889432 0.021231502
0.023261562 -0.0010802025 -0.0045013987
-0.00024262456 -0.010498408 7.9212688e-05
0.00012830965 -0.00021441831 0.00011917925
-0.00069500128 0.014365406 0.00074689562
0.0064772912 -0.0053949454 0.0031125234
0.002375386 0.0084981453 -0.00022637192
-0.0013252397 0.00053277536 0.0012572224
-0.00060785841 0.0023630634 0.00012019103
-0.0011150177 0.0053184181 0.00066284311
0.0015330232 -0.0013334635 -0.0014198823
-0.02880818 -0.003225835 -0.0025826127
-0.003136151 0.00022261011 0.029315989
-0.019975318 0.00030279113 0.035251535
0.010663689 0.00074323133 0.012981323
-0.0096256081 -0.00066520774 0.003947034
-0.0077883229 -0.0011790477 0.022462344
-0.0010409157 -0.062849104 -0.00034121453
0.00042516977 0.0062933634 -0.00014518242
0.0014126181 0.0043998398 0.00029305834
-0.00032345299 -0.0067135151 0.0026701882
0.0013022401 0.020586884 -0.00044032518
0.0020947529 0.0062932214 0.0022157852
-0.00240167 -0.026273267 0.0022089989
0.0030133177 0.010394205 0.0010815255
-0.00060371391 -0.00015041504 -1.3236853e-05
-0.0038639754 -0.00086915796 -0.00076829363
-0.0049590967 0.00024912777 0.015961781
-0.00093312695 0.00028164804 0.015903518
-0.012328083 -0.00054166635 0.040078342
-8.2145438e-05 -0.0013099452 0.013121399
0.016590964 -0.0020740042 -0.0046912101
-4.5565943e-05 -0.0070295986 6.6994064e-05
-0.00243089 0.02449758 -0.00027993909
-5.3008091e-05 0.019922586 0.001578314
0.0021561759 0.0017136354 0.00050098472
0.00030672151 0.0029404741 -7.5010998e-05
-0.0054520601 -0.001076314 0.0032167537
-0.0024946139 -0.0068204184 0.0017295358
-0.0050400537 -0.0015925048 0.0014631356
0.014218251 0.0007462728 0.0011572863
0.0003807405 0.0034264605 -0.00092781143
-0.0065414854 -4.5014785e-06 0.0057727327
-0.003572033 -0.00032785002 0.018904738
0.0079368884 0.00021157628 0.049721133
-0.0028621822 0.00029999705 0.0065066712
0.00043309006 -0.00084142684 0.016118297
-9.2003444e-05 0.0016282226 -7.0915121e-05
0.001073494 0.035027672 0.00023016175
0.00034068112 0.0008525296 0.0006537619
0.00099109975 0.0030467536 0.0008577134
0.00084206415 0.003932483 -7.8810044e-05
0.0005019526 -0.00144941 0.00094667199
-0.011314116 -0.026916414 0.0046456824
-0.003297569 0.026046701 0.0013368685
-0.0012608893 -0.00068582816 -0.00044453179
0.0004842756 0.016797023 0.0011099584
0.0044917003 0.021741886 0.019545076
0.0086650299 -0.018985866 -0.020257421
0.024306215 -0.026612153 -0.026316356
-0.015741903 -0.0018436783 0.022850944
0.0065873978 0.012195238 -2.2814675e-05
-0.0029446268 0.014157057 -0.00017244475
-0.0025292814 0.017679546 0.00058439118
0.00019172969 -0.0083522331 0.0022486614
-0.00087882119 0.0010527199 0.00061003456
-0.0035098561 -0.00016190053 0.0033535974
-0.0037502293 -0.01195639 0.0026955551
0.00010787562 0.0026861781 5.6494246e-05
-0.008273216 -0.029086906 0.0030245786
0.0030567071 -0.00015782798 -0.00029946928
0.015652554 0.024590807 0.031034751
0.016512049 0.0055635963 0.012282679
0.027721751 0.0019015409 0.00045749222
0.0067380439 0.021427628 0.0088553261
0.032477316 0.011693417 6.1452833e-05
0.0034824626 0.0078008198 0.00036243297
-0.0070460341 -0.0040474096 0.0011730498
-0.0046027689 -0.0025141812 0.0021104531
0.0025715814 0.0034452579 0.00023868534
0.0013028989 -0.00035425674 0.00084426993
-0.0003341854 -0.0016452058 0.00033558978
-0.00041018834 0.00062515005 0.0019715996
-0.022953505 -0.048638415 0.0030256792
-0.01809907 -0.0013509435 -0.00083988614
0.0023972462 0.0068188608 0.021018626
0.037179735 -0.025572794 -0.023087895
0.016863406 -0.031425498 -0.045344021
0.005529216 -0.0012492087 -0.00097667787
-0.013846055 -0.0041577867 -0.00078004913
-0.0020132496 0.0048311418 -0.00027848146
-0.012233868 -0.0055841091 0.001184154
-0.0014464484 -0.0015583542 0.00017489266
-0.0011574738 -0.00039986797 0.00041895165
-0.010240794 -0.011200109 0.0029216483
-0.0019966559 0.0098201372 -0.00039424916
0.00022137689 0.0017054897 0.00035233321
3.5418651e-07 -8.935699e-06 2.4897741e-07
-0.042257551 -0.010596667 -0.037623391
9.7799799e-05 8.5632593e-05 0.0009720035
0.010531602 -0.026373118 -0.029789651
0.0002613267 4.941973e-05 -0.00067506445
0.0060515865 -0.00096480915 -0.062098078
-0.01299064 0.0015749936 -0.0012770689
-0.011896562 -0.012329686 0.00071957335
-0.03774102 -0.031991526 0.0016207617
-0.0067944736 -0.0021649958 0.0012029466
-0.0037679826 -0.0069315871 0.002712548
-0.0035847479 -0.0082021393 0.00091421109
-0.010365195 -0.0029665185 0.0030571991
-0.0048973067 -0.025538767 0.0012305607
0.0078502633 0.033836376 0.011083983
-0.007009123 -0.0010538786 0.032692194
0.0066468092 -0.052268881 -0.073109969
-0.0067939428 -0.068409353 -0.10967851
0.0034443098 -0.0011747029 0.0019145997
-0.02856406 -0.026600769 0.0096029239
-0.0031892646 -0.0026453754 -0.0010894632
-0.061963424 -0.054215692 -0.028038887
-0.0018907883 -0.0027240894 -0.0032125777
-0.011683252 -0.027403701 -0.022176264
-0.044849537 -0.052149154 -0.045873038
-0.016694346 -0.018688451 -0.053017903
0.0031162207 -0.00013647199 -0.018244974
-0.0084921978 -0.011955433 0.001267609
-0.013623249 0.00094578892 -0.0034068243
-0.0089634471 -0.020579776 -0.019924365
-0.027621692 -0.0035362677 0.00088975055
0 0 0 1 0 0 0 1 0 0 0 1 0 0 0 0 0 764 1 0 0
