ply
format ascii 1.0
comment PCL generated
element vertex 764
property float x
property float y
property float z
element camera 1
property float view_px
property float view_py
property float view_pz
property float x_axisx
property float x_axisy
property float x_axisz
property float y_axisx
property float y_axisy
property float y_axisz
property float z_axisx
property float z_axisy
property float z_axisz
property float focal
property float scalex
property float scaley
property float centerx
property float centery
property int viewportx
property int viewporty
property float k1
property float k2
end_header
0.00075208291 0.0005544158 0.00069269992
0.00099920109 0.00015816699 0.000398226
0.00054552901 0.00032552925 0.00090291497
0.00063241686 0.0011202245 0.0013725755
0.0003385848 0.0018441379 0.002172011
0.00045792066 0.0010429899 0.0018256512
0.00066677184 0.00063067384 0.0017197612
0.0013054283 0.00089238194 0.0011457579
0.00170131 0.00032208831 0.00068293861
0.002383488 -0.00076357956 -0.00078306929
0.00214396 -0.0012682637 -0.0017822607
0.0038435396 -0.0016537105 -0.0032473414
0.0022861385 -0.00073250686 -0.0012952902
0.0020489916 -0.00047756676 -0.00050994608
0.0013674493 0.00057724753 0.00073848997
0.00062183535 0.0017342228 0.0020752691
0.00025854132 0.0025199358 0.0022847762
0.00049104547 0.00052229699 0.00018226824
0.00031377087 -7.7844437e-05 0.00032413407
0.00012345372 0.00031759145 0.0008317302
-0.00010017823 0.0014577111 0.0014026297
-0.00055418577 0.0011145456 0.0013492993
-0.00045993991 0.0015331436 0.00187897
-4.3319713e-05 0.00073138205 0.00085553841
0.00062173186 0.00059665157 0.00054149341
0.0011574297 7.949485e-05 -0.00032733928
0.0026094064 -0.00092010933 -0.0010899885
0.0026296619 -0.0018737043 -0.0023903102
0.0038377848 -0.0016296806 -0.003176888
0.002391407 -0.00073437538 -0.0014563326
0.0020348441 -0.00033901038 -0.00065294025
0.0007967283 0.00092793192 0.00047974251
-0.00030436055 0.0020244902 0.0015171429
-6.2964733e-05 0.0036290823 0.0034997542
0.00031876907 0.00081850827 0.00065894524
0.00030042705 0.0012089829 0.00090009114
-0.00024471246 0.00065408496 0.0010167335
-0.00073959015 0.0018781809 0.0018696252
-0.00031305494 0.0010530013 0.0020905437
-0.00071026897 0.0017499148 0.0018789421
-0.00016320914 0.0010933144 0.0017529601
0.00026919437 0.0005851243 0.00048675347
0.00090437027 8.1734739e-05 2.1439955e-05
0.0015666924 -0.00051440822 -0.00052426563
0.0020397911 -0.00097326672 -0.0012544007
0.0018258251 -0.00078707503 -0.0014836715
0.0021639308 -0.00044083904 -0.00062400149
0.0011884315 0.00021397868 -0.00018750547
0.0010007952 0.00093911146 0.00084546558
-0.00012712732 0.0018132529 0.0017603178
-0.00052021543 0.0026966943 0.0027580122
0.00059344363 0.00080593536 0.00086760626
-0.00014616325 0.0014568972 0.00093292654
-0.00015856602 0.0014753023 0.0013746951
-0.0006863703 0.0020796913 0.0016944282
-0.00049483753 0.00079222786 0.00078699173
-0.00020272317 0.00071648421 0.0016709537
-0.00024259184 0.0013807884 0.0012686675
0.00026735835 0.0010631349 0.0012650618
0.0002922329 0.00054821227 0.00049319008
0.0013046858 -0.0001266021 -0.0001834673
0.00085172744 -0.00026631067 -0.0002293358
0.00066082313 -0.00030543294 -0.00059619773
0.0018090283 -0.00013065351 -0.00019445286
0.00092929509 0.00014761805 0.00044153328
0.00048555722 0.00079430424 0.000681295
-6.1408085e-05 0.0013960322 0.0017425801
1.6891092e-05 0.0020945759 0.0023873853
-0.00015396178 0.00081034593 0.00082175538
0.00033942406 0.00094706885 0.00066396606
0.00016418981 0.00097071135 0.0010219418
0.00039486171 0.0012757388 0.0011275962
-0.00017553604 0.00063347683 0.0011134369
-5.1326792e-06 0.0010720345 0.001366612
-0.00020927905 0.0015433702 0.0015413244
-6.5291083e-06 0.00087138801 0.0008251117
0.0003698798 0.00076178194 0.00064794382
6.0787072e-05 0.00017738581 0.00033983201
0.00023173926 6.8453308e-05 -7.7038982e-05
-0.00014538119 0.00047851639 0.0002855552
0.00050481234 0.00033106122 0.00032490221
0.00013747274 0.00045171074 0.00077309058
0.00026994385 0.00070343411 0.0012521731
0.00044339243 0.0010544444 0.0014372012
-0.00028028418 0.0015445927 0.0020016932
0.00017311257 0.00056253804 0.00053249596
-2.1814463e-05 0.00066148979 0.00035999756
8.7564418e-05 0.00028762082 0.00065967656
-9.4572621e-05 0.00059338752 0.00045758823
0.00045979803 0.0011721231 0.0013129383
0.0001761685 0.0029526048 0.0025787323
-0.0004618791 0.0016970848 0.0018002333
-0.00013652424 0.0010610694 0.0020890571
0.00010401104 0.00084721582 0.00069010182
0.00025441966 0.00039241754 0.0005579819
0.00039407355 0.00048044336 0.00013123025
-9.5727068e-05 0.00076213793 0.00051163847
0.00012033769 0.00063744816 0.0010250646
-8.2602462e-05 0.0005962518 0.001093893
0.0003388937 0.0007773469 0.0016092329
8.5079249e-05 0.00082139682 0.001733351
-0.00032618298 0.0011674692 0.001851916
0.00022481389 0.00021121169 0.00053772354
0.0002673722 0.00074962917 0.00061190221
-0.00019892713 0.00022034395 0.00023542892
0.00029717907 0.00032160489 0.00022957339
0.00019975916 0.001435019 0.00087184843
-0.00030576758 0.0021832292 0.0016129476
0.00012042403 0.0017363054 0.0014391268
-0.00012641486 0.00073453749 0.0018118072
-0.00016549288 0.00086169393 0.0013338011
0.00052528776 0.00032389691 0.00059259252
0.0003168835 0.00079158839 0.00033263955
0.00017963578 0.0008698267 0.00051637611
3.3004704e-05 0.00084346114 0.0010017173
0.00032245024 0.00060055585 0.00085095625
0.00027594838 0.00054339727 0.0011727195
-0.00022723521 0.00051663566 0.0015810366
2.4432165e-05 0.0007976747 0.0016199899
-0.00015982642 -0.00026186765 0.00027587998
-0.00015471157 0.00074930605 0.00049256976
0.00027780645 0.00031011458 0.00044275247
0.00014912742 0.00029252234 -0.00016581321
-0.00016999041 0.00051882368 0.00054118456
0.0002757964 0.0012932444 0.00083422184
4.3916352e-05 0.0018224862 0.0013409631
-0.00011289633 0.00075545575 0.0019573709
0.00029183357 0.0011240565 0.001740979
0.00042379199 0.00028144536 0.0010391544
5.5187535e-05 0.0010006088 0.00076725218
0.00041638466 0.00096041086 0.00049620855
0.00035814225 0.00096244714 0.00061054411
0.00089376757 0.00050547573 0.00087324303
0.0004085585 0.00037439732 0.0010410098
0.00015599978 0.00028053115 0.0012212284
-0.00016217414 0.00044760536 0.0010093933
0.00027855675 -0.00080169307 0.00016067146
7.0193564e-05 -5.9979098e-05 0.0002849928
0.00021802937 0.00010179659 0.00014238157
-0.00015975453 0.00010199056 7.3917508e-05
0.00038886172 0.00026834849 0.00050474901
0.0003238332 0.0016900238 0.00098714652
6.0757262e-05 0.0018893025 0.0011305942
0.00033647523 0.0006916523 0.0014717939
0.00028792644 0.00058580475 0.0011773678
4.40361e-05 0.00034574198 0.001165912
-7.6970908e-05 0.00089247013 0.00069128937
0.00042818888 0.00098138303 0.00031739817
0.00071502995 0.00070465566 0.00037569596
0.001029484 0.0007411532 0.00016122453
0.0010057903 0.00041774006 0.00062520924
0.00060530769 0.00011856938 0.00085678155
0.00020233906 0.00015278233 0.00083483878
-0.00011689126 0.00033912246 0.0004405182
-2.7177621e-05 -0.0013554958 0.00055723311
0.00032906877 -0.00060708827 0.00027077811
-6.4488464e-05 -0.00054134917 4.9070404e-06
-7.3283118e-05 -0.00027139526 -3.5227884e-05
0.00010830904 0.00027626325 0.00045019618
-0.00020459326 0.0010339007 0.00048475622
0.00030985379 0.0011988661 0.00058362522
0.00019291259 0.00079890009 0.0012330319
-3.1042135e-05 0.00026197775 0.0010210392
-2.5804909e-05 0.00040408384 0.0009714202
0.00010360561 0.00071073067 0.00093229191
0.00078267034 0.0010264243 0.000428172
0.00055291969 0.00067309034 0.00039673131
0.00055506313 0.00056509022 0.00032691643
0.0010868647 0.00053746469 0.0004357289
0.0012081974 0.00063124014 3.403831e-06
0.0010037024 0.0008446537 0.00029489968
0.00088380004 0.0010409964 -5.5655582e-05
0.00073493412 0.00094794726 -0.00053074822
6.7849687e-05 -0.0016173207 0.00013716455
6.8755062e-06 -0.0011083644 0.00039343972
6.1643215e-05 -0.00099986617 0.00025600789
0.00027360144 -0.00038063357 -3.723261e-05
-0.00030029652 -0.00036026238 9.2457172e-05
-0.00018168036 -1.2946733e-05 4.5998022e-06
0.00018617978 0.0020140554 0.0010379595
-7.5932272e-05 0.00054719503 0.00057462818
-1.7153883e-05 0.00013829191 0.00049052009
6.5488671e-06 0.00014937745 6.4291649e-05
0.00068536936 0.00061972777 0.00081681029
0.00072459318 0.00083751837 9.8564036e-05
0.00049386622 0.00021539253 0.00024889273
0.00087363139 0.00038488905 0.00018499445
0.0010714899 0.00060599018 0.00025406823
0.00087455171 0.001006968 -0.00049256464
0.0010096973 0.00093875552 -0.00021716545
0.00092364324 0.0011933679 -0.00030746209
0.00076086959 0.0010269411 -0.00043473067
0.00066705665 0.00098201563 -0.00079549069
-4.3477321e-05 -0.0018442526 0.00076942873
0.00013996818 -0.0010435672 0.0005451208
0.00037889311 -0.00087794324 0.00021458861
-0.00013804116 -0.0010457741 0.00020876553
-0.00040501961 -0.00054265279 -7.8923134e-05
-0.00072036614 -0.00069855415 0.0001069894
-0.0012159594 -0.00035527619 -0.00057158514
-0.0012840764 -9.5682901e-07 -0.0010511918
-0.00053797942 -0.00029879445 -0.0011858799
-2.8441316e-05 5.9655522e-05 -0.00077365449
0.00035371652 0.00060406968 0.00012037557
0.00064102694 0.00047679798 -0.00024468839
0.00061604683 0.00028863174 -0.00015946857
0.00055528025 0.00032462418 -2.1461892e-06
0.00062525389 0.00076326297 -0.00024607475
0.00057247817 0.00082659704 -0.00042616093
0.00067104975 0.00094382348 -0.00033389576
0.0007796369 0.00085167505 -0.00045486842
0.00061681034 0.0010417142 -0.00068521686
4.0385825e-05 0.00084468263 -0.0007236019
0.00012988105 -0.0013590708 0.00055834505
0.00023068418 -0.001057858 0.00020965972
-0.00011420217 -0.0008709344 0.00032971386
-6.6861568e-05 -0.00076597586 0.00010737062
-0.0006874408 -0.00092645537 8.0053993e-05
-0.00089713914 -0.00078671239 -0.00041862341
-0.0011320133 -0.00043456722 -0.00064930069
-0.0011618003 -0.00089194917 -0.0011211833
-9.8445307e-05 5.5241959e-05 -0.00012054112
-0.00048025599 -5.984103e-05 -0.0011495734
0.00033688522 0.00051254313 -0.0004173918
0.00027034082 0.00039364104 -0.00022238257
0.00043676075 0.00016767609 0.00010962199
0.00057920947 0.00037856598 0.00022407876
0.00030810249 0.00086176727 0.00029639195
0.00017516423 0.00084114855 -0.00010211834
0.000401297 0.00057897775 -0.00053758622
0.00068484142 0.00074657612 -0.00070035702
0.0006141616 0.00095600815 -0.00080591679
0.0002358155 0.00072429964 -0.0011363652
-3.4065051e-05 -0.0021318491 0.0013814258
1.6712756e-05 -0.00088231493 0.00041352486
0.00041015918 -0.00059136451 0.00049434346
0.00046141492 -0.00041331153 0.00054656458
0.00015236958 -0.00047924696 4.850492e-05
-0.0012766158 -0.00094878528 -0.00055171468
-0.0014452195 -0.00057083182 -0.0019823585
-0.0013809435 -0.00088372343 -0.0015916076
-0.0033757705 -0.0023133641 -0.0029817463
-0.0022766453 -0.0037265786 -0.0039662276
-0.002347338 -0.00056093588 -0.0011870632
0.00015181722 0.00034185656 -0.00049180334
0.00026148019 0.00011788566 0.00039767576
0.00044024381 0.00056700927 0.00079521735
0.00039411327 0.0010611349 0.00065447669
0.00023042991 0.00093848503 0.00015829223
0.00024617286 0.00023251049 -0.00059634959
0.00038282742 0.00055786018 -0.00087063282
0.00069992611 0.00063123245 -0.00098738389
0.00017528418 0.00047888324 -0.0011879955
0.00018017611 -0.00099876907 0.00071750762
0.00013417396 -0.00056643935 0.00049314916
0.00010089642 9.8088429e-05 0.00056013139
0.00010343966 -0.00014746291 0.00065552961
-0.0005470324 -0.00064961665 -6.0101356e-06
-0.00026357017 7.5607888e-05 0.00051224069
-0.00078753725 -0.00038376194 -0.00099369325
-0.0015139857 -0.00074802246 -0.0014254117
-0.0037178108 -0.0024824084 -0.0033256707
-0.0018438866 -0.0011474864 -0.0010968051
-0.0023413219 -0.0014990484 -0.0015248308
-0.00064234488 -0.00028408106 -0.00061217783
8.4488383e-06 0.0001756853 0.0001964824
0.00018648997 0.00052715611 0.00022183813
0.00046155095 0.00094571954 0.0010492662
0.0004715352 0.00030398736 -0.0002038673
0.00038067196 6.8760513e-05 -0.0009288016
0.00053060532 0.00039093848 -0.0011370059
0.00029650165 0.0004810536 -0.0012446913
0.000105477 0.00059815036 -0.001338054
0.00068612449 0.00035695039 -0.0014087613
0.00011055403 -0.0016473189 0.0015955977
0.00025911388 -0.00068308745 -1.3281787e-05
0.00070059119 0.00043780296 0.00073759444
0.00058368896 0.00031932135 0.0009381983
0.00071145693 0.00058461109 0.00095117843
0.00013063767 -4.6693508e-06 -0.00031440795
-0.0007242884 -0.00036661056 -0.00077130739
-0.0014420198 -0.00071129133 -0.0011495549
-0.0020180575 -0.0022337027 -0.0030681833
-0.0022245445 -0.0016825701 -0.0025705653
-0.002508207 -0.001404553 -0.0029585874
-0.00064337015 -0.00081140822 -0.001380005
-0.00028015923 0.0010705849 0.00052586506
0.00045155198 0.00088235032 0.00080543169
0.00057139259 0.00085850043 0.00055047171
0.00065190985 1.4444377e-05 -0.00044083389
0.00063511927 5.7741981e-05 -0.0010772985
0.00047693 0.00020962044 -0.0018027141
0.00013359217 0.00061745854 -0.00078581134
-7.7912671e-05 0.00077596214 -0.0010091312
7.9000398e-05 0.00050122431 -0.0011270876
8.9856403e-06 -0.0019267574 0.0019755587
0.0002788186 0.00026616274 0.00044285852
0.00062185054 0.00067510793 0.0012405012
0.0014146105 0.0021874125 0.0025800744
0.001298964 0.0015693014 0.0024909694
0.00092253985 0.00099218392 0.0016963138
0.00041475406 0.00056270359 0.00096539658
0.00073029514 0.00060799235 0.00096296053
-0.0015745563 -0.0014101308 -0.0022233846
-0.0018589904 -0.0015546213 -0.0037163282
-0.00081633299 -0.00059220236 -0.00098406826
-0.00083995727 -0.0013407496 -0.0011361113
0.00064208859 0.00022227866 -0.00025147593
0.00045438434 0.0021032507 0.0014183602
0.00042645607 0.0012152271 0.0013516099
0.00020170458 0.00042300034 0.00011932219
0.00021743687 0.00057582615 -0.00019266042
0.00018661104 0.00071348256 -0.00085126486
-5.2651227e-05 0.00083612464 -0.00060600112
-6.6305598e-05 0.0007452179 -0.00051236217
0.0001482791 0.00062067196 -0.0011167575
-0.00030350682 -0.00082705886 0.00024641363
0.0001874413 0.00033905776 0.00047406834
0.00029521168 0.00020110109 0.00074168138
0.00024798652 0.00073076994 0.00060530059
0.0010478237 0.0027320229 0.0054089506
0.00041965954 0.00091320963 0.0027255055
0.00081305893 0.0023196586 0.0086411946
0.00045124482 0.00036261693 0.0027655549
-0.0029003997 -0.0026714504 -0.0044204555
-0.0082455035 -0.0053109503 -0.010121772
-0.002250087 -0.0021537712 -0.0027224598
0.00048644503 0.00141642 0.00090478919
0.0003644058 0.0024109466 0.0013935035
0.00028559918 0.00097490783 0.0016114961
0.00010856988 0.0012549261 0.00084922329
-0.0001501254 0.00099850039 0.00025845339
-0.00012767604 0.0009038155 -0.00038244214
-8.1684884e-05 0.00090844044 -0.00055184925
9.3088427e-05 0.00087913731 -0.0007557905
0.00036434387 0.00061248132 -0.0010307416
0.00021599003 -0.0016850267 0.0021862537
0.00012434357 -0.00078653131 -1.4119006e-05
-0.00029384147 8.623171e-05 0.0016597206
0.00029623386 0.001979315 0.0035567738
0.00011489795 0.0014843453 0.0021723609
-3.3424046e-06 0.00059755926 0.0027798
-6.6936832e-06 2.3005108e-05 0.00011137565
-0.00093417091 0.002020149 0.006407503
0 0 0
0.0035516976 -0.0021958619 -0.0042025796
6.8199224e-05 0.0002170345 2.5616144e-05
-1.9577492e-05 0.0016742152 0.0011230708
0.00016188573 0.0026873332 0.0013896427
-8.967424e-06 0.0010376394 0.0015237456
3.9494324e-05 0.0012271215 0.00086949475
6.2381834e-05 0.0013889559 0.0004414047
2.8428643e-05 0.00096138986 -0.00012934812
4.6531095e-05 0.0010284322 -0.00035824001
0.00020156566 0.00075826433 -0.00056551077
0.00034938307 0.00087247149 -0.00085117691
-3.8308826e-05 -0.0013402092 0.0015052053
0.00013819711 -0.00083010393 -5.542935e-06
7.1207134e-05 -0.00041872851 0.00064128032
6.1247716e-05 0.00054994866 0.0012127488
-0.00050857849 0.0019000493 0.0021069578
-0.00084968039 0.0016973482 0.0043472098
-8.832437e-08 8.6214143e-08 -1.773072e-08
-0.002361469 0.0022546018 0.0019538116
-0.0011079025 0.0007935919 0.0011324128
-0.0032203842 0.001721514 0.0050499672
-0.0010620267 0.0026346555 0.0028229654
-0.00067602919 0.0018517951 0.0029425148
9.6627751e-05 0.0026566372 0.0016232873
0.00030967579 0.0013014493 0.0012825012
-4.6653844e-05 0.0012979404 0.00087194971
0.00017713557 0.00095178251 0.00049183634
0.00033931254 0.0014282633 4.2009087e-06
0.00019463063 0.0011125152 -0.00043900296
0.00033845249 0.0012088211 -0.00071039435
0.00010251769 0.0010760913 -0.00069804298
3.9332401e-05 -0.0019029179 0.0017106177
-0.00012007084 -0.0012982108 0.00025810869
-2.3890949e-05 -0.0011269137 0.00060012267
-0.00039860516 0.00019839093 0.001051803
-5.0317562e-05 0.00026641993 0.00039394159
-0.00016373546 0.0011804763 0.0018177251
-0.00016044296 0.0010095012 0.00089129427
-0.00015687494 0.00089964696 0.0013170243
-0.00015398752 0.0004027125 0.0011273945
-0.00012597257 6.3643376e-05 0.00026535982
-0.0023171967 0.0025863156 0.0056801182
-0.0011378783 0.0018769066 0.002835992
0.00029683815 0.0022433496 0.00155034
0.00027755482 0.0020096465 0.0014331158
0.000295195 0.001553255 0.0010029187
0.00017572749 0.0009963311 0.00034216358
0.00017867396 0.0014605675 -9.7349999e-05
0.00013709972 0.0011820052 -0.00032001321
0.00016378373 0.0012700715 -0.0004976542
2.5476496e-05 0.0014079175 -0.00045973336
3.130026e-05 -0.0015149387 0.0011016123
3.9115057e-05 -0.0010317267 0.00024784615
4.3854914e-05 -0.00073379709 0.00024465486
-3.038232e-05 -6.910041e-05 0.00052860827
2.8005046e-05 9.247398e-05 0.00046705612
-0.0001152995 0.0013274088 0.0014374818
0 0 0
1.8187615e-05 0.0012221753 0.0020454859
-0.00010745758 0.00092775573 0.0020567703
-0.00051784911 0.00045637708 0.0017871124
-0.002693634 0.0021871962 0.0050008018
-0.00087104132 0.0027710141 0.0019690939
-0.00026755422 0.0018793119 0.001281081
-2.5435056e-05 0.0010419311 0.0009166727
9.1494425e-05 0.0014096046 0.00057271391
4.4626169e-05 0.00095233571 0.00020182499
6.7369816e-05 0.0015083819 -0.00011454981
0.00010747385 0.0013172453 -0.00025985952
8.3291772e-05 0.0013586752 -0.00027850445
-0.0002566124 0.0014950304 -0.00020406184
-0.00011004533 -0.0015415486 0.000692904
-0.00017348019 -0.0017164388 0.00012021136
-8.4278094e-05 -0.0013615476 0.00040164409
4.3656546e-06 -0.00032446423 0.00082360057
1.361301e-05 -0.00041419806 0.0015935143
-2.4704761e-06 0.0029346242 0.0023165077
0.00014642822 0.00071410043 0.00067897805
0.00019142772 0.0011844572 0.0018276384
-0.00025956813 0.0018505091 0.003471964
-0.0010045071 0.0011690696 0.0022986787
-0.0018979313 0.002341328 0.0024035757
-0.00079827459 0.0022974082 0.0011626936
-0.00025131757 0.0013137538 0.00045570667
-0.0001830968 0.00065896992 0.00020779952
-0.00017537423 0.00093892467 -2.7157763e-05
-0.00011038229 0.0010174357 -0.00012189221
-0.00013145343 0.0014652403 -0.00015077794
6.3328065e-05 0.0014431365 -0.00013838916
7.6046657e-05 0.0016017566 -0.00015262378
-0.00061521347 0.0016655425 -9.627291e-05
0.00016820556 -0.00076448376 0.00019443998
-0.00013702917 -0.00065265573 -0.00035505049
-0.00044031598 -0.00091198011 -0.00053803378
-0.00016686509 -0.00043176673 -4.3637185e-05
-0.00011204922 -0.00012004781 0.00038139216
-6.9829257e-06 0.00038853721 0.0011072077
0.00067618745 0.0025651089 0.0022307592
4.3262211e-05 0.00066006987 0.00083844346
-5.3705389e-05 0.00093010697 0.0010898503
-0.00027519019 0.0015092748 0.0010400707
-0.00015529268 0.00095953362 0.00019565766
-0.00015814336 0.00047460309 -0.00021302277
-0.00038088256 0.0005553097 -0.0002898472
-0.00042033134 0.00046037292 -0.00014719262
-0.00036297625 0.00077153905 -0.00050832966
-0.00035590358 0.0010744294 -0.00064964307
-0.00034100033 0.0014330242 -0.00011067631
-0.00012966778 0.0015922972 -7.4378615e-05
0.00016874434 0.001749446 3.9779494e-05
-2.6241367e-05 -0.0012371826 -0.00062385661
-0.00026705378 -0.0016400011 -0.0012613636
-0.00011977727 -0.0010850746 -0.0004940115
-0.00024384109 -0.0003634062 -6.1765553e-05
-1.1985901e-05 -0.0003741532 0.00028567214
0.0002604347 0.00078941922 0.0013074016
0.00027750098 0.0011916313 0.00098190818
-3.8682621e-05 0.00057802303 6.6314715e-05
-0.00025088745 0.00077262602 -0.00023124856
-0.0002447337 0.0013863913 -0.00030644287
1.3116425e-05 0.0010499768 -0.00094293879
0.00032137157 -0.0001459347 -0.0016234542
5.9553709e-05 0.00022544786 -0.00064096216
-0.00036450199 0.00035693313 -6.7483474e-05
-0.00027152011 0.00036739753 -0.0006442598
-0.00032643194 0.00039781176 -0.00069966505
-0.00046835342 0.0014275832 0.00019959536
-4.45941e-05 0.0016819574 0.00010783825
0.00036372253 0.0019211386 0.00041352704
0 0 0
0.00053278549 -9.7987599e-05 0.00062712905
0.00040877031 -0.0013018368 -0.00085589656
0.00015740779 -0.00064674806 -0.00055396894
5.4269217e-06 -0.00076566573 -0.00075257925
3.1019321e-05 -0.00021334284 -0.00026962205
-6.4373686e-05 -0.00012972028 -8.2377574e-06
-0.00016857349 0.00029254044 0.00047551843
-0.00039729252 0.0016936479 0.00045493784
9.0249869e-06 0.00092324452 0.00029941445
0.0001946667 0.00084498723 -0.00020807322
-0.00035243988 0.00065630686 8.6353728e-05
-9.9480421e-05 0.00071452145 -0.00054841512
-2.4595663e-05 -0.00037593473 -0.0018480585
0.00010277286 0.00014649169 -0.00090854964
0.00016735132 0.00015836836 -0.00039456176
8.7432418e-05 0.00049563375 -0.00058033498
3.6041238e-06 0.00047001391 -0.00073719467
-0.00024433632 0.0011132202 -0.00010892504
-5.691202e-05 0.001833567 0.00031840857
0.00020110619 0.0022308698 0.00091346161
-2.2624963e-05 4.089799e-05 0.00037046164
-0.00036437169 -0.0013140676 -0.00097691955
-0.0004052498 -0.0013644989 -0.0013238542
-0.00034786062 -0.0018091516 -0.0015851968
0.00011424936 -0.00012525743 1.2066038e-05
7.6875032e-05 0.00010091923 6.1898107e-05
0.00018582893 0.00061498873 0.00071188767
0.00024794773 0.0013937254 0.00086153043
-0.00033205372 0.00035848792 0.00032019592
-0.00021431138 0.0012298104 0.00028912775
0.00035475072 0.00052314688 -0.00022435485
9.4447467e-05 -0.00017491127 -0.00082603417
-0.00010347694 -0.00027618342 -0.00086195517
-0.00016298059 -5.316742e-05 -0.0012397403
-1.0600786e-05 -0.00052020705 -0.0016101133
0.00011976548 0.00022237909 -0.0011005453
0.00017082939 0.00030763401 -0.00082106452
-8.0251724e-05 0.00095795514 -0.00038715859
-0.00022832751 0.0016117218 0.00062409445
-0.00027654614 0.0023443182 0.0011026573
-8.3357452e-05 -9.4131079e-05 0.00065397652
0.00023945037 -0.00085231452 -0.00085590727
-9.4742181e-06 -0.00077974529 -0.00073347293
4.6879562e-05 -0.00031898441 -0.00016321772
-7.3273121e-05 -0.0005161122 -0.00058955641
-0.00017492918 2.269407e-05 -5.3259682e-05
-7.7929166e-05 0.0001313457 0.00011208544
-2.6202382e-05 0.0019857234 0.00061430794
0.00018917814 0.001627329 0.0013263546
3.5694451e-05 0.00092773937 -0.00013614068
-8.2716666e-05 0.00057302276 -8.1313934e-05
0.00026160222 -0.00012264292 -0.00085145317
0.00039342811 -0.00039007416 -0.001130081
2.8981714e-07 -0.0001202751 -0.0010172218
-0.00017391003 -0.00013265759 -0.001173207
0.00018638207 0.00028484184 -0.0015936521
0.0002524954 0.00038064696 -0.00097629224
1.0931868e-05 0.0012511009 -2.1598678e-05
-0.00021470145 0.0011101089 0.00078000111
-0.00047440137 0.0024116351 0.0011212192
0.00036399168 -0.0006706554 0.00023763962
0.00023651675 -0.00035374492 -0.00043744897
6.4638734e-05 -0.00058483158 -0.0006812471
0.00012660412 -0.00067004003 -0.00065264362
-5.3078471e-05 -0.00032795785 -0.00047576183
2.749086e-05 0.00020970459 0.00034085935
0.00015682493 -9.1741873e-05 -2.435762e-05
-1.3779273e-05 0.000369858 -2.8916898e-05
-0.00028174272 0.00079911656 0.00036945686
0.00027105218 0.0017682783 0.0001257746
-0.00017198634 0.00033343694 -3.239965e-05
7.1566217e-05 -0.00018815981 -0.00056970032
0.00021588313 -0.00016259104 -0.00081459404
0.00024315962 6.5598375e-05 -0.0010708647
0.00036532691 0.0002047906 -0.001519541
-1.3113985e-05 0.00048607841 -0.0015123367
0.00050706917 0.00033578853 -0.0011586696
1.5493968e-05 0.00075439428 0.00026471372
-2.3215638e-05 0.0019729005 0.00057432632
-0.00013782589 -0.00063665718 0.00081566005
0.00029512768 -0.00070939859 -0.00085683761
0.00021720755 -0.0010342709 -0.0014851539
0.0005648057 -0.0011272987 -0.00086883886
0.00027093306 -0.00030638376 -0.00020641637
-1.4773892e-05 -8.426312e-05 -6.4366621e-05
-6.5666223e-05 0.00034955822 0.00037001431
-5.2966825e-05 0.00030416725 1.2360785e-05
0.00054975285 0.00068809354 -0.00038944825
-3.5720899e-05 0.0018798027 0.00024253823
0.0002864945 0.00039649877 0.00021095022
9.8031103e-07 0.00049409148 0.00025845022
0.00024557963 -0.00019982892 -0.00042900027
0.00021246453 0.00019112194 -0.0010324828
0.00043326788 0.00020828578 -0.0012063211
0.00090506184 0.0001207318 -0.0015428785
0.0010994583 0.00041419736 -0.00092963746
0.00039955476 0.00098232075 -0.00017000905
3.4903489e-05 -0.00014652051 0.00048014382
0.00065718289 -0.00036551859 -0.00045464709
0.0009759916 -0.00090304646 -0.00089365226
-6.2735933e-05 -0.0002494595 -0.00016853934
6.4457403e-05 -0.00069489842 -0.00075218815
0.00023950083 -0.00073316559 -0.00065219041
0.00036660495 -0.00049641827 -0.00075590133
0.00042103618 -0.00014990625 -0.00050539651
0.00026752829 0.00043083454 -9.4535659e-05
0.00032402526 -0.00029638154 -0.00074326422
-1.2748491e-05 0.00091712753 0.00060939143
7.0048998e-05 0.00023996594 0.00018019737
-9.3157745e-05 8.8533241e-05 2.2887845e-05
0.00047286588 0.00020861985 -0.00076150039
0.00050393661 0.0004932516 -0.00093562726
0.0010708387 0.00017641268 -0.0013209897
0.0011522974 0.0011534304 -0.00025044303
0.0002028177 0.00011293031 0.0011741639
0.00071894069 -0.00018250228 -0.0001643866
0.00072025816 -0.00068759453 -0.00094196881
0.00043872211 -0.00099072349 -0.0012260895
0.00020225762 -0.00015937585 -0.0003512917
0.00016421427 -0.00022509013 2.2935717e-05
0.00018768702 0.00043300507 -0.0002854788
0.0002615671 -3.4199304e-05 -0.0004112949
0.00057120406 -0.00036601073 -0.0005961993
0.00027447933 0.00056072627 -0.00076877436
-4.2986787e-05 0.00015109805 -7.4476724e-05
-0.00012491216 0.00066742004 0.00029599981
7.1315895e-05 0.00038221534 5.2673945e-06
0.00063621637 0.00069976354 0.0001335358
0.0008681016 0.00065022981 -0.00026658626
0.0013102043 0.00090300705 -0.0002901697
0.00086368609 0.0017005333 0.00011497528
0.00048151144 -0.00047633442 0.00045541802
0.00050723483 9.5427304e-06 2.8831488e-05
0.00035085762 -0.00020746472 -0.0003475679
0.0008242536 -0.0012291659 -0.001522382
0.00064430828 -0.00068918383 -0.00082008122
0.00020252721 -0.00013995515 -8.5145381e-05
6.8629626e-05 0.00011682647 2.3756673e-05
-5.4922446e-05 0.0009311554 -0.0002104165
0.00015314254 0.00014884319 -3.4049441e-05
0.00036315634 0.0007087143 -0.00022417647
0.00025455299 0.00034702281 4.0393948e-05
0.00025468864 0.00084523903 0.00039670826
0.00024117698 0.00064361579 0.00029068885
0.00041097077 0.0010940045 0.00062478083
0.00094737951 0.001524882 0.00074385683
0.0010387301 0.0012515433 0.00033086629
-0.0002387701 -0.00024382339 0.00051371398
0.00016397626 -0.00036241685 -0.00034487798
0.00050433545 -0.00034260997 -0.00045663721
0.00049660285 -0.00038404539 -0.00039853583
7.344965e-05 6.5131695e-05 0.00037168039
-7.603001e-05 0.0003169422 0.0010278011
4.8065947e-05 0.00077970093 0.0009037925
0.00010277167 0.00026105056 -8.7293731e-05
0.00011306431 0.0011350692 0.00096786936
2.4933614e-05 0.00054152199 5.1252931e-07
0.00012972644 0.00082383672 0.0005303974
0.00026449785 0.0010360128 0.00041814253
5.5716395e-05 0.0013174895 0.00087469228
0.00048341716 0.001603389 0.0010372759
0.00053763291 0.0017848762 0.00083614665
0.00079243403 0.0018563266 0.00075883372
6.0870727e-05 -8.0320795e-05 6.7756635e-05
5.6670564e-05 -0.00045723526 -0.00046273263
0.00014015162 -0.00021636346 2.8156271e-06
0.00015569772 -0.00053738942 -0.00036690192
7.5151605e-05 2.9976518e-05 0.00013380182
-4.2559404e-05 0.00010411481 0.00022671871
-9.2266506e-05 0.00032279527 0.00020265522
8.3465718e-05 0.0010123447 8.8635112e-05
-0.00014895326 0.00074743666 0.00018900017
-9.5544034e-05 0.0012463799 0.00094200147
-0.00023032798 0.0011907441 0.00062261586
0.00069395389 0.0012696501 0.0010269872
0.00011253171 0.0017683818 0.001190954
8.6536093e-05 0.0017371165 0.0011627463
0.00080568425 0.0017219092 0.00097168941
9.9256387e-05 -0.00044660436 -6.1910207e-05
1.5487529e-05 -0.00020582914 -2.0631112e-05
0.00012108548 -5.5623186e-05 0.00023901026
-0.00031603879 -0.00041752306 -8.9189896e-05
-0.00026320899 9.2691071e-06 0.00011032657
-0.00017660017 0.00019344142 0.00025592945
0.00074831233 0.00045638112 -0.00018902415
0.00025300001 0.00018303924 -2.2836639e-05
8.9751884e-05 0.00055573473 3.8581933e-05
0.00059884723 0.0012479232 0.00061207131
0.0003642751 0.0016757842 0.0008656361
0.00018748187 0.0013524103 0.0013136544
0.00099286507 0.0013858308 0.00093814125
0.00076848554 0.0016306705 0.00046124257
0.00076594797 0.0019999938 0.0012247222
0.00017897727 -4.7241134e-05 0.00010605839
-1.6085276e-05 5.3648495e-05 9.3421389e-05
-5.7130776e-05 -9.6253199e-05 0.0003671934
0.00015767304 -0.00014138273 -4.3976543e-05
0.00010745502 -4.0026043e-05 -1.9173336e-05
-0.00025291194 2.7201497e-05 -0.00051725918
-5.6496254e-05 -6.7616071e-05 -5.212241e-05
-0.00046520183 0.00030701107 -0.00049338804
-0.00030465002 0.0011224435 -2.6061698e-05
0.00014965734 0.0012767814 0.00072311016
0.00062032137 0.0018095048 0.00070337334
0.00043825374 0.0018235766 0.0017000773
0.0004980166 0.0012613358 0.0013400024
0.001105555 0.0014574283 0.00063111301
0.00038457318 0.0017260732 0.00091666845
-0.00026995843 0.00037503455 0.00026554553
0.00017084238 -0.00015990456 2.9553074e-05
-6.1637562e-05 -0.00027418806 -6.9373724e-05
-0.00019207952 -0.00012898498 -6.1159262e-05
-0.00019812577 -0.00011402517 -2.1448644e-05
-3.7088128e-05 -0.00025249939 -0.00019562199
-0.00068283075 -0.00024319396 -0.00077901402
-0.00032365174 8.4353487e-05 -0.00021635345
-0.000108767 0.00067407714 -0.00017557728
-0.0002342434 0.00093405886 0.00013104676
0.0006636607 0.0018148165 0.00068311219
0.00046891961 0.0013718345 0.001297901
0.00016456837 0.0012926385 0.00072461512
0.0012501776 0.00096470973 0.00030915969
0.00020663298 0.00045091769 0.00074394059
-0.00019048301 0.0003899037 0.00093232532
-8.5361622e-05 -0.00014081277 0.00045342449
0.00030986813 -3.1845069e-05 3.8248101e-05
-0.0001335071 -2.7829765e-05 -0.00012734301
-0.00047952478 -0.00063707301 -0.00072866655
-0.00014583691 4.8851594e-05 0.00013342482
-2.2975785e-06 0.00023707493 -0.00027588831
0.00061654201 1.9790461e-05 -0.00043616755
-1.0427915e-05 0.00085587008 -0.00054425199
0.00069922023 0.0018778463 0.0010774505
0.00071664108 0.0012643923 0.00087139086
0.0010020116 0.00097747636 0.00039504439
0.0015212612 0.00070572464 7.5832868e-05
0.00042028385 0.0010559794 0.00052570266
0.00015546651 0.00023469735 0.00046951341
-1.7972676e-05 1.2250624e-05 0.00067285023
-0.0001953984 0.00025151338 0.00091283146
6.5003063e-05 -0.00026729092 0.00029400588
2.2924787e-05 -0.00020354941 -0.00023202706
-0.00014722274 -0.00011160803 -0.00035421146
-0.00030961083 0.00021666799 -0.00070531288
-0.0004601705 -0.00032562632 -0.00080032327
-0.00024908947 0.00022413996 -0.0001349519
0.00039587531 0.0012092752 0.00036907665
0.0010121096 0.00064595893 0.00046119498
0.001174019 0.00079063541 0.00016689578
0.0012324244 0.001516715 0.00041111661
0.0011784809 0.001394019 0.00090986589
0.0005410632 0.00095095142 0.0006828311
0.00016118036 0.00063834153 0.00076645985
0.00017344394 0.00021861987 0.00063394866
6.1539693e-05 -7.3274838e-05 0.0007472841
-0.00011003527 0.00032599547 7.1682566e-06
0.00022787221 -0.00030144691 -3.0665167e-05
-0.00025860206 -0.00020473308 -0.00065669819
-0.00053361314 -5.3782529e-05 -0.00056471035
0.00022088189 0.0010998495 -0.00042204635
0.00078683277 0.0011599207 0.00080841925
0.00074154901 0.00094557926 0.00052817422
0.00080173911 0.0005127748 0.00066255918
0.00017855733 0.0019607756 0.00085275539
0.00089950731 0.0014644857 0.0011276214
0.0011205013 0.001246928 0.0010895234
0.00081572874 0.00047902347 0.0010265736
4.3638185e-05 0.00033666048 0.0010847306
-6.1401246e-05 0.00067998696 0.00074887963
4.9453974e-05 0.00019572333 0.00031852233
-9.8659521e-06 0.0001474946 -0.00026785987
-0.0001407488 0.00013027586 -0.00041519181
0.00053816737 0.0014013086 -0.0001173661
0.0006833353 0.001259692 0.00039754811
0.00012941106 0.00053379306 0.00046300536
0.00062977656 0.00057621498 0.00080910831
0.00044103514 0.0022627928 0.0010901178
0.0014869751 0.0014890652 0.0016497598
0.0013185446 0.0018257488 0.0012462809
0.00014786029 0.00080576068 0.0011901013
8.6568602e-05 0.00055512413 0.00092265604
-0.00024519619 0.00044147702 0.00038133649
3.3654362e-06 0.00050219172 0.00017138735
0.00020598297 0.00065075996 -0.00010182851
0.00030844437 0.0033447088 0.0001011684
-2.2991566e-05 0.0010401773 0.00039863892
-4.7174075e-05 0.000910473 0.00069188117
0.0005095622 0.00034705084 0.00078697229
0.00077363732 0.0023002694 0.0016775918
0 0 0 1 0 0 0 1 0 0 0 1 0 0 0 0 0 764 1 0 0
