ply
format ascii 1.0
comment PCL generated
element vertex 764
property float x
property float y
property float z
element camera 1
property float view_px
property float view_py
property float view_pz
property float x_axisx
property float x_axisy
property float x_axisz
property float y_axisx
property float y_axisy
property float y_axisz
property float z_axisx
property float z_axisy
property float z_axisz
property float focal
property float scalex
property float scaley
property float centerx
property float centery
property int viewportx
property int viewporty
property float k1
property float k2
end_header
0.00082705345 2.877718e-05 0.00042930295
0.0010608262 -0.00010528554 0.00027175873
0.00058983202 0.00030759568 0.00079575594
0.00069396931 0.0012046117 0.0015014145
0.00030728022 0.0017006735 0.0020835421
0.00047807139 0.0010564377 0.0018320216
0.00066907564 0.00057820807 0.0015283221
0.0013150898 0.00075534551 0.0010073655
0.0016364644 0.00021968126 0.00050632149
0.0022627977 -0.00072933518 -0.00087849394
0.0020073059 -0.0011834477 -0.0016720893
0.0035984514 -0.0014929428 -0.0029825098
0.002361394 -0.0011805566 -0.0017988513
0.0023256287 -0.0011553261 -0.0012051333
0.002013434 -0.00037640191 -0.00039996087
0.0015278461 0.00086235639 0.00037454933
0.00053948915 0.0023369025 0.0012183519
0.00082351913 0.00028996589 4.3432257e-05
0.00048486079 -0.00015623418 0.00023343196
0.00021035512 0.00039388629 0.00083661248
-0.00011976902 0.0014611707 0.001460971
-0.00052466686 0.0010428018 0.0012678816
-0.0003890566 0.0013997691 0.0017267863
2.8985189e-05 0.00074833102 0.00083040632
0.00073233427 0.00054942974 0.00054807827
0.0012431203 6.0398729e-06 -0.00040580015
0.0027263758 -0.0011443872 -0.0012220267
0.0034947468 -0.0027937852 -0.0035010905
0.0046641249 -0.0017790083 -0.0039108805
0.0019585448 -0.00089697115 -0.0015187621
0.0025429984 -0.0014832437 -0.0018856344
0.0014626216 0.00011918581 -0.00067227974
0.00079734635 0.001280045 0.00043046605
9.7483484e-05 0.0020143467 0.0013356635
0.00022665517 0.00045981494 0.00050636736
0.00031558541 0.00074093201 0.00048813244
-0.00018992774 0.00066991406 0.00099349848
-0.00071056985 0.0019673568 0.0018776358
-0.00030111367 0.001082238 0.0021172361
-0.00059065939 0.0016344562 0.0017887717
-0.00012842196 0.0010569838 0.0016807248
0.00028212194 0.00054278894 0.00042904084
0.001016503 -2.2487291e-05 -0.00013754026
0.0017998177 -0.00073409034 -0.00076440827
0.0022617322 -0.0012697108 -0.0015616419
0.0028104249 -0.001205122 -0.0026665749
0.0035861982 -0.0012506754 -0.0021238537
0.0020928006 1.9908928e-06 -0.0007417858
0.001274017 0.00052079128 -0.00028060374
0.00044000032 0.00090905681 0.00082488073
0.00027351285 0.0024678234 0.0017311457
0.00057224493 0.00036372937 0.00078569062
-0.00015593584 0.0010073798 0.00080437202
-0.0001319671 0.0015108681 0.0013901031
-0.00067133649 0.0018958993 0.0015981058
-0.00057733501 0.00089844497 0.00087405153
-0.00017683368 0.00066839583 0.0015806851
-0.00022600463 0.0014840777 0.0012914879
0.00040371303 0.00092858978 0.0011445974
0.00039297118 0.00039043004 0.0002834113
0.0015158183 -0.00033007134 -0.00036603693
0.001055429 -0.0010194599 -0.0012829044
0.001141222 -0.00066153845 -0.0013468184
0.0020023054 -0.00043308578 -0.0011805706
0.0015323017 -0.00023383483 -0.0003015649
0.00099123863 0.00039412125 -5.0170209e-05
0.00054916512 0.00098215067 0.00085896527
0.00010647564 0.0017738382 0.0014653874
-0.00014862727 0.00032185891 0.00080484181
0.00034794008 0.00072316808 0.00068032707
0.00016505568 0.00084344682 0.00099409965
0.0003830622 0.0014249004 0.0013746513
-0.00017385431 0.00067228317 0.0011664578
1.110972e-05 0.00097709848 0.0013155726
2.1224752e-05 0.0014138893 0.0013277126
0.00012047473 0.00080406957 0.00070499658
0.00050336128 0.00061127957 0.00040092337
0.00011177512 4.8580507e-05 0.00015396268
0.00017360928 -0.00023332662 -0.00042307685
-0.00015446469 -0.00016584198 -0.0007330504
0.00065954245 -5.2398194e-05 -0.00043935311
0.00050809217 7.9274731e-05 0.00030902741
0.00063641201 0.00042252889 0.00066834764
0.00043139196 0.00093733071 0.00096577499
-0.00024394118 0.0016119876 0.0017808271
0.00024971447 0.00010301131 0.00070558186
-3.139508e-05 0.00053689023 0.0005120908
0.00010955436 0.00046286063 0.00096073578
-5.8313954e-06 0.00087652332 0.00093166553
0.00051160622 0.0013084228 0.0014443622
0.00022834275 0.0025849873 0.0022719696
-0.00038444012 0.0015265918 0.0016215098
-4.9509843e-05 0.00097250094 0.0018414474
0.00010065851 0.00074831949 0.00062654429
0.00017027969 0.00035963368 0.00038064783
0.0003137241 0.00025058581 -0.00021969361
-0.00016802616 0.00033684561 -8.5149761e-05
7.7113727e-05 0.00078248157 0.0010552279
8.3266068e-06 0.00045623386 0.00085147179
0.0005198521 0.00050942978 0.0010560782
8.8508292e-05 0.0006959106 0.0013343212
-0.00026098572 0.0012375297 0.0015227612
0.00024150754 -0.00020353879 0.00076110085
0.00031749695 0.00062230969 0.0008936802
-0.00013235163 0.00054803729 0.00065067591
0.00022611662 0.00047139253 0.00061202294
0.00021423561 0.0015369771 0.0011410913
-0.0002617937 0.0017580824 0.0013960835
0.00015677593 0.001546939 0.001331646
-0.00014067072 0.00073124218 0.0017046417
-0.00014013339 0.00073418114 0.0011998236
0.00048376326 0.00030562675 0.00047831866
0.00032984928 0.00060083624 0.00014140745
0.00013617949 0.00074837269 0.00028944956
7.9147958e-06 0.0010815959 0.0010563086
0.00036468776 0.0006998725 0.00078463979
0.00028165863 0.00054168957 0.0010287303
-0.000190512 0.00046064454 0.0012932201
0.00012600425 0.00078454067 0.0012486738
-0.00016754706 -0.00056884647 0.00071193778
-0.00011121568 0.00044546311 0.00058116845
0.00034584661 0.00041476527 0.00066743192
0.00015115004 0.00078053918 0.00062330009
-0.00020843113 0.00068695692 0.00072967773
0.00030464493 0.001218559 0.00088992907
4.7623653e-05 0.0017028503 0.0013066853
-9.2996568e-05 0.00081618736 0.0019662585
0.00028677375 0.0011306262 0.0018025613
0.00040600274 0.00028482667 0.00092313852
3.6356436e-05 0.00095796463 0.00064213929
0.00040095247 0.00092932465 0.00040881333
0.00038049946 0.0011463966 0.00070490612
0.00095457939 0.0006942905 0.00088947639
0.00036768877 0.00045610717 0.00093126815
0.00014452435 0.00029429229 0.00099002686
-0.00018477463 0.00048736649 0.00078020204
0.00032736239 -0.00053764338 0.00047773527
0.00025528437 -0.00033161027 0.00057490211
0.0002270273 -1.9904428e-05 0.00044567123
-0.00016352325 0.00020352508 0.00046908314
0.00039481511 0.00035545946 0.00066267716
0.00032159072 0.0016065192 0.0010211251
0.00013445987 0.0018889154 0.0011962601
0.0003431126 0.00079172145 0.0014810053
0.00026372354 0.00061493943 0.0011799055
4.6195943e-05 0.00036372445 0.0012110295
-7.906698e-05 0.00088519143 0.00062135962
0.00038676505 0.00090182567 0.00016361024
0.00070913247 0.00073255633 0.00027581572
0.0010160049 0.00078927574 3.915629e-05
0.00098245696 0.00045913263 0.00044424267
0.00060681201 0.00017968657 0.0006422617
0.00026830222 0.00015606183 0.00055081368
-0.00011731543 0.00035458818 0.0003087646
0.00030092921 -0.0010000765 0.00097937393
0.00037201296 -0.00064126431 0.00050134573
4.0352475e-05 -0.00095654727 0.00017867259
9.3890791e-05 -0.00062707794 0.00017844106
0.00010811634 0.00028212587 0.00068614038
-0.00018666743 0.00089804508 0.00051411253
0.00036688926 0.0013373168 0.0006444591
0.00019715264 0.00087663694 0.001091823
-1.6418164e-05 0.00033942005 0.0011325732
-1.283173e-05 0.00046043124 0.0012803696
9.6781936e-05 0.00073522731 0.00093582581
0.00066509441 0.00078110781 0.00014882532
0.00054732856 0.00049064518 2.954487e-05
0.00044163986 0.0004645889 -3.8348007e-05
0.00091582153 0.00048674172 6.6478569e-05
0.001013679 0.00057951437 -0.00058973016
0.00098190072 0.00074934395 -7.1873532e-05
0.00092227501 0.00091384578 -0.00037668046
0.00079017773 0.00082456839 -0.0006589875
0.00044775178 -0.0010706915 0.00077472441
0.00013951852 -0.00075323106 0.00041824274
0.00019306058 -0.00078125356 0.00032787595
0.0003149469 -0.00079261907 0.00034798449
-0.00025592203 -0.00044441456 0.00040876804
-0.00017626194 -0.00016275462 0.00013430354
0.00025762417 0.002201586 0.00091460429
-4.2278054e-05 0.00059687882 0.00042008801
6.916403e-06 0.00017366721 0.00050414517
-1.8534237e-06 0.00016306857 -0.00020077373
0.00065338949 0.00064183521 0.00060031755
0.00064605364 0.00062474312 -0.00021150486
0.00046913215 0.00014760239 -0.00015997331
0.00070102297 0.00037511197 -0.0002538171
0.00091217516 0.00063213153 -0.00016868154
0.00064506201 0.00079244416 -0.00079533336
0.00094796641 0.00092371338 -0.00049355766
0.00090777333 0.00094142376 -0.00052871963
0.00068644126 0.00078205444 -0.00061783055
0.00070463383 0.0008058424 -0.00095735601
-1.6639253e-05 -0.0017211339 0.0012217391
0.00013770643 -0.00065121171 0.00068393443
0.00039839614 -0.00054110884 0.00036409395
-6.304698e-05 -0.0008142264 0.00040571924
-0.00019966834 -0.00035094269 6.2391562e-05
-0.00066900521 -0.00071485096 0.00034446258
-0.001198118 -0.00038022498 -0.0005421706
-0.0012213135 -5.4852593e-05 -0.0009967261
-0.00041180023 -0.00016331233 -0.0010737128
-0.00016720574 6.4024418e-05 -0.0009932887
0.00025341989 0.00053806766 -0.00049017137
0.00060186483 0.00032454776 -0.00031880228
0.00058922841 0.00022963494 -0.0002294219
0.00051036954 0.00039307281 -0.0001792941
0.00051887985 0.00074992038 -0.00050215982
0.00035508632 0.00058558304 -0.0006364052
0.00056041719 0.00068059686 -0.00056263088
0.00072876812 0.0006383229 -0.00066057534
0.00059049972 0.00081945059 -0.00089759927
-1.5516991e-05 0.0006218208 -0.00091277261
0.0002248363 -0.0010391766 0.00078300567
0.00026542376 -0.00052083744 0.00010823124
-5.7195528e-05 -0.00031360873 0.00047336033
0.00013470296 -0.00028125939 0.00019447325
-0.00038440933 -0.00053664309 0.00042564108
-0.00046192895 -0.00047631474 -0.00016710746
0.0002985663 -0.00032915088 -0.00051523373
-0.00046242774 -0.00040987908 -0.00061559357
-0.00011027315 8.3130268e-05 -3.7565795e-05
-0.00060551998 -0.00014061734 -0.0012517968
0.00027714882 0.00044371176 -0.00064740225
0.00024932509 0.00027070579 -0.00042054645
0.00041927057 0.00014331489 2.3126775e-05
0.00053913658 0.00038730295 0.00016756081
0.00024902975 0.00084583741 0.00012983756
8.1685263e-05 0.00061495695 -0.00036088206
0.00030309032 0.00036631068 -0.00073835719
0.00062189042 0.0005305754 -0.00090215489
0.00059273245 0.00073278625 -0.0010139341
0.00019582652 0.00051398692 -0.0012742892
0.00013070522 -0.0019930219 0.0017006332
-2.8666936e-05 -0.00047775725 0.00044969528
0.00040823119 4.582863e-05 0.00058478164
0.00047734485 0.00023189792 0.00070745469
0.00022090282 -0.00024618881 0.00021016726
-0.00099482737 -0.00033541943 -3.425176e-05
-0.00019721474 -0.00043911298 -0.001712879
-0.00061396905 -0.00064249517 -0.0012340406
-0.0023325796 -0.0023657458 -0.0028525156
-0.0023629288 -0.0024642467 -0.0029221398
-0.0023819518 -0.00040220362 -0.001120872
0.00013501642 0.00014896398 -0.00062825257
0.00022608651 9.3754097e-05 0.00035777516
0.00040464246 0.00055408495 0.00077814067
0.00032730156 0.0010468783 0.0005295329
0.00014437441 0.00067474088 -8.4595718e-05
0.00016426851 8.81167e-05 -0.00081979478
0.00029516645 0.00033380828 -0.0010067077
0.00062141399 0.00038894761 -0.0011716081
0.00010798108 0.00029614387 -0.0014012493
0.00018434909 -0.00092675979 0.00075262249
0.0001585759 9.0373169e-06 0.00039235942
0.00014329518 0.00086739991 0.00073115912
0.00017677483 0.00058103068 0.00063029933
-0.00029019863 -6.679121e-05 -7.3944307e-06
-0.00036473549 0.00013690724 0.00053060887
-4.8801526e-06 -0.00016025503 -0.00087761303
-0.00095976703 -0.00061143562 -0.0011690054
-0.0025243431 -0.0027670756 -0.0038570997
-0.0013623598 -0.0014614946 -0.0013199884
-0.0015470013 -0.00099315739 -0.0012141416
-0.00070273405 -0.00034316542 -0.00056743377
1.2919862e-05 0.00010621046 0.00020961683
0.00011893005 0.00047250674 0.00022284014
0.00045325421 0.00094723562 0.0010609826
0.00045804342 0.0002555688 -0.00021697955
0.00034864529 3.3582666e-05 -0.00099787384
0.00050424953 0.00025186094 -0.0012217292
0.00027574945 0.00035133847 -0.0014844124
6.5899199e-05 0.0004159321 -0.001537355
0.00071695202 9.9610261e-05 -0.0016872154
0.00018410936 -0.0016511203 0.0016933138
6.9706439e-05 -0.00036247674 -0.00024632338
0.00068433239 0.00095571997 0.00069029088
0.00062900956 0.0010866842 0.0010497264
0.00056229014 0.0006938944 0.00078481593
0.00020921107 0.00012240272 8.9539317e-05
-0.00023245905 -0.00019742252 -0.00017998861
-0.00074992172 -0.0012323132 -0.0022541096
-0.0036555335 -0.0022037039 -0.0035502741
-0.0037491377 -0.0024839432 -0.0030333807
-0.0036302949 -0.0026876614 -0.0040102629
-0.0010191734 -0.0015043537 -0.0012865989
-0.00082242792 -0.00072593108 -0.0016787709
0.00032508944 0.0008047928 0.00083980925
0.00057066069 0.00084893662 0.00072436052
0.00068662624 0.00013433135 -0.00016474283
0.00067570235 0.00015291115 -0.00081409933
0.00043083192 0.00028053511 -0.0016980434
0.000118378 0.00053936226 -0.00092621718
-0.00010135319 0.00063256139 -0.0012311229
7.0321956e-05 0.00024989172 -0.0013936051
-0.00014952966 -0.0020268352 0.0019517728
0.00026741807 0.00057305617 0.00035028998
0.0008165231 0.0015772526 0.0016645282
0.0019532749 0.0035576043 0.0032331978
0.0018795885 0.0026706129 0.0026320312
0.00092185457 0.00093935395 0.0016788266
0.00054352684 0.00049200043 0.0017799729
0.0005756407 0.00039063048 0.0012724367
-0.0026071458 -0.0020201169 -0.0045324834
-0.0053686677 -0.0040523522 -0.0057716565
-0.0016220104 -0.0013401166 -0.0018249991
-0.0025695891 -0.0019630655 -0.0022673733
0.00023541843 -0.00012550149 -0.00023052165
0.00034182883 0.001249423 0.001372124
0.00037908263 0.0011646785 0.0014097395
0.00017607618 0.00057616911 0.00043062688
0.00016232113 0.00080873724 9.6931391e-05
0.00013119313 0.00075230811 -0.00052318047
-5.8484056e-05 0.00078245054 -0.00066417526
-2.7207985e-05 0.00062167604 -0.00078204856
0.00015937 0.0003901654 -0.00135982
-0.00052914082 -0.00077890675 -5.2421503e-05
0.00015018327 0.0010772881 0.00053307333
0.00018874474 0.0003577648 0.00047344528
0.00025905852 0.001355877 0.0010997866
0.00057702442 0.0026167836 0.0029645227
0.00030756538 0.0010500826 0.0017996035
0.00019106195 0.0018094114 0.0033156467
-0.0019321827 -0.0016545121 -0.0042446279
-0.0047433837 -0.0029963001 -0.0058879778
-0.013344297 -0.011662305 -0.015138502
-0.0054915524 -0.0042363349 -0.0043837638
-2.8531402e-05 -0.0011818814 -0.0012900545
0.00023581131 0.00063027191 -0.00016013144
0.00025401634 0.00090858014 0.001669372
0.00014701973 0.0013458612 0.0010201014
-0.00016581823 0.0012513327 0.00052901835
-0.00012909046 0.0010203056 -5.7873131e-06
-7.0513837e-05 0.00089000579 -0.00058829616
0.00013399053 0.00075387617 -0.00092421542
0.00038534607 0.00044343117 -0.0012377966
8.0640959e-05 -0.0019113094 0.0023223145
8.7086388e-05 -0.00061995332 -0.00028519478
-0.00040356896 0.00060426723 0.0013571488
0.00025893745 0.0028773379 0.0040606749
0.00016683085 0.0011225212 0.0015196513
0.0001054208 0.0011311976 0.0031323787
1.0553302e-05 -4.7661444e-05 -4.260549e-05
5.3997239e-05 -0.00086116348 -0.0020172866
0 0 0
0.0026720497 -0.0053417259 -0.008002799
0.0010383021 -0.0029523396 -0.0038760975
-2.8726216e-05 0.00032041597 0.00075228669
-3.2716107e-05 0.00081347727 -0.00020357725
-2.5959829e-05 0.00092229841 0.0015322559
3.5295256e-05 0.0011675846 0.00089114305
0.00011190677 0.001556705 0.00068473892
4.3147054e-05 0.0010149799 0.00018974586
7.1227267e-05 0.0010639424 -0.0003660325
0.00020145408 0.00066973321 -0.00070919277
0.00031030539 0.00066479266 -0.0010643749
-0.00010053463 -0.001607832 0.00160332
0.00011490757 -0.00063063554 -0.0002873014
3.7622773e-05 -0.00013459146 0.00019599572
3.0561769e-05 0.00056331197 0.00089631608
-0.00042517914 0.00074865983 0.00092358107
-0.00039818717 0.00097472267 0.0026605346
1.7383439e-06 -2.0088262e-05 -2.7744143e-05
0.0012665349 -0.003424536 -0.0028323217
0.00077087886 -0.00070800056 -0.0011346337
0.0013451853 0.00016884088 0.00039393207
-0.00053672184 0.00084704958 0.00069753884
-0.00063958683 0.0012980149 0.00150175
3.0387171e-05 0.00086382753 0.001507067
0.00047863205 0.0012214942 0.0012128078
0.00018955898 0.0012536125 0.00089800981
0.00030608763 0.0010751028 0.00054991618
0.00038163693 0.0015393285 0.00011216765
0.00021621617 0.0010852264 -0.000456654
0.00036633489 0.0011004802 -0.00081799243
0.00015109894 0.0009524115 -0.00088287483
0.00013079206 -0.0022228595 0.0017088604
-0.00011615349 -0.0013612504 -5.3492116e-05
-3.6219801e-05 -0.0009493024 0.00020712281
-0.00045156101 0.0003089825 0.00061942585
-2.6023524e-06 0.00014614844 0.00011706638
5.5013355e-05 0.00060929556 0.0010179143
0.00010388021 0.00054780277 -1.8947505e-05
0.00020779746 -3.8196664e-05 -5.9720707e-05
-0.00026694476 0.00033546626 0.00042901226
-5.9316029e-05 9.00304e-05 0.00014113099
-0.0022667663 0.0022917213 0.0040310877
-0.0011320962 0.0020341824 0.0029907499
0.00036287942 0.00086462719 0.001639905
0.00031407256 0.0020389964 0.0013678918
0.00027257847 0.0014966923 0.0010172572
0.00020075575 0.0010773598 0.00038144231
0.00019612706 0.0015123776 -8.1143065e-05
0.00013889247 0.001152898 -0.00036529158
0.00014816046 0.0011568938 -0.0006121326
-2.8079501e-06 0.0012087701 -0.00062536245
-0.00015218713 -0.0018119131 0.00099073432
-8.1183913e-05 -0.00098524522 7.0363545e-05
-5.5632248e-05 -0.00057695684 6.2424355e-05
-0.00010579504 -7.0416891e-06 0.0003390715
-3.1470641e-05 0.00018371256 0.00045569401
-0.00010442535 0.0014226909 0.001255703
0 0 0
5.9945527e-05 0.00081609329 0.001140775
1.5909078e-05 0.00062980462 0.0010562643
-0.0002806634 0.00043535425 0.001390318
-0.0020097806 0.0019323679 0.004521348
-0.00075256219 0.0013417958 0.0019026998
-0.00021817243 0.0017863561 0.0010385071
7.4364411e-06 0.0010024646 0.00079866004
0.00012538013 0.0013896746 0.00049058715
3.0134166e-05 0.001005376 0.00021070751
5.9014859e-05 0.001522609 -0.00013212455
0.00010509801 0.0012644607 -0.00033090578
9.3417679e-05 0.0012563182 -0.00040510367
-0.00015941897 0.0013281622 -0.00038428023
1.6898597e-05 -0.002270025 0.0005354326
-0.0001492569 -0.0022873809 -0.00015214618
1.698278e-05 -0.001754388 0.00017927209
0.00020342528 -0.00034728806 0.00068051956
0.00012039986 -0.000297341 0.0016789618
4.111863e-05 0.002410813 0.0016252412
8.0051454e-05 0.00071929663 0.0006542608
0.00028664857 0.0011944518 0.0016779732
-0.00020276077 0.0016199957 0.0030690669
-0.00084997708 0.0012009824 0.0024022807
-0.0017377094 0.0012897592 0.0023388055
-0.00080414838 0.0021937862 0.0010144163
-0.00017740867 0.0012015807 0.00026174786
-0.00013307387 0.0006485607 0.00010539723
-0.00012408233 0.00094473996 -7.1546594e-05
-8.2639621e-05 0.0010276281 -0.00011849363
-0.00011276313 0.0014384565 -0.00020712029
2.5920337e-05 0.0013512461 -0.0002810052
6.1266161e-05 0.0014669742 -0.00032236008
-0.00049705192 0.0014819595 -0.00030814219
-6.4674018e-06 -0.0014377283 9.1956623e-05
-0.00019699117 -0.0011259996 -0.0004397934
-0.00049186841 -0.0013240664 -0.00065001199
-0.00028472906 -0.00046836055 -5.0937469e-05
-0.00022745393 -0.00031810542 0.00035208621
-7.4204065e-05 0.00023300288 0.00080073043
0.00042899838 0.0018839411 0.0014436918
-0.00011341622 0.00035183641 0.00054168387
-1.0460612e-05 8.4903055e-05 0.00081330258
-0.00018100308 0.00050223665 0.00072470092
-8.0474601e-06 0.0010056801 -5.5523127e-05
-9.2172158e-05 0.00033658513 -0.00039565712
-0.00027106612 0.00053088192 -0.00032105349
-0.00024744641 0.00050771836 -0.00019239855
-0.00030557188 0.00080374774 -0.00050609646
-0.00028397591 0.0010636557 -0.00063971773
-0.00029487186 0.0013598775 -0.00023344498
-9.6507276e-05 0.001415949 -0.00034601308
0.00012820662 0.0015307155 -0.00023745948
9.3317307e-05 -0.0019557569 -0.00090498844
-3.7425532e-05 -0.002537475 -0.0014095569
7.9325204e-05 -0.0021371201 -0.00072742638
-6.520743e-05 -0.0010234156 -8.5442443e-05
0.00019764715 -0.0011746277 0.00044003065
0.00027461688 -0.00046915075 0.0010305932
0.00012920765 -0.00041600197 0.00049298018
7.0006339e-05 -0.00088100816 -0.00032772275
-0.00022772759 -0.00018701545 -0.00034914311
-0.00014925645 0.0009308703 -0.0008296725
7.4301395e-05 0.0005151325 -0.0013782671
0.00033546987 -0.00016116098 -0.0016790645
6.3082371e-05 0.00022450712 -0.00059568504
-0.00030157738 0.00036211225 -8.5003783e-05
-0.00019974362 0.00042893738 -0.00062606455
-0.00026174 0.00040743125 -0.0006758587
-0.00037572705 0.0012347217 -0.00016019428
1.04802e-05 0.0014029456 -0.00032884174
0.00023823093 0.0015018845 -6.377032e-05
-0.00042834991 0.0019031634 0.00040824359
0.00020339548 -0.0013084166 0.00026940327
0.00039857003 -0.0021120028 -0.0010336986
5.9915568e-05 -0.0010507152 -0.00078070443
-0.00011523721 -0.001008821 -0.00077516597
6.9793212e-05 -0.00025230611 -0.00021853336
-0.00014585211 -0.00022687858 9.1694325e-05
-0.0002652191 -7.682007e-05 0.00038157078
-0.00046813078 0.00023435593 0.00024066234
5.1252791e-05 -0.00021319123 0.00022493346
0.00020463986 0.00043794318 -0.00036999813
-0.00026778225 0.00044531797 -2.0529938e-05
-9.4256808e-05 0.00038105086 -0.00089096476
-3.2154887e-05 -0.00047370617 -0.0020838166
0.00010229313 8.7660861e-05 -0.00096577441
0.00015159667 0.00022381233 -0.00035511469
9.492231e-05 0.00057630258 -0.00069043343
0.00013934403 0.00045338657 -0.0013304625
-8.071123e-05 0.00080136565 -0.00086243724
7.3482697e-05 0.0014278011 -0.00060851569
0.00020068922 0.0018778824 -1.9905008e-05
-9.9174445e-05 -0.00066392228 0.00019224566
-0.00051536964 -0.0022320233 -0.0013262811
-0.00042669798 -0.0019217565 -0.0015933658
-0.00028629942 -0.0023233627 -0.0017144685
-8.9543988e-07 -0.00026759613 0.00014080809
0.00028306729 0.00032353005 0.00050260674
0.00033529164 0.0007129921 0.0010930147
0.00030683802 0.0013619801 0.0011084774
-0.00036496486 -1.5226474e-05 0.00014292292
-0.00028013857 0.00085759541 0.0001542417
0.00038833875 0.00044555741 -0.00047202272
0.00015308752 -0.00033100237 -0.0010256378
-0.0001125016 -0.00027882183 -0.00086567405
-0.00018272801 -0.00010898494 -0.0013944301
-6.1089099e-06 -0.00037720383 -0.0018828603
0.00012382037 0.00018923538 -0.0014683793
0.00036877097 0.00012999972 -0.0016160458
0.00019086736 0.00031008947 -0.0012223813
-1.5498903e-05 0.0011797042 -0.00051075895
-3.8661023e-05 0.0019409254 -0.00041459044
6.1940162e-05 -0.00081677455 0.00020404586
0.00051714206 -0.00088482659 -0.0010176526
0.00011563987 -0.00092187308 -0.00083161012
5.199316e-05 -0.00042367529 -0.00018146141
-4.5351237e-05 -0.00051024271 -0.00054695259
-0.00025257986 0.00015325034 9.1610513e-05
9.9671423e-05 0.00045708654 0.0005366148
9.8933757e-05 0.0018762157 0.00080516445
0.00029502509 0.0016133963 0.0011538198
5.5992983e-05 0.00076964305 -0.00026082699
-7.3337644e-05 0.00059943274 -1.8633924e-05
0.00031358851 -0.00024018342 -0.00089478062
0.00044609793 -0.00040844557 -0.0012246637
1.311754e-05 -0.00019089355 -0.0013175528
-0.00019843271 -8.3448824e-05 -0.0014492585
0.00025946673 0.00026140155 -0.0021521535
0.00054235384 0.00018437645 -0.0018421762
0.00044060952 0.00036815857 -0.0010599362
0.00016691764 0.00033910314 -0.00053629436
-0.0001227921 0.0012943373 -0.00035948196
0.00031606504 -0.0013771905 -0.00025903556
0.00021093011 -0.00056510617 -0.00080703368
1.0627497e-05 -0.00068930374 -0.00078114477
7.9796198e-05 -0.00082435308 -0.00070827006
9.6071009e-05 -0.00033550517 -0.00039848228
0.000240875 9.7445947e-05 0.00038898038
0.00012963355 -2.3357702e-06 0.0001094267
-5.0303537e-05 0.00032826047 2.8821376e-05
-0.00029169477 0.0006540519 0.00035852616
0.00039719901 0.0018435107 0.00022662093
-0.00023023138 0.00033381162 2.8725077e-05
7.8510366e-06 -0.00019881436 -0.00059308572
0.00019671606 -0.00017198118 -0.0010029217
0.00031295267 5.1224656e-06 -0.001388333
0.00041004704 -6.8690642e-05 -0.0018304103
0.00013401966 4.2295516e-05 -0.0017406438
0.00088857557 4.5692843e-05 -0.0019458521
0.00066239759 0.0005341479 -0.00094071613
0.00054112112 0.00069487671 -0.0011817229
8.1909449e-05 -0.0011983374 0.00012080737
0.00050717831 -0.00099143619 -0.0012433336
0.00055618049 -0.0011311503 -0.001637429
0.00055814744 -0.0012776001 -0.00098090549
0.00013747319 -0.00032069441 -0.00019757084
-0.00014713366 -4.9397102e-05 -9.7788379e-06
-1.2096841e-05 0.0004445285 0.00050746748
-5.7624591e-05 0.00033971437 8.0427824e-05
0.00087951188 0.00074392086 -0.00030085439
4.4766737e-05 0.0022274987 0.00061611627
0.00028148171 0.00050238374 0.00036062411
-1.4127705e-05 0.00048172983 0.00017629741
0.00018645679 -0.00022536449 -0.00080513099
0.00024574573 0.00018882548 -0.0013499355
0.00049147196 8.8393797e-05 -0.0014830803
0.0009761292 2.3211678e-06 -0.0018159417
0.001208738 0.00016975432 -0.0013968857
0.00083723053 0.00070076034 -0.0012175998
0.00025544022 -0.00069697882 4.4058783e-05
0.00074056629 -0.00059678406 -0.00066321099
0.00083507085 -0.00099189475 -0.0010056236
-8.7836772e-05 -0.0004185522 -0.00033702413
0.00021972961 -0.00098721602 -0.0010360222
0.00048419269 -0.00072717044 -0.00060385634
0.00044578998 -0.00042831685 -0.00068776222
0.00038926216 -3.6510348e-05 -0.00042016726
0.00011179355 0.00065453007 1.4605997e-05
0.00033544769 -0.00011033068 -0.00053804845
6.3510721e-05 0.0011051358 0.000877688
-3.2656144e-06 0.00021849222 0.00010919682
-0.00012807531 6.5432054e-05 -0.00014229497
0.00044416494 0.00013313752 -0.0010474557
0.00048715409 0.00056999444 -0.0010349131
0.0010094197 0.00021773388 -0.0013680264
0.001240639 0.00097258948 -0.00078778359
0.00023696329 -0.00065408455 0.00045637472
0.00060526247 -0.00034343795 -0.00044879873
0.00067286077 -0.00072855479 -0.0011126932
0.00056684279 -0.00099387532 -0.0012798959
0.00021403989 -0.00024532777 -0.00045590437
9.0545909e-05 -0.00023513244 -8.066786e-06
0.00022522996 0.00050415623 -0.00021075283
0.00039257534 0.00020847672 -0.000186768
0.00059802132 -0.00016872869 -0.00035700537
0.00032585498 0.0011043657 -0.0002433584
-7.2587442e-05 0.00030807848 0.00013349511
-6.5047527e-05 0.00066430919 0.00025586478
5.7404402e-05 0.00032577079 -0.0001189614
0.00056513248 0.00069170049 3.8839167e-05
0.00066091842 0.00067037734 -0.00022778026
0.0012714511 0.00094179483 -0.00042773222
0.0009400039 0.0016093055 -0.00023759902
0.00046408657 -0.00080933457 0.00013369622
0.00034760329 -0.00010504213 -0.00014812229
0.00030477147 -0.0002696063 -0.00050875859
0.00075706712 -0.0012983939 -0.0016094615
0.0006494032 -0.00095910026 -0.0011571894
0.00021865552 -0.00025018019 -0.00037840486
-1.6178243e-05 0.00010844741 6.2647778e-06
0.00016237813 0.0010399095 -9.9838995e-05
2.0969263e-05 0.00028610826 6.7907131e-05
0.00023905147 0.0011412039 0.00028118794
0.00013575477 0.00040101365 0.00019120827
0.00022094755 0.00087014586 0.00033243673
0.00021788744 0.0006218208 0.00024944622
0.00034477207 0.0011753186 0.00059184455
0.00091252092 0.0017143274 0.00073686847
0.00097114895 0.001351175 0.00027250327
-0.0002068391 -0.00035577713 0.00056984834
0.00018842278 -0.00040029912 -0.00032807648
0.00050561363 -0.00041478802 -0.00054543343
0.00039255034 -0.00048298875 -0.00051880709
0.0001403947 -0.00028565229 -0.00020552233
2.6122363e-05 -0.00015365922 0.00018854291
0.00017696079 0.00053102657 0.00049142895
5.3225343e-05 0.00027490975 -7.666176e-05
0.000166439 0.0013980262 0.0011552064
4.3294554e-06 0.00043883407 0.00019933785
0.00014128606 0.00080826046 0.00056396943
0.00016350571 0.0011290435 0.00050135812
4.5775655e-06 0.0013907544 0.00087688118
0.00040766026 0.0017481908 0.0010605041
0.00049068831 0.00198442 0.00087061769
0.00078048551 0.0019785231 0.00082091521
6.0645001e-05 -2.5723617e-05 0.00016248667
-4.7205274e-05 -0.00035770406 -0.00023766389
0.00015054694 -0.00026475993 -1.6663331e-05
0.00017670437 -0.00055675214 -0.00049603451
1.5238249e-05 -4.2328902e-05 -1.8065128e-05
-0.00016897832 -0.00013070271 -0.00012492923
-0.0001437123 0.0001482948 -6.5731651e-06
0.00015671657 0.0010651563 9.7983328e-05
-6.7502624e-05 0.00084314297 0.00048076551
1.632471e-05 0.0018182254 0.0011935967
-0.00019931082 0.0013529687 0.00084740832
0.00052289944 0.0012374264 0.0010386135
7.1970382e-05 0.0018388276 0.0012066852
3.5109577e-05 0.0019722958 0.0012137524
0.00067852088 0.0018896266 0.0010173637
3.1861993e-05 -7.4632262e-05 0.00045353579
7.0097529e-05 -3.7312224e-05 0.00022788378
7.5787633e-05 -7.8864832e-05 0.00025548367
-0.00028420993 -0.00039831534 -6.8021756e-05
-0.00026402136 -8.2594188e-06 4.7209673e-05
-6.8653608e-05 8.160431e-05 0.00010259434
0.00065224833 0.00087799469 0.00019061561
0.00013088937 0.00047914695 0.00025349116
1.7944196e-05 0.00067240535 0.00022403283
0.00044950089 0.0016984579 0.00090524618
0.00019979994 0.0018637194 0.0010058519
0.00013552225 0.0013427252 0.0013182568
0.00093749515 0.0015653794 0.0010774788
0.00064857572 0.0018355908 0.00064500805
0.00067390769 0.0021741511 0.0013427436
0.00012557177 0.00022050684 0.0004702326
-6.1628285e-05 0.00018700116 0.00035636718
-2.3179608e-05 -9.6412965e-05 0.00040858533
0.00014558874 -0.00011359766 2.5236453e-05
9.4568604e-05 -1.8540604e-05 3.9165374e-05
-0.00020976386 0.00010218438 -0.00045295543
-6.0295672e-05 7.6156168e-05 9.592624e-05
-2.7604267e-05 0.00060953945 6.7482215e-05
-0.00021245678 0.0014169107 0.0004880343
0.00011669681 0.0016062087 0.00097878976
0.00059147063 0.0019995125 0.00086500257
0.00032115227 0.0018542405 0.0018021995
0.0004415267 0.0015175461 0.0014782696
0.0010589483 0.0017889324 0.00089790567
0.0004556762 0.0019292813 0.0011111868
-0.00016275371 0.00072251767 0.00061934837
0.00017843113 5.1409635e-05 0.00030759428
-8.8800778e-05 -0.00026893639 8.8334536e-06
-0.0001635299 -6.093644e-05 8.1571648e-05
-0.00016899184 -4.0104667e-05 0.00020116448
-8.1520502e-06 -0.00010588583 -1.173847e-05
-0.00028702983 5.0695176e-05 -0.00021797327
-0.00019153317 0.00027763573 -2.4523884e-05
0.00019800651 0.00096658635 0.00035034117
-0.00010561794 0.001235984 0.00043621971
0.00069666514 0.0019153365 0.00087664917
0.00022518919 0.0014819889 0.0015733765
8.5629719e-05 0.0017784459 0.0011236017
0.0010330162 0.0015292936 0.00071317505
0.00017329381 0.0005241328 0.0008440087
-0.00017419315 0.00035292681 0.00081339583
-5.8414671e-06 -0.00014445146 0.0003613139
0.00033835843 -0.00016140573 -0.00012677036
-0.00015891116 -3.37204e-05 -6.0860955e-05
-0.00037531112 -0.00046934714 -0.00050551706
-0.00014445803 0.00014713137 0.00027369522
1.918262e-05 0.00031523273 -0.00013924895
0.00058609457 0.00023779515 -0.0002718957
-4.7516343e-05 0.0010751872 -0.00028513154
0.0005876011 0.0020668437 0.0012977765
0.00034894134 0.0015766284 0.0013006571
0.00090983586 0.0015115401 0.0010750755
0.00076146377 0.0016165499 0.0010298805
0.0005150584 0.001163385 0.00060120039
0.0001649255 0.00023786785 0.00050150929
-0.0001190777 -0.00013030652 0.00024836042
-0.00017503012 -1.6840408e-05 0.00011022075
6.1640036e-05 -0.00021900651 -4.6656052e-05
8.5098045e-06 -0.00026345035 -0.00032776009
-0.00014154852 -4.6950019e-05 -0.00029618829
-0.00029412468 0.00011999084 -0.00060636632
-0.00049315533 -0.00035782735 -0.00076404068
-0.00019855588 0.0002959946 2.6707578e-06
0.00015326962 0.0013197984 0.00091741892
0.00058711949 0.0012017079 0.0013695055
0.0005679694 0.0015261495 0.0014223037
0.00080502644 0.0020087562 0.0012258263
0.0010269932 0.0015766469 0.00096825248
0.00045578237 0.00071188359 0.00058482133
-7.2087256e-05 0.0001491429 0.00018646078
1.0369525e-05 -1.0958463e-05 0.00019499987
-0.00016589579 -0.00016036328 1.4505344e-05
-0.00016148233 -0.00014286378 -0.00043601842
0.00021945527 -0.00051650516 -0.00046687221
-0.00036507859 -0.00039235438 -0.00087625498
-0.00057328586 -0.00024532175 -0.00063229149
0.00032286282 0.0011018832 -0.00031309485
0.00077964197 0.0013348046 0.0011168008
0.00036029943 0.0011125354 0.0011489858
0.00061086158 0.00072418898 0.0010547793
4.6665591e-05 0.0020178 0.0012738082
0.00078239676 0.0012663946 0.00091864681
0.00037226503 0.00052435964 0.00042361137
0.00032008754 0.00031940185 0.00055294781
-0.00018805198 -0.00011994327 0.00044843319
-8.5402433e-05 0.00032693215 6.4724074e-05
-9.1648399e-05 -0.00010279979 4.0034531e-05
-4.287421e-05 -0.00026807107 -0.00063027121
-0.00020315987 -7.3491145e-05 -0.00052499812
0.00061443279 0.0012395591 -6.9579757e-05
0.00067443063 0.0013701819 0.00068414287
0.00013195028 0.00069952762 0.00073068455
0.00057668466 0.00064441736 0.00080488482
0.00061324943 0.0019962778 0.0011826246
0.00074706302 0.00086497527 0.00093243818
0.00078624242 0.0010168724 0.00056483422
-4.8808437e-05 4.3871801e-06 0.00032883123
-0.00013279729 0.00036408938 0.00043049786
-0.00038863136 -1.2363943e-05 2.6600725e-05
-9.7262564e-05 0.00022137313 -0.00013048186
0.00020052787 0.00054670003 -0.00027131208
0.00052517763 0.0022460802 0.00026995162
-3.0401237e-05 0.0011367619 0.00053789187
-4.7405993e-05 0.001132663 0.00079262315
0.00053788989 0.00050673343 0.00090355478
0.00040574916 0.0019164828 0.0013560175
0 0 0 1 0 0 0 1 0 0 0 1 0 0 0 0 0 764 1 0 0
