ply
format ascii 1.0
comment PCL generated
element vertex 764
property float x
property float y
property float z
element camera 1
property float view_px
property float view_py
property float view_pz
property float x_axisx
property float x_axisy
property float x_axisz
property float y_axisx
property float y_axisy
property float y_axisz
property float z_axisx
property float z_axisy
property float z_axisz
property float focal
property float scalex
property float scaley
property float centerx
property float centery
property int viewportx
property int viewporty
property float k1
property float k2
end_header
-0.0022935797 -0.036105148 -0.015303989
-0.00051833777 0.024475295 -0.00063170434
6.7798646e-06 0.00307311 -0.00012995141
-0.0019065879 -0.0090047596 0.018994918
-0.00059795176 0.0029908931 0.015141272
-1.2853224e-05 0.0042791856 0.020906078
-0.0021507342 -0.019536994 -0.0068741469
-0.0017320139 -0.011099018 -0.010095896
-0.0018206898 0.012102685 0.027903298
-0.0025196723 -0.052800268 -0.027576467
-1.0913565e-05 -0.00021007496 -0.00018097233
-0.0084293522 -0.093062431 -0.14271519
-0.0035178878 -0.039621834 -0.065893792
-0.0015814928 0.0024569186 -0.0071902121
-0.0025414224 -0.032212526 -0.020052407
-0.002624199 0.044561047 0.049773328
-7.4928008e-05 0.0077399286 0.0069559752
-0.00060829852 -0.021676293 0.00052615406
-0.00021673704 -0.0010167346 0.0011970805
0.0025490543 0.045387212 0.00025367722
0.0012241008 0.028816806 -0.0012018875
5.3734311e-05 0.0017709316 4.1093259e-05
0.0015071293 0.033233996 -0.0015316156
0.0003889022 0.006197921 0.00057667104
4.5437559e-05 0.0042383564 0.00045465142
-0.0023215057 -0.030421726 0.002163192
-0.0052344976 -0.10518235 -0.065040573
-0.0031664446 -0.063920997 -0.061363533
-0.0063565779 0.0052280282 -0.11585642
-0.00036555552 0.00033106425 -0.0052979775
-0.003137643 0.0045409156 -0.051281258
0.00061283709 2.9881658e-05 0.010428317
-0.00079326815 -0.011720187 -0.012662976
0.00029560324 0.054742828 0.043705925
-0.00023105432 -0.0012351363 -0.00082954642
0.0001359141 0.0030268983 0.00027004528
0.00027196133 0.031836502 -0.00083981501
0.004496308 0.10864796 -0.003521726
0.00096837321 0.029243968 -0.00061727065
0.00083865278 0.029287208 -0.00085701986
0.0021514213 0.078083195 -0.002789506
0.00065144646 -0.00073273294 -0.00037917768
9.8729644e-05 0.00016270166 6.956546e-05
-2.5816207e-05 6.8037763e-05 6.6090688e-05
0.00034411557 4.0880775e-05 0.00039789165
-0.0024356074 0.0019929202 -0.036186688
-0.00030690531 0.00054343668 0.00083042443
-0.0012150932 0.0024430829 -0.01559442
-0.00025517991 0.00041361706 -0.0013539123
0.00026716568 0.0011004341 0.029750653
-0.00024493816 0.011512978 0.00063900463
-0.0002454627 0.006535396 -3.721091e-05
0.00011466803 0.020146269 0.00049789983
-6.4525542e-05 0.010840808 -0.00015559049
0.0011098414 -0.0012303049 -0.0012965697
-6.731492e-07 6.122925e-05 -7.3786094e-07
9.1790513e-05 0.00089164713 0.00016615342
0.0036123104 -0.0027520694 -0.0029556346
0.0019251875 -0.0015200805 -0.0017049131
9.8890312e-05 -0.0010311671 -0.00013941336
-0.00088028051 0.0014028585 -0.013541539
-0.00052045152 0.003415063 -0.02274156
0.00051688886 -0.00056761457 -0.00038211633
0.001318778 -0.00054597779 -0.00062968076
-0.0011391237 0.0007171586 -0.015627343
-0.00014844186 0.0021934223 0.028409183
0.0011512396 -0.0016971014 0.079026751
-1.0230655e-06 -1.1395407e-05 -1.7794232e-06
-7.0463095e-05 -0.0063732583 -0.0043314607
9.6893746e-05 -0.010400056 0.00063335837
-5.2598971e-06 0.00081194582 -2.3660457e-05
-5.2452859e-05 0.0065841125 5.4297438e-05
0.0010035381 0.021218656 -0.00056938769
0.0011490401 -0.00058959221 -0.0019726304
0.00017704863 -0.00019947784 -0.00024559343
0.0008074182 -0.0010327793 -0.0015131795
0.00043604741 -4.2822099e-05 2.8076374e-05
0.00050954492 0.0013947738 0.02942149
4.5949404e-05 0.00098097872 -0.0043562874
0.00042200682 0.0010741212 0.0074537406
-0.0007226817 0.0015792834 -0.012524629
-0.00057180494 0.0010787671 -0.011144686
0.00066833082 -0.00056747964 0.027421735
2.9983868e-05 0.00018130246 0.006277326
7.9440346e-05 -0.0049137529 0.030775977
0.00090176228 -0.01599668 -6.8143759e-06
0.00084551878 -0.010405118 0.00072403735
0.00012905129 -0.014831474 0.00058677711
0.00047784246 0.050565775 0.00012182905
0.00039820877 -0.0015451491 0.0035882278
0.00026409308 -0.0012557695 -0.0019728099
0.0014522108 -0.0034025221 -0.0037760616
0.0023876473 -0.0042157476 -0.0063440632
0.00014466881 -0.00020704958 -0.00023619599
0.00084809051 0.0010348099 0.021798966
0.00021919582 0.00091052905 -0.015100149
0.00023952741 0.0012668618 -0.0072775669
-4.0916348e-06 0.0014185619 -0.0027073761
0.0002487587 0.00023787886 0.019017486
0.00011714344 1.0490203e-05 0.011138299
-0.00035407968 0.0008288463 0.012793164
-0.00056976586 -0.0027733161 0.052953307
-0.00016963997 -0.0061751585 -0.00055170141
9.5064977e-05 0.0001300635 1.0116067e-05
0.00013740319 -0.017934334 0.00081946008
1.8850866e-05 0.0028205931 -4.6824465e-05
0.00055678457 -0.0029057865 -0.0033734967
0.0016994454 -0.0046073436 -0.0054256376
4.0813421e-07 -1.9541303e-06 0.00014561584
0.00014359305 0.00041575675 0.055165552
7.1250033e-06 -3.4658362e-05 0.0061760615
-9.0723806e-06 2.4900341e-05 -0.00025634764
4.9157476e-05 0.00046771698 -0.0050324374
0.00011381158 8.6491986e-05 0.024242168
8.8084576e-05 -0.00046142246 0.044997379
0.00032337348 -9.9230401e-06 0.022970092
0.00027202364 0.00052370166 0.032870423
-9.9243902e-05 0.00011130262 0.083846651
2.8067891e-05 -5.8667818e-05 0.0039288043
0.00043363433 -0.024928425 0.0005822911
-1.885669e-06 0.011713717 0.00062452233
0.00073894538 -0.020863445 0.0009047435
9.5833675e-05 0.024032103 -0.00065645209
0.0012706419 -0.0033538011 -0.0038729103
-1.7005856e-05 -0.00056115567 0.012662239
-3.4656339e-06 -0.00060651125 0.043915123
0.00019926894 -0.00087369524 0.075634748
-6.2278305e-05 -0.00010815867 0.010966028
0.00045153935 0.00036057807 0.038174156
0.00015176913 0.00028306621 0.030032681
0.00060777488 0.00099801703 -0.008463582
0.00043852549 -9.2186616e-05 0.016505918
0.00098485383 0.00092961191 0.008403671
0.0010037223 0.0011656414 0.037238512
-0.0013178469 -0.00057413126 0.076498203
-4.4679368e-06 -1.7653701e-06 0.00023943569
-0.00039827125 0.0030828991 -0.0023311605
0.00028253224 -0.01880425 0.00065395876
0.00025344876 0.005065463 0.0011277795
0.00016555352 0.012701605 -9.0089154e-05
1.4063707e-05 0.015346977 0.0002755535
0.00037096647 0.013748132 0.01111317
-3.4893481e-05 -0.00016663426 0.013752577
-0.000224944 -0.00062559464 0.034134492
1.3736611e-05 3.8038965e-05 0.0017114682
0.00029081709 -0.0006414479 0.11953837
0.00049357105 0.00051283638 0.034641422
-5.4728236e-05 0.00027895992 0.011738935
-7.3072937e-05 -0.00062020053 0.021343017
-0.00064004294 -0.00071861071 0.033335175
0.0015329913 0.00075705 0.021320296
4.9299397e-05 0.00054795272 -0.0041862573
-6.0764894e-05 0.00080449186 0.046024658
-0.00013063422 -3.9558363e-05 0.005604588
-4.3856846e-05 0.004894393 -0.0010741283
0.00010228887 6.873543e-06 0.00022264013
0.00047364831 0.0089045856 0.0011609397
-7.2405761e-05 0.011742061 -0.00013138331
0.00057009695 0.064970948 0.00084932236
0.00021847946 0.019521862 0.020788141
-0.00022868138 -0.0014601958 0.024673961
-2.3771056e-05 -0.001430798 0.1122052
2.8087323e-05 1.2659822e-05 0.012755631
0.00012226377 0.000130452 0.053217184
0.00014311889 0.00035838858 0.0038506412
0.0013842436 0.0013374931 -0.0041163219
0.00011144628 -0.00037223272 0.028870657
-0.00051298266 -0.00031739488 0.033874545
-5.4431621e-05 0.00033360283 0.03636048
0.00096377073 0.00051204115 0.033455234
-4.9557031e-05 0.00054677122 0.054950915
-0.00073622121 -0.00039458027 0.046205457
-3.5573448e-05 0.00069976499 0.0011780628
-1.9650844e-05 0.0014599222 -0.00032754987
0.00031054454 -0.0010375914 0.00010286707
0.00011112916 -0.00090737321 -0.00026984594
-3.1790237e-06 -0.00084586168 -0.00057900627
0.00047181602 0.00094354787 0.0006461757
0.00038889961 -0.0024506643 -0.002688071
-0.00028064122 -0.0020274152 0.037021585
-8.9062436e-05 -0.00045421626 0.037973814
-2.3403591e-05 3.0742667e-05 0.0062617376
0.00042043053 0.00038166391 0.021324232
-0.00020819694 4.2627889e-06 0.011765891
0.00050687691 0.00025912258 -0.002714141
-0.00021150928 -0.00047100722 0.03924571
0.00047867611 -9.0159047e-05 0.016580181
-0.0020579135 0.00015554861 0.063255951
-1.4077112e-05 -2.3909215e-05 0.0035576664
-5.1232397e-05 1.4909369e-05 0.013894295
8.2316001e-05 -3.7648348e-05 0.0058238632
0.00098351378 0.0011863752 0.0005052585
-0.0010593195 -0.00099853554 -0.00044842789
-0.00015597919 0.0049063792 -0.0017305076
-1.5904817e-07 -9.8131804e-06 -4.6696682e-06
-0.00013342204 -0.0015564897 -0.00072711299
0.00023771204 -0.0011481745 4.1265706e-05
0.00046051078 -0.0001148849 0.0014038219
7.4301948e-05 0.00046681965 0.00062184088
0.00058996218 9.1034643e-05 0.00557512
0.0011809049 -0.015996143 -0.019331662
0.00050331437 0.00013212726 0.00010193932
0.00017344234 -0.00022433167 -0.00088995579
6.8828995e-05 0.0001155306 0.036647376
0.00047498965 0.00020544765 -0.00021377197
0.00015878885 -0.00019740248 -0.0013354368
0.0011518919 0.00040145003 0.016664587
-0.00073925499 -0.00019593757 0.025216784
0.00059505802 0.00057126972 -0.0006802936
2.1571055e-05 0.00019494677 -3.6166726e-05
-0.00057869381 -0.00063492783 -0.0022643106
-0.0005415362 -0.000441824 -0.001821731
0.00011309371 3.5802292e-05 0.00053498708
-9.7615499e-05 0.00059696223 -0.00040911496
-0.0004053895 -0.0014228602 -7.5907687e-05
0.00026424797 -0.00087808986 -0.00039513395
0.00011243737 -0.00023376197 0.00027562774
-7.126866e-05 -0.00010371939 0.00029894165
-0.00060709391 -0.00072792976 -0.00099509303
2.852348e-06 2.5016334e-06 5.9309486e-06
-0.004974144 0.00029267097 0.0003652013
-0.012176362 -0.010026911 0.00092620339
0.00058048026 0.00078003673 -7.51353e-05
0.00079125498 0.0010376739 -0.00080777891
0.0012210732 0.00041688542 0.00097965845
-0.00014350511 -0.00024524904 -0.0015536551
0.00027082788 -4.6319314e-05 0.00030046509
2.5711895e-05 0.00054336054 -0.0025872434
0.00014391396 0.00014105989 0.00017663046
0.00013800003 0.00022018778 -7.2320276e-05
0.00020992382 -0.00024035126 -0.00084373739
-2.7645441e-05 -0.00071261346 -0.0020621193
0.00050648383 -0.00031346886 -0.00013802858
1.4185251e-06 0.0001478239 0.0004169872
6.8600093e-05 0.00018404593 -1.6135948e-05
-2.8479764e-05 5.5199907e-05 4.7509224e-07
-3.4939665e-05 -0.00013044634 0.00038563719
0.00048848352 0.00053148856 0.0011170415
-0.00053286843 -0.00055193552 -0.0004675306
0.0012373071 0.0007088558 0.00065803854
1.7313465e-05 4.0654373e-05 5.0201179e-05
0.0014247122 0.0013026237 0.0014413527
0.0016004498 0.0012286369 0.0014819026
0.00067805318 -0.020043004 0.0013965981
-0.00035139394 0.0002689019 -0.0014997828
0.00064601243 0.00013696295 0.0010932607
3.0611536e-05 0.00010679165 -0.00049947639
-0.00037678782 -0.0012463386 -0.0033894887
0.00037753736 0.00059625477 0.0011889783
0.000549194 0.00068190508 0.0014070669
0.00061180885 0.00054983533 -0.00041662564
-0.00010118532 0.0013845492 -0.00030470287
0.00035190754 -0.00088762364 -0.00018558075
-0.00010078561 6.3714353e-05 0.00026895481
-0.00029406688 -0.0016439289 -0.00062134408
-0.00018862858 -0.00072393502 -0.00048537116
1.4449802e-05 1.1043884e-05 8.5532774e-05
0.0001061475 0.00011022029 0.00030715502
-0.0012696641 -0.0011134819 -0.0014004039
0.0017680995 0.0013423397 0.0021237545
0.00091185962 0.00019833969 0.00061255239
0.0034466058 0.0034897025 0.0041838591
0.0039559067 -0.082812056 0.0053191641
5.3318759e-05 2.9812041e-05 3.8451912e-05
0.00011990043 -0.0017544342 5.4863096e-05
0.00042360026 0.00012770844 0.00088387437
-0.00049515098 -0.00053770648 -0.0016211353
0.0004167294 0.00021087634 -0.0016290421
5.8357291e-05 2.9022158e-05 -1.5378157e-05
0.00030980722 0.00048749766 0.00023231331
1.1816494e-05 0.00064927206 0.00020483615
0.00024984832 -0.0017078595 -0.0005664326
0.00023783579 -0.0011746526 -0.0008378576
-0.00050455035 -0.0012830062 0.00047128083
1.1852373e-05 0.00024973234 -0.00038081253
0.0004210507 0.00064109376 0.00029149596
-4.2935419e-05 -0.00015954683 -3.4063025e-05
-0.0024115182 -0.0046613645 -0.0042258115
-0.0016188243 -0.0019731277 -0.002073355
0.0015898611 -0.012559609 -0.016211668
-0.00066633924 -0.00051752897 -0.00045700476
4.9660259e-05 -0.0003010529 3.6986788e-05
0.0061411816 0.0049415305 0.0070827887
0.0034855285 0.0028238532 0.0037162872
-0.078708127 0.0043014544 0.0049966369
0.0029381816 -0.046303183 0.0043599773
0.0019767806 0.0016239588 0.00094945153
-0.00023879063 -0.00048990251 -0.00070469681
1.686923e-05 -0.00027163824 -0.0010278316
-6.3629632e-05 -6.8540634e-05 -0.00042099369
0.00071779406 -0.00042178744 -0.0011981457
0.00024974564 -0.001593329 -0.00065102801
0.00017466614 0.0012192815 -0.00023933646
0.00029914544 -0.00073174573 0.00078542141
0.00011043616 -0.00048234555 0.00067767344
0.014306242 0.0011855346 -0.0048647015
-0.00043840313 -0.0013818056 -0.00055350305
-0.00039313993 -0.00038526373 -0.00031336356
-0.00050999428 -0.0024748032 -0.002221952
-0.0011767796 -0.0022480439 -0.0024968619
-0.00076912431 -0.00098268443 -0.0028872257
-0.00036579714 -0.00033382149 -0.00051380711
-0.0015945175 -0.00093253417 -0.0023538447
5.4752563e-05 4.6090725e-05 7.0256508e-05
0.0021351478 0.0021396754 0.0032081257
0.0031976441 0.0013626182 0.0024738014
0.00023061651 0.00024451732 0.00033907391
0.00088297692 -0.0030146113 0.0013280004
0.00028082976 0.028876144 -0.00012950662
0.00046741628 -0.0012291553 -0.0029263473
0.0010097631 0.00049471168 -0.00010393342
5.5821056e-05 0.00057236175 0.00041008322
0.0001441895 -0.00058582582 -0.00088641566
0.00014285091 0.00074351189 -0.0001973154
-2.8440671e-05 -0.00063942699 0.00087272766
0.00037562722 -0.0003041719 0.00089515856
-0.00020266222 0.00027598691 -0.00016715442
0.00019604704 4.1314692e-05 0.00014429234
-8.6751534e-05 -0.00020986784 -0.00021138185
-0.0020489218 -0.0053179562 -0.0045085736
-0.0017759922 -0.0067588924 -0.0077592926
-0.00036807024 -0.00039027567 0.044310596
-0.00024757348 0.00012861847 -0.00065118721
0.0037582931 0.0023028909 0.0063768108
0.0035200494 0.0028322446 0.0034281751
0.0042341561 0.0030854074 0.003740496
0.0014122796 0.00075121957 0.00073672272
0.00035105384 0.00072644686 0.00024608639
0.00079978677 -0.00036972939 0.00070772361
-0.0005999938 -0.0013051872 -0.0020981519
2.8602824e-05 -0.00067316141 -0.0022099363
0.00027177125 -0.0015216528 -0.0028405602
0.00014125518 -0.00020873909 -0.0011907892
0.00023151422 0.00058419252 -0.00043254992
0.00016224144 -0.0011306143 0.00036577223
0.00030415106 2.0690533e-05 0.00068679184
-0.00032556622 0.0009886988 -0.00068913453
-0.00072644366 0.00082639267 -8.9969235e-06
-0.00017089643 0.00058816007 0.00043619951
-0.0001105237 -0.0018768342 -0.0021086154
-4.3463617e-05 -0.00046654011 -0.00063476153
-7.5982833e-05 -0.0010375652 -0.0029781335
-2.9547593e-06 1.2518328e-05 1.2056447e-05
-0.00015470956 -0.00017191509 -6.7612942e-05
0 0 0
0.0047944025 0.007771201 0.012655629
0.00087062438 0.003903969 0.0061208322
0.00058666151 0.00023434764 -0.0011112493
-0.00039433406 -0.0017387464 -0.0013938092
0.00014215912 -0.0010467783 -0.0016483818
9.0865462e-05 -0.00088107743 -0.0021466138
0.00033645987 -0.0013727673 -0.0022737035
0.00011996028 -0.00020207115 -0.00021416426
-0.00072801864 -0.0011503716 -0.00063125067
0.0059925038 -0.0011192587 -0.00096711214
0.0064084125 0.00042617432 0.0010236125
-0.00010837592 0.00010545131 -9.5860225e-05
-2.4982584e-05 6.8692985e-05 4.7363526e-05
-6.7695505e-06 0.00024628988 0.00032268246
-1.6123613e-05 -0.0024936146 -0.0023860955
-7.3649695e-05 0.0069425227 -0.00045630717
-0.021326257 -0.0024136223 -0.0051643751
0.0067829895 0.00064244942 0.00066426303
0.0015545302 -0.00090695388 -0.001690353
2.4835985e-05 8.7875058e-05 5.5245375e-05
7.7942015e-05 -0.00014810322 -0.0002651106
0.00069565082 -0.00076497206 -0.001931192
0.00037503935 -0.0010032917 -0.00069852447
0.0002855674 -0.0016608848 -0.0019176415
-5.7914618e-05 -0.00012456955 -0.00021554821
-0.00034649929 -0.00010734522 -0.00028726147
-0.00016665729 3.0084822e-05 4.8746544e-05
-0.0090473453 -0.0012007694 -0.0018837381
-0.0024357289 -0.00018730227 -0.00099648011
-0.00093783368 -0.00062785868 0.00023588458
-0.0028934649 -0.0038310001 0.0025766692
0.0044521922 0.0036871315 -0.0039704666
0.0044259196 0.00040998959 0.0011008801
-0.000306762 0.0019127151 0.0021559012
-8.7941538e-05 -0.00041973818 -0.00021752407
5.6378722e-05 -0.00035169366 -0.0010797104
-0.0030944154 -0.0018827148 -0.0017198244
5.2143628e-06 2.4642327e-06 1.6594132e-06
-0.00059006712 0.0002549644 0.00032999893
8.2944171e-05 -0.00011329573 -0.00023062604
5.6937239e-05 -5.7607736e-05 -0.00017489569
0.0026017518 -0.0011612305 -0.004366105
0.0017778005 -0.0048403852 -0.0021883924
8.5221931e-05 -0.00039398894 -0.00031931553
0.00080041558 -0.0012995696 -0.0025161495
0.0054411446 -0.0021196946 -0.0063580074
-0.0043963268 0.0007933008 0.0013897169
0.00065925112 -6.7241272e-05 -2.7277469e-05
0.0012573343 -0.00095718779 -0.00041356028
-4.0930161e-05 -0.00066807977 -0.00058388588
-0.0019623674 -0.002331191 5.5824225e-05
0.00026001813 0.00013355119 -0.00012999702
-0.00049111183 7.5468968e-05 0.00028445339
-0.0020607635 0.00047816135 0.00047061921
-0.0011118368 -0.0010292109 -0.00023507845
0.00049530197 -0.0003636117 0.019683762
2.0345251e-06 -1.6622995e-05 -1.1286055e-05
0 0 0
-3.5061556e-05 -0.0006200996 -0.00063601806
-6.3294042e-06 0.00020794978 -1.7813738e-05
0.0001996583 -0.00035109892 0.027908878
0.0036717099 -0.0040610228 -0.0080771279
0.00089404732 -0.00056825287 -0.001139408
0.00015945391 -0.0011360361 -0.0025382834
-7.8658231e-05 -0.0016350729 -0.0025890558
0.0022579296 -0.0010756776 -0.0026794954
-0.0013407095 0.00040948985 0.0010483164
0.0013830382 0.00020426058 0.00029302662
0.00071253988 -0.00039947114 5.9232058e-05
0.00073255372 -0.00041922709 -0.00022737173
0.00022394443 -0.0029491179 -0.0016867331
-0.0019375572 0.0025952796 -0.0011531399
0.00045861112 0.0016114144 0.0022930065
0.0018728146 0.00042387078 0.00023250464
0.0041574445 -0.00026633358 0.00045540539
7.8980891e-05 4.6108926e-06 0.00032323564
-0.00091315474 -0.0042531868 -0.0040379409
-2.1275899e-05 -0.0001294609 -0.00011984567
-3.4691115e-07 -6.443282e-06 -7.5693852e-06
0.00024922888 -0.0024467814 -0.0044862656
0.0010660999 -0.0043881233 -0.0061192331
0.0018824101 -0.0036042512 -0.0047730762
-0.019596895 -0.0021535961 -0.0044157282
-0.0018387812 -0.00040661928 -0.0025392727
-0.00016134301 -4.9663588e-05 -0.0014296216
0.001031418 0.00053231779 -0.00042204864
0.0028231489 0.00058918708 0.03753525
0.0030299982 -0.00023736147 0.016430285
0.0012887002 -0.00020253222 0.00979417
0.001297663 0.00031799698 -0.00054506201
0.0026171731 -0.0029849601 0.0012133619
-0.00013237441 0.0018211405 0.00012134418
-0.00632405 0.002602166 0.0025641304
-0.020207498 0.0039868248 0.0042899088
-0.0025946479 0.00035480503 0.00087941211
-0.0092826569 0.00077981793 0.002697695
0.00012741619 0.00017848778 -0.0017375789
-5.986062e-05 -0.00065598427 -0.00061121694
-0.00072032982 -0.0034129599 -0.00389131
-4.1341427e-05 -0.001287384 -0.0022547364
-0.00067264517 0.0011358982 0.0012823109
0.00024834138 -0.00040594849 -0.0013140261
-9.6208969e-05 0.0003050814 0.00021032208
-2.2312965e-05 -1.1347115e-05 0.0022822763
-1.2087142e-05 -4.8261187e-05 1.2461164e-05
-0.0019624862 -6.9262525e-05 0.050662145
0.0072070672 0.00071186287 0.030111609
0.0027748682 -7.2610863e-05 0.051277127
0.004144649 0.00097198429 0.017555067
0.011741391 -0.0017758157 0.036169022
0.0015544213 5.9852497e-05 0.00011002769
0.0021384615 0.00037320991 0.00077729824
0.0015776008 0.00085176696 0.0012676726
-1.6736911e-05 0.00011584229 0.00034749188
-0.0024945061 0.00059206854 0.0011421409
-0.00064503419 -0.0016234387 -4.8387352e-05
1.9867568e-05 0.00092809275 0.0050718458
-0.0014966941 0.002023923 0.0022872409
-0.00012266811 0.00034903604 0.0005348816
0.0001471062 -0.00057010929 0.016323056
-0.00012573157 0.00020907866 -0.0035076302
0.014170562 0.0018053518 -0.0082220184
0.0064881914 0.0010534284 0.0047754641
0.0020937505 0.00032808425 0.010613198
0.00080029253 0.00023047155 0.0059498516
0.00047341984 0.0022898719 -0.048294123
0.0034451007 0.00044712925 -0.012864621
0.0067247204 -0.00034513432 0.04876978
0.0053356132 0.00019029822 0.027705295
0 0 0
-0.00018253575 0.003477982 4.9690701e-05
0.0084963674 0.0028795025 0.0026815864
0.01326137 0.0023059773 0.0047382545
0.007716218 -0.03348963 0.0041898414
0.0003243692 0.0033766127 0.0010488178
0.0042474419 0.0060077892 0.0031232277
0.00010368535 0.0058314553 -9.3375405e-05
2.3078665e-05 0.0026770073 0.00019914527
-5.4154767e-05 -0.016383423 0.00057700597
0.00012145992 -0.035912305 -0.041586343
0.00028447231 -0.00072757713 0.015108528
-0.00075040688 0.001159623 -0.042769216
0.00087213278 0.00098232087 -0.0093463743
0.00061913731 0.0022791899 -0.0070946454
0.0022923341 0.0012168282 -0.0074603087
0.0033858819 0.0010030982 -0.013566631
0.010629573 0.0012535125 -0.022998827
0.00069708639 0.0004740564 0.0012444266
0.0033082303 0.0011651879 0.027698809
0.007069963 -0.0031614983 0.066624098
8.6484622e-05 0.00070802151 -4.2922315e-05
-0.00037146333 -0.0043643392 0.00038933553
-0.0014747656 -0.0065134964 0.00082763779
-0.0036204068 -0.01497802 0.0013054436
-0.00077932212 -0.00074761175 0.00036895607
0.00015858986 -0.0031479415 0.0011825172
-0.00014571713 0.023055265 -0.00034687977
-7.9194113e-05 0.027373642 0.0016853827
7.079904e-05 -0.016823782 0.00070745009
0.00034123429 -0.00080651534 -0.0012744494
0.00024782176 0.00043473844 0.03518939
-2.5413929e-05 0.0012731111 -0.018434294
0.00010353524 0.00048065599 -0.004654109
0.00056354579 0.00085663504 0.0091009382
0.0044177594 0.0019621979 0.033972424
0.00363164 0.0010117607 0.0098942732
0.005505322 0.0015196071 0.027574668
-0.0049108099 -6.2874205e-05 0.022673456
0.00090521079 5.6344452e-06 0.030471355
0.0066963932 -0.001171562 0.016024984
0.00051631313 -0.0082951039 -0.0012035331
0.0049077147 0.0085884267 0.00039872061
0.0050816853 -0.026591185 0.0042083357
-0.0022198821 -0.056697767 0.0047113849
0.0012558906 -0.0026491364 0.001447865
-0.011682632 -0.017505364 0.0042481422
4.9989496e-05 0.0065851482 -5.6094097e-05
0.00022711874 0.0058989334 0.00044646315
-4.7396519e-05 0.00022660244 0.00070396293
6.3831103e-05 -0.00074149587 -0.00026494195
-5.6770627e-05 -0.00029950481 -0.00020700454
-0.0017194734 0.0028587966 -0.025925312
0.010326986 0.0011293637 -5.4526863e-06
-0.00069898489 0.00055397837 0.0069024675
0.00040501571 0.00037034706 0.00462473
0.013695359 0.0036776257 -0.045994002
0.026348349 0.0017803708 -0.026142826
0.0050247135 -2.0718955e-05 0.013940258
0.00029663293 0.00010362711 0.018514907
0.0014678953 -0.00032216444 0.0035832797
-0.00026602545 -0.022066707 0.00064338028
0.01651923 -0.0051135621 0.0029032005
0.017955922 -0.01475103 0.0040661879
0.0024334355 -0.015673378 0.0018801427
0.00025488209 0.0029087805 8.5653424e-05
0.0035162659 -0.00029717383 0.00084574748
-1.0540361e-05 0.015734905 -0.00018265765
1.8845203e-05 0.020968035 0.0026781915
-0.0011121624 -7.3733885e-05 -0.00043524537
7.0040682e-05 0.00024576782 0.00021236719
0.0001477552 -0.00048665892 -0.00033076497
0.0036227165 0.00055413967 -0.0017235188
0.019096015 0.00086524972 -0.035726517
0.014783124 0.0020284667 -0.010432879
0.016040334 0.0016211919 -0.056200702
0.0037677595 0.00025249738 -0.0043657967
0.0017884084 -2.8826271e-05 0.0044185924
0.0039359215 0.00012946822 -0.0023080814
0.012189288 -0.00013201592 -0.033350561
-0.0019721508 0.0028453127 -0.00041732323
-0.00053903478 0.010738334 -8.4266339e-06
0.0016057579 0.0069174184 0.0002648684
0.029526694 -0.0044675707 0.0026966892
0.0017258994 0.018725473 0.00029688553
0.010249862 0.01572492 0.0024143977
0.0001059898 0.0058501312 -0.00014429218
9.8916331e-05 -0.00047550979 -0.00054817321
7.8505131e-05 -0.00013716446 -0.00016957293
-0.00077468652 -0.00053136842 -0.00093676749
-0.0093983747 -0.0026802639 -0.0021205626
0.013821763 0.0022452998 -0.0168896
0.010699226 0.001023042 -0.0051919236
0.0020405131 0.00056440546 0.011319964
0.040926993 0.0030646557 -0.024996601
0.029437508 0.0020502314 -0.047911555
0.003996185 0.0013322402 0.0038446949
-0.018695658 -0.0015489038 -0.015510445
-0.0054246415 0.0034854717 -0.00064316561
-0.0043480145 0.01168555 -0.00043862715
0.00034408673 0.0076318453 -0.0001555846
0.0012545333 5.6144036e-05 0.0001520939
0.0069592753 -0.012675459 0.0019519317
0.0043707783 0.0058109774 0.00043552867
0.013643301 -0.010270442 0.0025716028
-0.0088393316 -0.0014111752 -0.00083078415
-0.0071063139 -0.00062578637 -0.00036650631
-0.0027895623 -0.002003544 -0.0013475635
0.0017430094 -0.0012397711 -0.00096464501
0.0038085293 0.0026459154 -0.021939829
0.0010258815 0.00041430315 0.0055318275
0.0061301813 0.00074575958 0.00083269656
-0.016820641 -0.00082432182 0.03181573
-0.004208412 0.0004325234 -0.00038545628
0.042706266 -0.00026162941 -0.0032796485
-0.011945716 -0.033708695 -0.0026479864
-0.00057322619 0.0028477081 -7.5312077e-05
0.0016956392 0.012522 0.00011310911
0.019163698 0.0023060003 0.0036913343
0.015831247 -0.010868271 0.0022391973
0.0031094574 0.0039449679 0.00042850609
0.0079203323 -0.0064973552 0.0016442268
0.001528093 0.0053458703 0.00035128769
-0.0067262384 -0.00019281918 -0.00067179807
-0.0022839059 -0.00050035561 -5.6374178e-05
0.00053167739 -0.00089987443 -0.00076963281
0.0082411813 0.00025776817 0.033273358
0.0040839654 0.00058836432 0.0088261683
4.4624558e-05 -2.4912431e-06 0.00071441598
-0.02634529 -0.00048472552 0.030406542
-0.0051598852 -0.00096067204 0.019345257
0.019623641 -0.00023486128 -0.010342471
-0.0046760854 -0.035204414 -0.0019127323
-0.00012838077 0.00080769043 -2.5701649e-05
-0.0012968443 0.0021932619 -7.7822056e-05
0.011201095 0.0050065401 0.0018799835
0.011358056 -0.0083168643 0.0024262117
0.0033705626 0.008980344 0.0006761729
0.00078377576 0.0072401776 0.00091461302
-0.0038841385 -0.00086935516 -0.00059009885
-0.0021724671 -5.927145e-05 -0.00024763978
-0.0054885331 -0.0011465816 -0.0006616622
-0.0014106273 -0.00029216337 -0.00025739195
0.010919709 0.0008753984 0.01096623
-0.0058133965 -0.00081966131 0.023939513
-0.0019539474 -0.00095402205 0.026757166
0.00047924268 0.0003449049 -0.01134652
0.00048760109 -0.0011003084 0.029075542
-0.0033433246 -0.052982397 0.0021783805
-0.0039670588 -0.017283713 0.002806643
0.00065444293 0.00034276623 0.00021565435
0.010626797 -0.0057742642 0.0021282558
0.0030496975 0.0024440554 0.00048364719
0.0024798738 0.0077891718 0.0022568603
0.00044690655 0.0041999803 -1.4894074e-05
-0.007876629 -0.0021671115 -0.0010825522
5.8257643e-05 -7.0257251e-05 -0.00014956995
-0.0029230674 -0.0020087138 -0.00058962451
0.00032928522 -0.0003519879 -0.00017484269
0.00098888669 0.00021045085 0.011117248
0.001190768 0.0001889281 0.0077324039
0.00083717937 -0.00048012438 0.014791437
0.0073793386 -0.00074890419 0.017990123
0.032752331 -0.0006498865 -0.012550776
-4.0845978e-05 -0.010313183 0.0002296274
0.0033160078 -0.012506261 0.0018547958
-0.00067599438 0.0045248289 0.0015801438
0.0075132726 -0.0078008636 0.0036534476
0.0021004432 0.007354408 -0.00017625628
-0.0012937419 0.00094486499 0.0012966349
-0.00056004192 0.0033997255 9.219908e-05
-0.0011323113 0.0053181425 0.00067820167
0.0020685866 -0.00076876848 -0.00063869118
0.0059966021 -0.00024639105 -0.00081676268
-0.00213424 0.00037658669 0.026973169
-0.0094599267 -0.00017476536 0.063689925
-0.0097762831 0.00028246175 0.027511561
-0.0083911475 -0.00057913805 0.0012777298
-0.0029690345 -0.00083720987 0.018387865
-0.0010709602 -0.037299886 0.00055013428
0.0016015325 0.024103053 0.00025768188
0.0015038402 0.0045117526 0.00031864055
-0.0011938907 0.0047180066 0.00019496714
0.00091416924 0.013920811 3.9557119e-05
0.0023889334 0.0055931835 0.0025721816
0.0011321639 0.0020903919 0.00066781469
0.0002184203 0.0053916578 0.0034688038
0.0044147186 0.028873518 -0.00019044674
-0.0012942561 -0.00042911549 -0.00048174409
-0.024009341 -0.0027305125 -0.0023183981
-0.012474344 -0.00049042236 0.040389057
-0.010594647 -0.00036650186 0.031182965
0.0010874512 -0.000972357 0.0089638336
0.021366319 -0.001198884 -0.017871648
0.00015359544 0.0010454577 -1.7987444e-05
-0.0033449249 0.020818459 0.0002635298
-0.0029745544 0.019926202 0.00087510736
0.0012034707 0.00078902178 0.00031089751
0.00034544792 0.002045718 3.5174518e-05
-0.0039246199 -0.00090831716 0.0023819993
0.0017491539 -0.0014070977 0.0015326561
0.0017350605 0.0081870882 -0.00013889406
0.012103874 -0.0039620693 0.00076902274
0.00064427877 -0.0070478623 -0.00043592084
-0.0071565183 0.00063415343 0.001579709
-0.001323391 -0.00018282684 0.011289217
0.010270534 0.00037468362 0.039683033
0.032795008 -0.016888862 -0.028813563
0.003555685 -0.00090838282 0.012093558
-0.00011322225 0.0019724634 -6.4214524e-05
0.00043475084 0.036475684 0.00010204798
-0.00033933466 -0.0038014166 0.002013877
-0.00019668418 0.0040371828 0.00089890027
0.00057718286 0.0070393952 -8.9888847e-05
0.0007212733 0.0052289013 0.00037202565
0.0050576064 0.022898413 -0.00097822829
0.00058575266 0.034288399 0.0011087441
2.4118184e-05 0.016781768 -0.00016618235
0.00012678039 -0.0030354126 0.0017887183
0.0087336758 0.013377877 0.01807384
0.00058903551 0.0060225539 0.010443641
0.035701104 -0.023649167 -0.019270316
-0.012153517 -0.0016987509 0.022835599
4.5982142e-05 0.0001715969 2.1593464e-06
-0.0034942254 0.013756464 -0.00026886651
-0.006601071 0.027017735 0.00032427997
0.00080774445 0.00039122376 0.0001572219
-0.0013451176 0.00073989987 0.00082737772
-0.003013886 -0.0019917439 0.0028623834
0.0029328908 0.011343671 8.0531809e-06
-0.0011484375 0.015809489 0.0023527674
-0.006737133 -0.029798767 0.0019353589
0.0010384331 -0.00023882679 0.0001641464
0.012636457 0.016797572 0.024498716
0.017494341 0.0042158454 0.0075258929
0.0259107 -0.00097551814 -0.0018638885
0.028155193 -0.015800489 -0.02071413
0.0062394608 0.0070653087 0.0010507767
0.00053369842 0.0010403923 7.7124714e-05
-0.0085848235 -0.0052704071 0.0013223173
-0.0036833845 -0.0019814314 0.0017152741
0.0023306089 0.0030764258 0.00026744141
0.0011797458 -0.00067326915 0.00080584025
-6.4000269e-05 0.00050719589 -2.6170062e-06
0.002288677 0.014002979 0.002184713
-0.010188868 -0.045177847 5.0030569e-05
-0.021541199 0.0073936731 -8.5389249e-05
0.0032904956 0.0028558206 0.017977064
0.034373045 -0.025608039 -0.024495646
0.018134514 -0.026043411 -0.039234407
0.0049820882 -0.001011082 0.024239367
-0.011083428 -0.0073552178 -0.00026326007
-0.0078010596 -0.0069524897 0.00013402486
-0.015397998 -0.0077584195 0.0011409363
-0.00067130482 -0.00071018399 8.3751162e-05
-0.00027716596 0.00036885834 0.00035645923
-0.0099416832 -0.011025692 0.0028398177
-0.0018535703 0.0086684804 -0.0002384454
0.00021647692 0.001910698 0.00049872912
-0.0042679785 -0.0079176985 0.0022559916
0.026379162 -0.016566152 0.0005330873
3.8818733e-05 -0.00014490727 0.00016065658
0.0038649908 -0.00049623777 0.0051869769
0.0027385685 0.00019377972 0.022725914
-0.0033152746 -0.00056328904 0.031797841
-0.019768557 -0.020274242 6.6875167e-05
-0.023764992 -0.025567442 0.0022402962
-0.040740296 -0.036379915 0.0020109315
-0.0060315644 0.0010509134 0.0010129664
-0.0034901765 -0.0062990277 0.0024058428
-0.0047449344 -0.010874293 0.0011721018
-0.019515857 -0.02457501 0.005201227
-0.015188082 0.026056331 -0.00042779761
0.0085510993 0.019959571 0.0067064632
-0.0045946324 -0.00056347292 0.026942465
0.0013892436 -0.0015531693 0.007502309
-0.0025633352 -0.0049886676 -0.0083424505
0.02496277 -0.0036951664 -0.0010413084
-0.033031777 -0.021685634 0.00082078396
-0.048231807 -0.027616644 0.0018075269
-0.00012730614 -0.00020323916 -0.00019055764
-0.0019784239 -0.0038388951 -0.0041014785
-0.036345202 -0.078218572 -0.064309694
-0.0065014935 -0.0054118088 0.00061954715
-0.012289405 -0.023228347 -0.036542907
-0.0094873598 0.026250148 0.031888764
-0.0088652456 -0.0087740514 0.016324429
-0.0016749441 0.00093647797 0.0055982517
-0.0069404216 -0.016497785 -0.010562181
-0.023810998 0.039759751 -0.0020653915
0 0 0 1 0 0 0 1 0 0 0 1 0 0 0 0 0 764 1 0 0
