ply
format ascii 1.0
comment PCL generated
element vertex 764
property float x
property float y
property float z
element camera 1
property float view_px
property float view_py
property float view_pz
property float x_axisx
property float x_axisy
property float x_axisz
property float y_axisx
property float y_axisy
property float y_axisz
property float z_axisx
property float z_axisy
property float z_axisz
property float focal
property float scalex
property float scaley
property float centerx
property float centery
property int viewportx
property int viewporty
property float k1
property float k2
end_header
-0.0018704029 -0.028724294 -0.0083324807
-0.00066565769 0.038609821 -0.0013760327
-0.0023430195 0.0055105714 -0.00018867866
-0.0023894985 -0.003262074 0.027378051
-0.0014426734 -0.013011781 0.00072991033
0.00041186559 0.0093903784 0.025802404
-0.0024478829 -0.014672837 0.01231849
-0.0021231081 -0.01999327 -0.015824202
-0.0020766985 -0.034946024 -0.020987451
-0.0025851545 -0.052468758 -0.026655296
-0.0022620815 -0.040381998 -0.028413557
-0.010073798 -0.073362969 -0.11317902
-0.00059162354 -0.0056717312 -0.0062282821
-0.0013758901 0.0018772921 -0.011319545
-0.00020600496 0.0007332869 -0.0010083322
-0.003474754 -0.032974221 -0.025226593
-0.0020111203 0.053542998 -0.0080850525
-0.00014840573 -0.013221402 0.00046684028
-0.00051420921 -0.0041299914 0.0011101313
-1.3017764e-05 0.00082533114 7.3128649e-05
0.0008885854 0.022164585 -0.00090540486
7.2019735e-05 0.0061131967 0.00041181888
0.00098866352 0.019577425 -0.0011338119
0.00063893216 0.0077654165 5.7984591e-05
0.00063414878 0.011448352 5.201865e-06
-0.0026249385 -0.032424714 0.0026578926
-0.00499911 -0.10126118 -0.062323354
-0.0027673189 -0.055177912 -0.052944977
-0.0027538594 0.0023964387 -0.049078409
-4.1841427e-05 3.8421142e-05 -0.00061306538
-0.0030930904 0.0042969943 -0.051222052
-0.0014715403 0.004147179 -0.027860381
-0.00063764286 0.00040440922 0.0084686549
1.7815812e-05 0.027280441 0.001573666
-0.00044108601 -0.0024552266 -0.0011676111
5.2650677e-05 0.013126914 0.00036201271
0.00052703964 0.017294273 -0.00035348482
0.0014574464 0.03645961 -0.00045071982
0.00082639401 0.027866811 -7.8733465e-05
0.00072788715 0.011292377 0.0012963428
0.00069493213 0.0196246 -0.00069535425
0.00076986552 -0.00090371008 -0.00070958521
0.00020448312 7.3651554e-06 -3.5658462e-07
-3.3427357e-05 0.00015087159 0.000143022
0.00018115607 0.00039853089 0.00048595821
-0.001039901 0.00055249693 0.0019727417
-0.00040790412 0.00056464435 0.00095340016
-0.0010150742 0.0026279555 -0.0075389105
-0.00012587132 0.00028123971 0.00057441596
0.00074456027 0.00072954228 0.027553927
-0.00057089684 -0.0031398884 -0.0014483817
-0.0011052859 -3.2239153e-05 -0.0034565504
0.0002481339 0.013735796 0.00075082359
2.4698185e-05 0.001932408 6.1350387e-05
0.0020915465 -0.0010632906 -0.00055817899
0.00020419175 0.0048634158 0.00015490288
-0.00046414899 0.0011785132 0.00080814189
0.00062234246 0.00028329689 0.00069691718
0.0010831121 -0.0011647218 -0.0013191469
0.0002050833 -0.0012708693 -0.00029758771
-0.00099957001 0.0014441508 -0.014803129
-0.00078905863 0.0043389839 -0.03594733
0.00038773657 -0.00019293644 5.0861836e-05
0.0012814512 -0.00054194231 -0.00059983524
-0.00045350645 0.00032783128 -0.0034832365
0.00026075693 0.00090979296 0.021235036
-0.00042974466 0.00052190037 -0.012141578
-0.0015172181 -0.0029479677 -0.0194826
-0.0001030594 -0.00041936542 -0.0025134068
0.00014656932 -0.011345763 0.00072921545
-1.5067009e-05 -0.0011713894 9.9181285e-05
0.00048626028 -0.0011266338 -0.0011664322
0.0009203169 0.01652433 -0.00012308372
0.001178822 -0.00070717552 -0.0018224823
0.00022635586 0.00013313387 5.872202e-05
0.0017605046 -0.0030762968 -0.0031232741
0.00053218525 -0.00029861709 -0.00033069073
0.00048287568 0.0015841625 0.029346498
4.981882e-05 0.0010952217 -0.0076329284
0.00035651083 0.0014410046 0.00062421185
-0.0007016724 0.0016373486 -0.012300986
-0.0001996253 0.00084938039 0.0027460246
0.00075697241 0.00094231468 0.03735365
-0.001052841 0.0012476292 -0.026139222
-0.00047150778 0.00037945452 -0.012887769
0.00075218739 -0.011972228 -6.6187254e-06
0.00072279555 -0.0011634832 0.00057547225
9.0921949e-06 -0.012065546 0.0010069807
-4.2951873e-05 0.034914784 -0.00068943406
0.00067944243 -0.010804633 -0.01393268
0.000342174 -0.0012194881 -0.0014966711
0.0010038912 -0.0032877428 -0.0037818961
0.0016983694 -0.0039362293 -0.0056941384
0.0001145632 -0.0002945739 -0.00033605788
0.00092879415 0.0011050989 0.022196261
0.00017510859 0.00095213956 -0.013706948
0.00025236016 0.0012875256 -0.0079074791
2.0993639e-05 0.0013190286 -0.00045857599
0.0011947715 -7.7153643e-05 0.065956935
5.4533728e-05 0.00055931293 0.015261591
-3.2530031e-06 0.0010060918 0.047112253
-0.00022728757 9.2140006e-05 -0.0040054522
-0.00024701486 -0.0079170568 -0.00095956336
0.00018530509 0.0036270546 -0.00020464454
0.00013841809 -0.009405857 0.00078878086
1.6983979e-05 0.0043739039 -0.0001580469
0.00058387109 -0.0030334592 -0.0036947667
0.0011318108 -0.0039142966 -0.0032327732
3.5728695e-07 -1.9527508e-05 0.00057806046
0.0001949712 0.00026120374 0.053821433
2.4469264e-05 -0.00031789462 0.014385208
-9.8486871e-06 1.9949077e-05 0.00010360331
4.2938493e-05 0.00043482811 -0.0042586047
0.00014170721 -4.056959e-05 0.02816781
0.000252823 0.0013035699 -0.004173608
0.00034807716 1.9484614e-05 0.024595775
0.00037087078 -0.00027653328 0.035386119
0.00071205437 0.00052708428 0.05049799
9.0681337e-05 0.00022804842 -0.0017911937
0.00078893872 -0.044440184 0.0011470447
-1.7531633e-05 0.019152267 0.00063172466
0.00049599283 -0.014702826 0.00065129017
1.5457073e-05 0.032926925 -0.001392499
0.00074809679 -0.0015346565 -0.0014244691
-0.00013611501 0.00033468081 0.0038245039
9.2865106e-05 -0.00071354926 0.05148058
0.00030798352 0.0004088924 0.026865134
-0.00014637655 -4.7140307e-05 0.0086263372
0.00034792168 0.00022018804 0.049237523
6.6257246e-07 -5.8315243e-05 0.034266826
0.00041910901 0.00070842262 -0.0012963624
0.00030480628 -0.00032409825 0.022915523
-4.8887746e-06 3.5267756e-06 0.00029418047
0.00026044552 0.00031695532 0.03861862
-9.2946117e-05 0.00072070659 0.040803019
-0.00037238793 0.00021094915 -0.0047070361
-0.00020532416 0.0015990741 0.00081568182
0.00025531143 -0.015964314 0.00061254797
0.00020961143 0.012755187 0.0010634663
0.00023588666 0.019578975 -0.00034241608
-4.9359038e-05 0.0085170837 0.00031286047
0.00028727381 -0.012831619 -0.015303643
-6.0228162e-05 -0.00028869539 0.039666973
-2.9152976e-05 4.089393e-05 0.0012684629
0.00075710594 0.0013211567 -0.017449679
0.00010207301 0.00012939215 0.036808938
0.00030265521 0.00023833556 0.044117879
-0.00024911863 3.0105719e-05 0.015408303
0.0007085838 0.00065094384 0.0020429508
0.00020986459 0.00077190169 0.013825588
-0.001078099 -0.0010779531 0.06199057
4.204725e-06 0.00087868469 0.0018576453
0.00028565776 0.00036700474 0.006524446
-0.00050702255 0.00014758899 -0.014144498
-3.3665408e-05 0.0053571775 -0.0011564873
0.00010733104 1.2478876e-05 0.00021974716
0.00043263228 0.012905304 0.0010484018
-9.9175093e-05 0.01455863 -0.00017704758
0.00053651689 0.037110575 0.0008034535
0.00031219388 -0.022803998 -0.025771532
-0.00049505802 -4.9162286e-06 0.03758711
0.00012655895 0.0003497125 0.012591181
0.00080443319 9.8859775e-05 0.054971714
0.0001291482 0.00042946715 0.020779459
5.9269471e-05 0.00013403004 0.014344336
0.00098437059 0.0007951216 0.014829108
-0.00056254346 -0.0011313063 0.053578358
-0.00096801331 -0.00066018431 0.045963567
0.00022049484 0.0013715482 0.074139476
-0.0010717079 -0.00092085439 0.021132659
-0.00068850856 -0.00042974227 0.028568866
-9.6510812e-05 -5.4883127e-05 0.0040856516
-0.00015462066 0.00049778586 0.00068376801
2.7639182e-05 0.0015045393 -0.00016252259
0.00032249987 -0.00094247021 0.00013251512
9.8441356e-05 -0.00090554426 -0.00024635479
-1.834236e-05 -0.00092946115 -0.00074426911
0.00042837468 0.00059344852 0.00058063056
0.0001420218 0.0062333657 0.0046202526
0.0005605942 0.0012061744 0.008400362
0.0001925001 0.00042726204 0.012056011
-1.9695035e-05 8.4873602e-05 0.020414613
0.00064824015 0.0011674296 0.049757723
-5.6200475e-05 1.4249239e-05 0.0020783828
0.00021489694 0.00013991554 0.0012902322
-0.0009926185 -0.0010061093 0.050266691
-0.00033547363 -0.00033716924 0.027386898
0.00086391659 0.0010382679 0.021530192
-0.00045193927 -0.0003633876 0.0090116141
0.00076109078 0.00095230201 -0.015896069
0.00083504163 0.00072983722 0.0010875138
0.00073103938 0.00065511698 -2.0650466e-05
-0.0012377364 -0.00083565136 0.0031762868
-0.00014975593 0.0051215133 -0.0016390679
9.4573188e-08 -3.5037981e-05 -1.6606193e-05
-0.0001460835 -0.0016129868 -0.00074643601
0.00020203696 -0.0011846338 -1.6322831e-05
0.00039399843 -0.00030199598 0.0012412628
-0.00018497305 7.7040168e-06 0.00014192025
0.001073804 0.002122703 -0.027352186
0.00041348251 -0.0058659539 0.00076826959
0.00085024157 0.0003335863 0.00043577648
0.00060046761 0.00094410952 0.00014099566
0.0004245326 0.00069224788 -0.0063072727
0.00044888532 8.9923124e-05 -0.00014221306
-0.00038006005 -0.0003591601 -0.0019150476
0.00082258106 0.00065113435 0.053483512
-6.5508546e-05 -0.00010315628 0.0049172272
0.00017363821 1.7288075e-05 -0.00073980429
-0.0003663559 -0.00027692757 -0.00036551527
0.00092231057 0.0012183534 0.00068230391
0.00080179662 -4.7067402e-05 0.0011662988
4.890456e-05 -6.9241134e-05 0.00018470672
-0.00010590879 0.00067451305 -0.00045110745
-0.0003858053 -0.0013563771 -3.9748167e-05
0.00027659078 -0.0007780926 -0.00031448112
0.00012846717 -0.0001376654 0.00027994224
-0.00010223225 -0.00021153501 0.00027347045
-0.00070400536 -0.00079488981 -0.0014156258
0.0021113369 0.0020569512 -0.03270486
-0.023794852 0.0014897367 0.0015709281
-0.0024425036 -0.0013295095 9.960169e-05
0.00012972564 0.00050947577 -3.383715e-05
0.00031228413 0.00064113917 -0.00012310398
0.0024107103 0.0009436555 0.0029805065
-0.00062901946 -0.00049709436 -0.0023311535
-9.8344695e-05 0.00066404109 -0.0018029296
0.00034916383 0.00067409669 -0.00068512646
-5.9631082e-05 -0.00028699072 -0.00039851913
-0.00015578757 -0.0001504867 -0.00059108564
0.00070379052 0.0014194765 0.00012163723
7.8750862e-05 -1.5987867e-05 -5.5644487e-05
0.00040564931 -0.00037680136 -0.00043528245
-6.2532831e-06 6.0719671e-05 0.00026327482
5.980119e-05 0.0001447797 -1.8856705e-05
-4.060744e-05 6.30086e-05 -4.2256042e-06
-2.0852998e-05 -0.00012090034 0.00042028329
0.00048458445 0.00056948676 0.001112878
-0.000418574 -0.00049664784 -0.00043022752
0.00046781878 0.00046721596 0.00073132018
0.0038303814 0.0034136518 0.003728305
0.00058697077 0.00044545744 0.00054974842
0.0029772806 0.0027549295 0.0035684272
0.0032909089 -0.024428394 0.0027074332
0.00028344287 8.6328255e-05 0.00010642428
0.00042406211 0.00019372808 0.00022109595
-0.00013839167 3.4914028e-05 -0.0013020508
-1.8139044e-05 4.1291674e-05 -0.00050829427
0.00039334284 0.00088003586 0.00010869685
0.00042369257 0.00057858857 0.00070315541
0.00020892311 0.00077040214 -0.00029693215
-0.00010367732 0.0011167575 -0.00044641088
0.00032247815 -0.00091733621 -0.00055809994
-9.6946183e-05 2.3720369e-05 0.00020304426
-0.00034058938 -0.0020440759 -0.0006710586
-0.00018755614 -0.00070500607 -0.00049534795
8.1672752e-06 -8.3895088e-07 7.815245e-05
0.00010002436 0.00012121615 0.00028783185
-0.0012622076 -0.0010739418 -0.0014175262
0.0015850611 0.0010550497 0.0017189143
0.0010208437 0.00028915593 0.00088345358
0.0022556335 0.0021164154 0.002372588
0.003383385 0.0048120343 0.0050339624
0.0019454733 0.0020647307 0.0021807065
0.0018700601 -0.012278284 0.0010082945
0.00020576593 0.00013158905 0.00023403077
-0.00084342127 -0.00098030875 -0.0025644624
-0.00015081603 -0.00014834561 -0.00093127962
0.00068434351 0.00064922107 0.0019137352
-0.00017372023 -0.00011509898 -0.00032626482
0.00068772311 0.0021079183 0.0031880711
0.00032867343 -0.0022043958 -0.00070735079
0.00021258819 -0.0013392498 -0.0010983993
-0.00060217734 -0.0012618701 0.00027874808
2.3931023e-05 0.00026825376 -0.00068863045
0.0003443764 0.00038334372 0.0001889924
-5.511595e-05 -0.00016535622 -5.226547e-05
-0.0024029601 -0.0046545132 -0.0042047049
-0.0016645704 -0.0019934091 -0.0021137479
0.0015056854 0.00095765822 -0.014894928
-0.0007355251 -0.00051171624 -0.00059729873
4.7371388e-05 2.4887589e-05 3.5715362e-05
0.0049474034 0.0043096244 0.0058091315
0.0012156491 0.00096006965 0.0012133837
-0.047282208 0.0030624487 -0.040528551
0.0027867071 0.0028493255 0.0038212596
0.0014841398 0.0017558115 0.0017423875
-0.00037349216 -0.00091507437 -0.0009970041
2.0610223e-06 -0.00030788343 -0.0019014427
-0.00021169508 3.7449536e-05 -0.00026396042
0.00039789884 -0.00033882685 -0.00087120308
5.2523843e-05 0.00024881572 -2.1985667e-05
0.00013954354 0.00062863034 -0.0003908675
0.00029546255 -0.00097753422 0.00057119736
5.3550066e-05 -0.00049264403 0.00049881759
0.004787703 0.00055053789 -0.0023011628
-0.00053431705 -0.0019021656 -0.00083057687
-0.00038807813 -0.00048632699 -0.00041080095
-0.00064752583 -0.0029000137 -0.0026222905
-0.0028883512 -0.0060741524 -0.0066702715
0.00029447587 5.5153974e-05 -0.00012077139
-0.00035017933 -0.00029412122 -0.00055382546
-0.0018202496 -0.00095016585 -0.0027667109
0.00010376076 -0.0010400178 0.00010045452
0.0072839623 0.0066250083 0.0095776906
0.0043251091 0.0026829701 0.003836524
0.0024529137 0.0024486531 0.0029250649
0.0012577295 -0.0080399225 0.0012964224
6.057079e-05 0.013149342 -0.00010700543
0.00045657609 -0.00038049018 -0.0014108905
0.0012613152 0.0004507874 -0.001259484
0.00068866386 0.00056170835 -0.00048942911
0.00018043898 -0.00089847326 -0.00095251482
0.0001612304 0.00038525873 -0.00045938476
-2.6165901e-05 -0.00091481721 0.00066503667
0.00031791549 -0.00028209321 0.00074115838
0.00038873655 0.00025983871 -0.00015802302
0.0001332854 -5.9120957e-05 4.5712968e-05
-8.3417064e-05 -0.00020634808 -0.00020021466
-0.002494812 -0.0065658456 -0.0058707721
-0.00092880946 -0.0029939734 -0.003993962
-0.00053996086 -0.00053765223 0.065365627
-0.0012751231 -0.0015949736 -0.00519958
0.001190771 -0.00056653947 0.0022253424
0.0043354593 0.0032614623 0.0050814291
0.0033586854 0.0026724723 0.0037219187
0.00057582255 0.00039716688 0.00037740302
0.0002820314 0.00065098482 0.00026737779
0.00059341721 0.0008294477 0.0011391141
-0.00068979617 -0.0014182822 -0.0024047422
4.5591616e-05 -0.00074320327 -0.0026122425
0.00013122293 0.00057699729 -0.00047546442
0.00014356058 -0.0003461751 -0.0012825298
0.0002240155 0.00026498511 -0.00055310619
0.000138487 -0.001279427 0.00020881061
0.00023302822 6.3069892e-05 0.00058354629
7.6065502e-05 0.00057745201 -0.00088148232
-0.00072795484 0.00039210331 -0.00019910303
-0.00016015592 0.00054455095 0.00036170965
-0.00011717855 -0.0020410772 -0.002367479
-3.0127307e-05 -0.00032580007 -0.00047709342
-0.00013657985 -0.0013496395 -0.0037454639
-1.0153192e-05 4.3467517e-05 3.8938109e-05
-0.00026772229 -5.8684927e-06 0.00044826357
0 0 0
0.00070991117 0.013340443 0.021502879
0.0011054878 0.0039524687 0.0056616701
0.0009803368 -0.0005217148 -0.0013397703
0.00013874045 -0.0012324303 -0.00080233114
0.00012832643 -0.0011083214 -0.0018374805
8.0305908e-05 -0.00098353811 -0.0024392426
0.00029661963 -0.0013943785 -0.0022393034
0.00010716452 -0.00022170893 -0.00023797108
-0.0010415317 -0.0015077365 -0.00078522495
0.0056842901 -0.0012730533 -0.0011526255
0.005988325 0.0004681779 0.0010389045
-0.00013793499 0.00013375473 -0.00020322755
-2.1837321e-05 3.0553394e-05 2.9404244e-05
-1.2718571e-05 0.00029367901 0.00033342943
-1.3294347e-05 -0.0034524989 -0.0035849581
1.3562015e-05 -0.00015616871 -0.000342274
-0.015085388 -0.0017987419 -0.0036962768
0.0028458063 0.00025247285 0.00025525637
-0.00021342286 0.0015507807 0.00263201
-0.0017256805 0.0016980073 0.0021128494
-0.0002391126 0.00014776418 0.00062109396
-0.00037907792 -0.00051444065 0.00051503838
0.00014359628 0.0089519564 -0.00056043209
0.00062596379 -0.0023083326 -0.0025634437
-6.1336781e-05 -0.00013844305 -0.00024695753
-0.00043921141 -0.00013595095 -0.00036132106
-0.00018532344 3.4339944e-05 5.6289115e-05
-0.0087513281 -0.0013936913 -0.0018188843
-0.0023317514 -0.000124465 -0.00091137365
-0.00072500319 -0.00048468591 0.00021974728
-0.0032638845 -0.0038241749 0.0025010165
0.0049398984 0.0027666395 -0.0047520599
0.0044178008 -1.6772188e-05 0.0010593757
-0.00031194263 0.0016211151 0.0018692646
6.5134914e-06 -0.00063073117 -0.00042531124
0.00012481348 -0.00032789473 -0.0010923144
-1.6516731e-05 -0.00079527893 -0.00038066375
0.00084863423 -1.0430302e-06 0.00016625441
-0.00046959353 -0.0073157465 0.00050848915
-7.7881981e-05 -9.87782e-06 -4.6847681e-06
-1.152088e-05 -2.5058171e-05 -0.00026445818
0.00012928768 0.0063714543 -0.00025984485
0.0026595411 -0.0058651217 -0.0033064627
0.00040966104 -0.00097363564 0.00016290827
0.00072585978 -0.0014156423 -0.0027083019
0.0054227044 -0.0021845698 -0.0064281747
-0.004156535 0.0007049563 0.0012868826
0.00063389138 -0.00014082837 -2.0920601e-05
0.001292553 -0.0010299429 -0.0004382708
-0.00013158377 -0.00065676006 -0.0006533147
-0.0016259231 -0.0021815975 -3.4792552e-05
0.0001312172 4.3146862e-05 -6.5286316e-05
-0.00035868562 -1.4260153e-05 0.00023740935
-0.0020511786 0.0004188231 0.0004654279
-0.00094317808 -0.0014612122 -0.00074251392
-0.00090452359 -5.2111507e-05 0.006106589
0.00022394565 0.00041931061 -0.00091026194
0 0 0
-8.7908275e-06 -5.7513658e-05 -9.0287278e-05
-0.00037082238 -0.01059012 0.0015124105
0.00067171967 -0.0017866318 -0.0026786455
0.0020117189 -0.0032040917 -0.0051999204
0.00046586123 -0.0015975026 -0.00056474621
8.3643945e-06 -0.00020553442 -0.00055869948
-0.00012017348 -0.0016418112 -0.0027004562
0.0022419028 -0.0010670879 -0.0026535369
-0.001392754 0.00038618222 0.0010348405
0.0013454286 0.00017807673 0.00030787211
0.00053331011 -0.00042139203 6.5626125e-05
0.00055038539 -0.00039610121 -0.00023723603
0.00053378643 -0.0028756747 -0.0016660733
-0.0017811146 0.0021689811 -0.0016570379
0.00074413238 0.0012323303 0.0021578139
-0.0046981107 0.0022516123 0.003069151
0.0032415532 -0.0002050292 0.00022369056
0.0015084718 -0.0011075668 -0.0011939505
-0.00040858093 -0.00052577571 -0.00076967152
-0.00036902816 -0.0010792013 -0.001181928
-3.8385137e-05 0.00032569692 0.0003086403
4.1827501e-05 -0.00032517043 -0.00047417375
0.00037187597 -0.0019559385 -0.0026938072
-0.028325213 -0.0034739582 -0.0032404128
-0.00015461785 -6.4325672e-05 -0.0004762442
-0.003325135 -0.00062692486 -0.0029373344
-0.000435419 -5.553534e-05 -0.0015082236
0.00098665652 0.00051225687 -0.00043530285
0.0014020583 0.00045943673 0.00052495964
0.0028627862 -0.00023037364 -7.3163152e-05
0.0013287187 -0.00019141469 0.010273936
0.0011458659 0.00033905735 -0.0005184976
0.0033789938 -0.002893097 0.0012691088
-0.00079582311 0.0016406623 -0.00016986446
-0.0042587146 0.0021319066 0.00217321
-0.018972846 0.003633539 0.0043886048
-0.0013366709 0.00027908207 0.00071901293
-0.0078128316 0.00063702476 0.0025159316
0.00020389541 0.00023816014 -0.0015380238
-0.00051120383 -0.0012790393 -0.00099227321
2.6480018e-05 4.3211214e-05 5.0062645e-05
-9.3505078e-05 0.00034246844 0.00033523119
-0.0012553593 0.00046815301 0.0011872613
-0.00045339766 0.00056976109 0.00059745734
0.0020818005 0.00025297518 -0.00029516823
-8.4432482e-05 -2.0962143e-05 -0.00011103962
-0.00022109998 -4.8482016e-05 -5.8207457e-05
-0.001906329 -5.2322728e-05 0.048552897
0.0095528932 0.001011266 0.063214831
0.0026214668 -0.00011047036 0.051619001
0.0038164575 0.00093003106 0.016983965
0.010784344 -0.0018101322 0.035063688
0.0012698281 4.1038074e-05 6.9693262e-05
0.0027267667 0.00041499987 0.00088020787
0.0017705691 0.00081135344 0.0012517474
-9.8583168e-06 0.00011504962 0.00034108572
-0.0026909455 0.00062169379 0.0011635091
-0.00065350259 -0.0016410628 -0.00020132837
0.00027178371 0.00037867526 -0.0017109643
-0.00087864639 0.0011954003 0.0016004263
-0.00016273091 0.00042541651 0.00061124796
0.00021360091 -0.00055964111 -0.00065920199
-0.00010997301 0.00029556113 -0.0033030105
0.014972509 0.0019941574 -0.014179749
0.0064972332 0.001060399 0.0047918512
0.0019296744 0.00031972805 0.011281974
0.00080874842 0.00021379747 0.0051727002
0.0008127414 0.00065688562 -0.011700706
0.0073819878 0.0012219453 -0.01706424
0.0070364433 -0.0001256906 0.05432925
0.0054456787 0.00014339098 0.02602284
0.02480698 -0.00023058942 0.00025466891
-0.00014228634 0.0031424297 -0.00071808795
0.0081173917 0.0023798239 0.0023488055
0.012892902 0.0020406006 0.0043613683
0.0076069855 -0.030627675 0.0040710778
0.00030880142 0.0027143117 0.0010618739
0.0047129812 0.00283823 0.0033150909
0.00011787623 0.0065864366 -9.874886e-05
9.6795782e-05 0.0065201158 0.00029819887
2.8076845e-05 -0.013739642 0.00052421395
0.00083973364 0.0026977588 -0.00088776229
0.00034524643 -0.0009472277 0.018238576
-0.00071452762 0.0011550064 -0.043109309
-3.9665978e-05 0.0011552037 -0.015701467
0.00022283975 0.0023159226 -0.014569641
0.0024085345 0.0014086457 -0.0079802675
0.0021825845 0.0011538867 0.030763723
0.00010351813 0.00010883686 0.00046846303
0.0035112475 0.0010251936 -0.001552899
0.013268816 0.00092038786 0.0305045
-0.0025996112 -0.0019725603 0.021729393
6.7999121e-05 0.00042226011 -0.0001514639
0.00023493993 -0.0037833652 0.00049052259
-0.0023667538 -0.0076834853 0.0010401437
-0.0036495137 -0.014673411 0.0013193502
-0.00080297445 -0.0013287785 0.00039201468
-0.0013582811 -0.0050792233 0.0012547914
-4.6436748e-05 0.014805447 0.00012975969
-1.8178658e-05 0.01965994 0.0024561135
0.00021003591 -0.010277587 0.00038684841
0.00016985694 -0.00036267008 -0.00060798856
0.00020233306 0.00062565296 0.028746556
-9.4625837e-05 0.0013609552 -0.025435021
9.4925941e-05 0.00051112031 -0.0092844991
0.00034070344 0.00065745739 0.0051586549
0.0044165929 0.0020849728 0.031061096
0.00402623 0.0010288211 0.0084345192
0.0060807997 0.0015701194 0.023750523
-0.0041744574 0.00029518409 0.021188069
0.000135408 -5.4189655e-05 0.029422384
0.0033003802 -0.002625715 0.072505668
0.00080017728 -0.0063855774 -0.0018124473
0.0058895932 0.00093675026 0.00059845502
0.0075994348 -0.027881738 0.0048336391
-0.0016149121 -0.050890442 0.0046206117
0.0011716307 -0.0035589617 0.0015149759
-0.01304014 -0.022266498 0.0043600551
7.6928707e-05 0.0035711068 6.4254717e-05
0.00022563664 0.0035026015 0.00081872591
-0.00043443465 -0.0032260017 -0.0026122816
0.00030270655 -0.00045895981 -0.00049786293
-0.00032178362 -0.00099794357 -0.00091856485
-0.0011067475 0.0016092529 -0.0087754168
0.0067036147 0.00074407784 -0.0047294293
-0.00023365642 0.00055230397 0.0025711383
0.00060123688 0.00049379433 0.0037529527
0.014131576 0.0037207813 -0.04607429
0.02587416 0.0017684792 -0.028658861
0.0071091177 3.2455264e-05 0.010680171
0.00083259196 0.0001903938 0.013708178
0.00058217824 -0.00013020464 0.0012258505
8.0967366e-05 0.00036433118 -0.00029709807
0.019055972 -0.0013048493 0.0029502688
0.0076426091 -0.0060893511 0.0017022032
0.0011500502 -0.0075962497 0.00081670139
0.00022526325 0.0036111069 5.6820249e-05
0.004079653 -0.00061944086 0.00089630048
-6.0107792e-05 0.0092938365 0.00016071815
-1.9293535e-05 0.013301159 0.0035167609
-0.00052098016 0.00077866897 -5.578178e-05
0.00012425789 -0.001796623 -0.0024675219
0.00043912246 -0.0016323476 -0.0012631662
0.0046061724 0.00046714893 0.011295251
0.0054027848 0.00020032492 0.025786344
9.8088116e-05 0.00060020725 0.016669022
0.016284665 0.0017693525 -0.054809384
0.0028919815 0.00020581018 -0.0033355032
0.044546138 0.0021229899 -0.012604889
-0.0086399615 2.6535872e-05 0.046438929
-0.0036000074 -0.0015828453 -0.03483963
-0.00014097922 0.00019456602 -1.8890412e-05
-5.9624959e-05 1.4326152e-06 1.4615292e-05
0.001258246 0.0065503106 0.00019084991
0.048208531 -0.009816207 0.0043973085
0.0012100042 0.022680279 0.00012068327
0.005036504 0.0045034424 0.0012392242
-0.0008520261 0.0054812352 -0.00010887722
0.00012341322 -0.00034547597 -0.00045138402
0.00099561736 -0.0009433488 -0.0010334852
-0.00060108153 -0.0013729391 -0.00075357425
-0.0053122882 -0.0018629511 -0.0012796766
0.0020241274 0.00054113113 0.025477106
0.029082557 0.0023567029 -0.020833833
-0.0019182216 0.00017600167 0.05004612
0.026877899 0.0019419881 -0.021423766
0.027464429 0.0020609915 -0.042933509
0.0039837384 0.00011718606 0.0060746646
-0.024110442 -0.0017565704 -0.010759796
0.012608442 -0.026339471 0.00044371377
0.021727482 -0.011434455 0.001393906
0.0063794255 -0.0011323834 0.00063278223
0.0060783303 -0.0021684826 0.00070275884
0.0067858421 -0.012221763 0.0018942722
0.0054709925 0.01922635 0.0012882105
0.007665887 0.011124372 0.0013798191
0.0083264308 0.0094178244 0.0013628687
-0.017419495 -0.0013913785 -0.0021150492
-0.00038678292 -0.00194706 -0.0021123441
0.001921138 -0.00070529082 -0.00050240476
0.001546829 0.00030030072 0.011936764
0.0011256743 0.00039617138 0.0043055918
0.0048396834 0.00047338151 0.0032919289
0.060987759 0.0025455696 -0.019733503
0.040020153 0.0022526535 -0.02863092
0.036697481 -0.0012495781 0.0038722369
0.012845833 -0.051074229 -0.00098569028
0.00053181901 0.0023850745 6.6447406e-05
0.00051905168 0.018535979 -0.0001314292
0.010815937 -0.0024511165 0.0020848752
0.025453374 -0.019611696 0.0037350215
0.0036050719 0.0057070772 0.00047451642
0.0089246593 -0.0075422875 0.0017641552
0.0021422438 0.0037655577 0.00052811444
-0.0041257986 8.9134366e-05 -0.00031952243
-0.0021682025 -0.00064833887 -0.00048718828
0.00065449683 -0.0008020149 -0.0006357375
-0.014918082 -0.0024566965 -0.00315141
0.0044659115 0.00062857399 0.0086686658
0.0017173241 0.00019831723 -0.00084996584
0.012774519 0.00098344486 0.024633076
-0.010927652 -0.0013111247 0.021787699
0.0084964186 -0.00029916948 -0.003232117
0.014132054 -0.038566824 0.0013376703
0.0035182219 -0.0026048073 0.00082172221
-0.0016898341 0.0027813241 -0.00010762941
0.020467212 -0.0028487907 0.003349219
0.0077541075 -0.003081481 0.0016638382
0.002784437 0.010849173 0.0004981776
0.0010558165 0.0067102802 0.0010016728
0.00012029606 0.01090739 0.0012798322
0.0026452467 0.00052973151 0.00079226145
-0.017651534 -0.001807648 -0.002125727
-0.0011883236 -0.00030275344 -0.00027438239
0.0099450331 0.00080029335 0.015196715
-0.0077981208 -0.00093719945 0.024848402
-0.0040423726 -0.0011610342 0.033800382
-0.00079138268 6.587831e-05 -0.0024476987
-0.017100971 -0.00064064865 -0.0048716688
-0.00075837388 -0.043171976 0.00094531005
-0.0026150164 -0.0084312214 0.0021393185
0.00058942224 0.0028978949 -1.0604965e-05
0.0073978715 -0.0024760189 0.0014703819
0.0020357815 -0.002993549 0.00068683649
0.0023710707 0.011784391 0.001583165
0.0007158175 0.0043599182 4.6248547e-06
-0.017862447 -0.0033355681 -0.0023128155
0.0024406044 0.015907435 -0.00059983419
-0.00084632071 -0.00099846988 -0.00033902563
-4.9974078e-05 -0.00036918445 -0.0002384854
0.00079846976 0.00020802754 0.012155415
-3.6189933e-05 0.000153032 0.010392615
-0.0014706532 -0.0006633497 0.019501751
-1.1496641e-05 -0.0011992501 0.02495482
0.018416308 -0.0013138581 -0.0033926226
-0.00030483346 -0.0092863888 4.3248926e-07
0.0028973627 -0.010837957 0.0016222347
-0.00081182364 0.012204467 0.00011998155
0.006934105 0.0014060567 0.0031952176
7.4806383e-05 0.00013747775 5.8513906e-06
-0.00077331305 0.0011859061 0.00071787386
-0.00054237264 0.0035431632 7.7026525e-05
-0.0018933291 0.0089942161 0.00049051025
0.0016534131 0.035010122 -0.0013363536
-0.0090110572 -0.0012527694 -0.00079688523
-0.020210415 -0.0024337727 -0.0012954143
-0.019775545 0.00024569244 0.035014104
0.012949237 0.00026606637 0.035012186
-0.010315035 -0.00069127337 0.008556704
-0.010868243 -0.0013979536 0.023804098
-0.0027174009 -0.067578986 3.3119777e-05
0.0005125989 -0.0019203211 0.00076188409
0.00020209844 0.00084649154 3.3228e-05
-5.2751358e-05 -0.012337027 0.0038525977
0.0016051439 0.026639232 -0.00076932629
0.0015869257 0.0084386105 0.0016630273
-0.0014849219 -0.025118316 0.0024087972
0.0018123116 0.0064342162 0.0015158087
0.0040505868 0.026467256 -0.00016296288
-0.0037123696 -0.00087111071 -0.00075672352
-0.0052558389 0.00021555299 0.019588074
-0.0021649413 0.00016155625 0.014861467
0.003087762 -0.0001422552 0.0082614059
-0.0049081449 -0.0014403907 0.012626415
0.013390285 -0.0026817448 0.00044336365
5.9972455e-05 -0.0042786975 4.7730032e-06
-0.0024078034 0.033168621 -0.00060201617
-0.00013534623 0.0092531145 0.00080037606
0.0013258524 -0.0035519307 0.0013142659
0.00029818621 0.0035392998 -0.00012811729
-0.0052846349 0.0019306587 0.002745362
-0.010940913 -0.028690713 0.0035516706
-0.00064189028 0.013511073 0.00061886717
-0.0072814785 0.01891955 0.0018445475
0.001806655 0.0016487431 -0.00071820134
-0.00065770675 -0.0012946709 8.1475468e-05
0.013868464 1.3309997e-05 0.02556357
0.0087762754 0.00036902566 0.014151875
-0.0045245499 0.00034157877 0.010658917
-0.00069666549 -0.00092777493 0.014454963
0.00021293682 0.004758344 -0.00012974157
-0.0020617193 0.044347227 -0.00064654805
-0.00020148943 -0.0018714503 0.00087495998
0.00017030265 -0.0048982594 0.0021616172
0.0010217767 0.0048717479 -0.00023714412
0.0004634934 -0.00091840071 0.0007626341
-0.0025100587 -0.0048318049 0.00096670463
-0.0023231891 0.013855015 0.00052436226
-0.0047720228 0.0018099651 0.0017984787
0.00028138424 0.005178574 0.001420958
0.0086481264 0.021151494 0.022398187
0.010946671 -0.018077226 -0.016985869
0.028150551 -0.025627812 -0.024933547
-0.016286835 -0.0019427411 0.026212104
0.00039854483 0.0015336341 1.3997988e-05
-0.0036065744 0.023292245 -0.00062317972
-0.0030286014 0.0143399 0.00060968811
-0.0015582787 -0.014925558 0.003570074
-4.7762311e-05 0.0010305283 0.00013810783
-0.0051134243 -0.0049312706 0.0036931138
-0.0040522395 -0.012275215 0.0030519615
0.00015236564 0.0042501469 0.00011628053
-0.010226192 -0.039972443 0.0033494302
-0.0044307802 -0.005870162 0.001562799
0.0090932818 0.015909443 0.020549824
0.016379081 0.0014555295 0.0035729341
0.033808261 -0.020080242 -0.022073487
0.027127756 -0.022932308 -0.029144686
0.021894347 0.0058081993 0.0013184811
0.0021818953 0.0054616099 0.00028527345
-0.0077668577 -0.0065646782 0.0010300181
-0.010190411 -0.017526153 0.0041686553
0.0039668973 0.005177455 0.00010531307
0.0011826373 0.0012880233 0.00048683508
-0.00027470733 -0.0013612891 0.00031967857
-0.00079371786 -5.3727857e-05 0.0017981735
-0.0095757172 -0.020737182 0.0019167996
-0.023585131 0.0038486985 0.00023098383
0.0090854149 -0.0073526222 0.005870834
0.0021225701 -0.0011582348 -0.00110406
0.0073414352 -0.0037005665 0.0021131383
0.022683885 -0.0013786884 -0.015925726
0.01098751 0.0014658374 -0.0001871682
-0.01224247 -0.0037396157 4.43422e-05
-0.01351561 -0.0075738286 0.001042994
-0.00056026038 -0.00058684603 7.0539754e-05
-0.0094193239 -0.006914861 0.0012576815
-0.019460863 -0.01881027 0.0051332475
-0.0023250249 -0.0029446888 0.0011474632
0.00051928411 0.0035459725 0.0006963443
-0.0048845699 -0.0084700277 0.002491117
0.018549055 0.042514604 -9.0442169e-05
-9.0055102e-05 0.00079437019 0.0013714763
0.0015251826 0.015457768 0.033317473
0.012211815 0.00059632293 0.0076008793
-0.0051197507 -0.0013539265 0.038577735
-0.0010590673 -0.00053899467 -2.7837519e-05
-0.017148893 -0.016934976 0.00097655231
-0.0047551868 -0.0035516461 0.0002899417
-0.020251032 -0.015951086 0.0012047241
-0.0039541046 -0.005934542 0.002027628
-4.8915063e-06 -1.6164349e-05 1.9023488e-05
-0.0057990979 0.001200107 0.0017850423
-0.015234229 0.046537321 0.0011426199
-0.0015885502 0.0805391 0.05202451
0.00022486885 -0.0012904115 0.044930104
0.0073654493 0.0056128814 0.006308258
-0.0016268387 0.00060326757 0.0012556787
-0.0088274125 -0.003501378 -0.035966739
-0.0032769996 0.023442406 -0.0012283952
-0.0020701031 0.0068942262 0.001324718
-0.025074244 -0.027012972 -0.01345398
-0.027289966 -0.012298713 0.0094512766
-0.0232176 -0.024629056 -0.014150565
-0.00020958739 0.0013886077 -1.5837764e-05
-0.044117216 0.053581543 0.0033875429
-0.017668314 0.051375262 0.0031125578
-0.0051256297 0.033983771 0.049393963
-0.001903623 0.00023645394 0.054937087
-0.0034106555 -0.0047912379 -0.0030506186
-0.00043638179 0.0061609824 0.00020186104
0 0 0 1 0 0 0 1 0 0 0 1 0 0 0 0 0 764 1 0 0
