ply
format ascii 1.0
comment PCL generated
element vertex 348
property float x
property float y
property float z
element camera 1
property float view_px
property float view_py
property float view_pz
property float x_axisx
property float x_axisy
property float x_axisz
property float y_axisx
property float y_axisy
property float y_axisz
property float z_axisx
property float z_axisy
property float z_axisz
property float focal
property float scalex
property float scaley
property float centerx
property float centery
property int viewportx
property int viewporty
property float k1
property float k2
end_header
-0.056953449 0.02342595 0.18903328
-0.057608996 0.021042965 0.19111989
-0.057985194 0.017907798 0.19255733
-0.058257084 0.014995134 0.19402854
-0.058494948 0.012247249 0.1955514
-0.05855215 0.0097081419 0.19705966
-0.058241982 0.0071444162 0.19857168
-0.054225065 0.025278114 0.1856146
-0.055148438 0.02432593 0.18664731
-0.054945529 0.021656241 0.18798415
-0.055161789 0.018410316 0.18967912
-0.055377569 0.01503003 0.19126362
-0.055945165 0.0119501 0.19292112
-0.056558412 0.0091097271 0.19523218
-0.056358177 0.005740616 0.19635047
-0.055573456 0.0016967201 0.19675779
-0.055328678 -0.00087041996 0.19931655
-0.051386442 0.027246349 0.18263607
-0.051866885 0.025749754 0.1837112
-0.051952753 0.023888553 0.18472701
-0.052192368 0.021875596 0.18606959
-0.052256986 0.018660732 0.18774542
-0.052265014 0.014736999 0.18951204
-0.052814793 0.011394582 0.19096532
-0.053025793 0.0079663303 0.1923231
-0.053744268 0.0038202403 0.19352272
-0.053338043 0.00010318896 0.1963543
-0.053599618 -0.0020915736 0.1993755
-0.054244518 -0.0032411308 0.20247877
-0.05395576 -0.004073333 0.20488787
-0.053815681 -0.004640467 0.20628552
-0.048860021 0.028160129 0.18133087
-0.049270943 0.026216021 0.18221101
-0.049549036 0.024217684 0.1834206
-0.049793825 0.022049746 0.18491761
-0.049729392 0.018940514 0.18674403
-0.049636621 0.013743445 0.18774697
-0.050272096 0.0099767111 0.18962459
-0.050766315 0.0060890391 0.19019422
-0.052349132 0.00046821727 0.19267003
-0.051649969 -0.0024434309 0.19576125
-0.051047355 -0.004027924 0.19804442
-0.051070757 -0.0043346728 0.20084716
-0.051308934 -0.0037689146 0.20449726
-0.052018352 -0.0042906557 0.20767191
-0.052403398 -0.0058194734 0.21102677
-0.051837169 -0.0080644367 0.21547996
-0.045509256 0.031165957 0.17976138
-0.045995992 0.029238643 0.18056171
-0.04659009 0.026868287 0.1816376
-0.047026727 0.024803208 0.18281597
-0.047403511 0.022389034 0.18419333
-0.047498293 0.019201024 0.18560472
-0.047434926 0.014162929 0.18645664
-0.04852628 0.0086686322 0.18738523
-0.049977813 0.0037174064 0.18883154
-0.051121026 -0.0025935736 0.1927515
-0.050612058 -0.0064083315 0.19518653
-0.049852334 -0.0067606936 0.19708045
-0.048735019 -0.0045954473 0.19930089
-0.048094589 -0.0034666613 0.20432727
-0.048355453 -0.0040948978 0.20795366
-0.049286541 -0.006437344 0.21159115
-0.049981896 -0.0089650163 0.21511596
-0.050837833 -0.012563486 0.21894212
-0.04292715 0.033040103 0.17912367
-0.043461654 0.029954726 0.18053703
-0.043422051 0.027725646 0.18136096
-0.04451777 0.025444159 0.18242148
-0.04477467 0.023163484 0.18327141
-0.044752002 0.020147847 0.18421775
-0.045033231 0.015820015 0.18517227
-0.047616903 0.008001822 0.18617871
-0.049762368 0.0014138632 0.18777888
-0.049416561 -0.005773636 0.19207051
-0.048249725 -0.0081362603 0.19438972
-0.046787046 -0.0068302979 0.19677827
-0.045874387 -0.004364667 0.19870868
-0.04509718 -0.0034116283 0.20399897
-0.044902414 -0.0043481071 0.20806098
-0.045106124 -0.0060547651 0.21187605
-0.046740923 -0.0094508212 0.21545412
-0.048586521 -0.013895614 0.21906559
-0.048585482 -0.017744707 0.22188589
-0.047913503 -0.020521717 0.22332579
-0.039474238 0.038822256 0.17765681
-0.039739314 0.035489656 0.17919247
-0.038385861 0.032605074 0.18044315
-0.039553128 0.03007994 0.18121633
-0.040206321 0.027525147 0.18191339
-0.041345708 0.024205822 0.18257402
-0.041372366 0.020980464 0.18288729
-0.04287092 0.016190249 0.1843922
-0.046554722 0.0081207752 0.18446133
-0.048476238 0.0027045929 0.18411981
-0.047080893 -0.0068866797 0.19058144
-0.044719905 -0.0079060737 0.19389132
-0.04335314 -0.0057666949 0.19655584
-0.043156356 -0.0042572436 0.19778778
-0.042393897 -0.0035694593 0.20238015
-0.042569786 -0.0048201247 0.20617513
-0.043811545 -0.0067287013 0.20975114
-0.045428038 -0.0082993172 0.21304376
-0.045342788 -0.013801808 0.21718772
-0.045093469 -0.018033123 0.22038941
-0.04548515 -0.021491915 0.2228948
-0.044714641 -0.023887578 0.22377606
-0.037046842 0.040581539 0.17720468
-0.036485907 0.038737979 0.17888035
-0.036062472 0.034119613 0.18023953
-0.03655846 0.031555425 0.18124588
-0.036087628 0.029338757 0.18220335
-0.035891343 0.025848933 0.18346258
-0.036329426 0.022847425 0.18353793
-0.04023578 0.017031748 0.18402669
-0.044751834 0.0095617967 0.18291472
-0.045875337 0.0047758701 0.18043645
-0.043038756 -0.0080336155 0.18927649
-0.041367333 -0.008613985 0.19275545
-0.040984925 -0.0064759771 0.1932423
-0.040410522 -0.0043352717 0.1962271
-0.040299457 -0.0042374758 0.20080416
-0.040822085 -0.0051884581 0.20386967
-0.042082105 -0.0069478243 0.20855504
-0.043602929 -0.0087642539 0.21222197
-0.042237259 -0.014144988 0.2157609
-0.041466828 -0.018474514 0.21897103
-0.04163827 -0.021526229 0.22168793
-0.04161584 -0.024232743 0.22306211
-0.033900611 0.04154595 0.17729475
-0.033550434 0.039811388 0.17888778
-0.033623658 0.034652982 0.18102351
-0.033630576 0.031494491 0.18230505
-0.032958627 0.029664006 0.18331473
-0.032741215 0.026907897 0.18418886
-0.033581253 0.022812426 0.18411979
-0.034427356 0.019391458 0.18369627
-0.041635685 0.012199147 0.18175575
-0.041552391 0.0062813112 0.17902997
-0.04038519 0.0023009821 0.17840107
-0.038672235 -0.0064102192 0.18595238
-0.037900802 -0.0054249591 0.19108327
-0.037566539 -0.0035004881 0.19517562
-0.037288629 -0.003697905 0.20039985
-0.03792423 -0.0054082251 0.20402767
-0.039306961 -0.0076306146 0.20865224
-0.040552009 -0.010435359 0.21238348
-0.039404191 -0.015228685 0.21546102
-0.038037624 -0.019181453 0.21872237
-0.038523003 -0.022162477 0.22104518
-0.038023237 -0.023942057 0.22257146
-0.030941542 0.041951701 0.17777134
-0.030478414 0.040132269 0.17945251
-0.030670917 0.035451666 0.18175346
-0.030711425 0.032294273 0.18318442
-0.030200928 0.030331217 0.18417901
-0.030469712 0.027233858 0.18508218
-0.030697424 0.023730068 0.18504342
-0.030382404 0.021072401 0.18489262
-0.035016909 0.015329655 0.18314943
-0.036629431 0.0079264063 0.1810246
-0.032823898 0.0048813596 0.18116653
-0.032641359 0.0014380824 0.18429902
-0.033940669 -0.0019493958 0.18875735
-0.034287568 -0.0023679368 0.19245562
-0.034219682 -0.0045366869 0.2020473
-0.034869388 -0.0066965339 0.20456682
-0.036580376 -0.0091883726 0.20912178
-0.037425473 -0.012554162 0.2127277
-0.035387944 -0.01642834 0.21583751
-0.034376979 -0.019031757 0.21975537
-0.034195963 -0.021200875 0.22147003
-0.034733601 -0.023814283 0.22363456
-0.034231342 -0.024917794 0.22625341
-0.027676946 0.04226939 0.17854248
-0.027266445 0.040505953 0.17998348
-0.026729781 0.037437435 0.18189065
-0.027686214 0.033718944 0.18345252
-0.027500624 0.030936731 0.18499072
-0.027733559 0.027618278 0.18632033
-0.028090928 0.024505626 0.18640144
-0.028263144 0.021501977 0.18607345
-0.029383272 0.016812742 0.18524475
-0.031339541 0.010295868 0.18315491
-0.027439445 0.0062706536 0.18784229
-0.026753131 0.0033122427 0.19026744
-0.02625156 0.0005170615 0.19540057
-0.027414991 -0.0036430494 0.20237012
-0.029600929 -0.0061759972 0.20569082
-0.031947654 -0.0081516299 0.20890504
-0.033747934 -0.011381906 0.21198711
-0.032881584 -0.014752534 0.21611971
-0.031743247 -0.01733345 0.21855794
-0.031724613 -0.019603653 0.22097453
-0.031632137 -0.0216603 0.22267605
-0.031699736 -0.023686696 0.22468679
-0.031327739 -0.024403481 0.22702226
-0.025428027 0.042880248 0.17877708
-0.023687806 0.040940385 0.18065807
-0.022660881 0.038644869 0.18208341
-0.023118097 0.035249557 0.18407559
-0.023861082 0.031655569 0.18623236
-0.024261143 0.028667221 0.18787952
-0.025463004 0.025151189 0.18788733
-0.026277496 0.021463076 0.18761048
-0.025971252 0.017894806 0.18807456
-0.024630196 0.01454654 0.18882672
-0.022966528 0.0091213444 0.19126315
-0.023010906 0.0048691435 0.19481941
-0.023608733 0.0015792232 0.19938906
-0.024936277 -0.0031066688 0.20566468
-0.026689345 -0.0063062906 0.20983291
-0.028068252 -0.0093304114 0.21310984
-0.028791146 -0.012834954 0.2167132
-0.028624803 -0.015957434 0.21994635
-0.029166417 -0.018734695 0.22149755
-0.029898293 -0.020383107 0.22237225
-0.029282559 -0.021874269 0.22309081
-0.028662002 -0.023245433 0.22484656
-0.028291469 -0.024629384 0.22742625
-0.019385748 0.04127666 0.1822698
-0.019405263 0.038571093 0.18390346
-0.018147413 0.035661262 0.18599501
-0.018970912 0.032559201 0.18772008
-0.019844839 0.029709326 0.18952389
-0.020760218 0.026506305 0.19081767
-0.023597663 0.021633899 0.19006856
-0.023506027 0.018893473 0.19023022
-0.022736918 0.016272452 0.19126576
-0.021489847 0.012449305 0.19250962
-0.02045669 0.007537243 0.19562499
-0.020632392 0.0024422444 0.20240562
-0.021612527 -0.0028585067 0.20850159
-0.023010323 -0.0074276309 0.21447144
-0.023852251 -0.010543951 0.21729141
-0.024375739 -0.013562201 0.22048654
-0.025286175 -0.016101448 0.22199984
-0.025976866 -0.018491391 0.22326109
-0.027028423 -0.020359801 0.22396228
-0.026439881 -0.021986036 0.22342686
-0.025772979 -0.023538824 0.22458038
-0.02546872 -0.025001343 0.22770578
-0.015658177 0.038865801 0.18568958
-0.014827722 0.036076531 0.18734662
-0.015167439 0.03332407 0.1890375
-0.01551172 0.030763738 0.19074813
-0.014759276 0.02796636 0.19273955
-0.014459891 0.024374718 0.19506425
-0.020620249 0.020432204 0.19272403
-0.020308185 0.01721091 0.19407697
-0.018817615 0.013338005 0.19560005
-0.017408295 0.008654871 0.20005684
-0.017521521 0.0039010928 0.20504881
-0.018350398 -0.0019015899 0.21117525
-0.019549247 -0.0077923681 0.21775009
-0.019905979 -0.011346608 0.22056757
-0.019744691 -0.014373334 0.22331765
-0.021589307 -0.016135279 0.22372635
-0.022888955 -0.017854182 0.22486578
-0.02363975 -0.019378841 0.22487609
-0.023589434 -0.020930843 0.22429946
-0.022943309 -0.022767194 0.22541088
-0.023059312 -0.025308413 0.22914205
-0.011750145 0.036465492 0.18835086
-0.011479269 0.03392946 0.18980743
-0.011298683 0.031479128 0.19140854
-0.010622039 0.028544258 0.1933042
-0.009019915 0.024595644 0.19744737
-0.011840475 0.019704027 0.19903794
-0.015337925 0.016112588 0.19874364
-0.014438962 0.012344019 0.20060201
-0.014621488 0.0092468699 0.20339434
-0.015021691 0.0055931681 0.20642516
-0.01554803 -0.00083086005 0.21314889
-0.015818642 -0.0079457751 0.21983235
-0.015160724 -0.010983429 0.22231178
-0.014763908 -0.013667952 0.22460397
-0.015531595 -0.015842287 0.22543557
-0.018668236 -0.016993143 0.22481689
-0.020112623 -0.018578898 0.22469883
-0.020567797 -0.020594148 0.22511879
-0.02069688 -0.022837376 0.22717385
-0.020447118 -0.025221964 0.23067698
-0.0088147027 0.034073871 0.19053841
-0.0074785636 0.03166474 0.1925094
-0.0061102943 0.028523279 0.19591475
-0.0056337942 0.024079992 0.19922192
-0.0074873497 0.01917767 0.2018889
-0.010318113 0.015369251 0.20329551
-0.011152739 0.012376894 0.20483498
-0.01166728 0.0097801499 0.20632802
-0.01233333 0.0065487158 0.20821467
-0.013004952 0.00098177243 0.21331067
-0.011459518 -0.0070233797 0.22076835
-0.010719526 -0.010032417 0.22327286
-0.010705112 -0.012941608 0.22534773
-0.011186076 -0.015185148 0.22666317
-0.01312069 -0.016703678 0.2265123
-0.01540558 -0.018312473 0.22688825
-0.016973896 -0.020910269 0.22793429
-0.018176604 -0.024521148 0.23127274
-0.0027821106 0.030068969 0.19637761
-0.0025249845 0.026557535 0.19875529
-0.0035301351 0.022306681 0.20100535
-0.0048865853 0.019863863 0.20274979
-0.0067201415 0.015637876 0.20527297
-0.0076634157 0.012479929 0.20729351
-0.0082531562 0.0097668814 0.20907177
-0.0088122878 0.0066363509 0.21167317
-0.01053084 0.0028081273 0.2137394
-0.007306024 -0.005956267 0.22135417
-0.0067745829 -0.0095144622 0.2242755
-0.0070837005 -0.012681855 0.22564338
-0.0079193329 -0.015225277 0.22745492
-0.0088091064 -0.017306736 0.22866218
-0.010742469 -0.01943079 0.23014238
-0.013676776 -0.021664422 0.23074381
-0.016046392 -0.02391452 0.23170519
0.00027198112 0.024814514 0.20020488
-0.00059335737 0.021563053 0.20215839
-0.00028682928 0.018795332 0.20420846
-0.0021900286 0.016240506 0.20599203
-0.0033012175 0.011956994 0.20862326
-0.0032766212 0.0086181108 0.21130037
-0.0033626966 0.0056934333 0.21361452
-0.0032766687 -0.0042652739 0.2212839
-0.0030623495 -0.0092340373 0.22462107
-0.0035933708 -0.012922064 0.22611775
-0.0044658841 -0.01558521 0.22798093
-0.0057202037 -0.017751079 0.22948427
-0.0075159115 -0.019697318 0.2314706
0.0022613832 0.023271214 0.20119068
0.0019534617 0.021053661 0.20252384
0.001914465 0.018704409 0.20416841
0.0018478049 0.015841028 0.2067688
0.0013304296 0.011547963 0.20943736
0.001040711 0.0082039805 0.21196224
0.00095799431 0.0056062965 0.21419302
0.00027815247 0.0028389709 0.21672842
0.00050398434 -0.0017893657 0.22005688
-6.3169129e-05 -0.0076483861 0.22353849
-0.00090934819 -0.012500883 0.22632995
0.0040276982 0.020409457 0.20277889
0.0052421619 0.0186994 0.20455426
0.0049487995 0.015392351 0.20754568
0.0043555964 0.011689368 0.20972967
0.0040908093 0.0086784409 0.21196188
0.0038284436 0.00662862 0.21409403
0 0 0 1 0 0 0 1 0 0 0 1 0 0 0 0 0 348 1 0 0
