ply
format ascii 1.0
comment PCL generated
element vertex 348
property float x
property float y
property float z
element camera 1
property float view_px
property float view_py
property float view_pz
property float x_axisx
property float x_axisy
property float x_axisz
property float y_axisx
property float y_axisy
property float y_axisz
property float z_axisx
property float z_axisy
property float z_axisz
property float focal
property float scalex
property float scaley
property float centerx
property float centery
property int viewportx
property int viewporty
property float k1
property float k2
end_header
-0.057231907 0.023463741 0.18960087
-0.057790801 0.02105711 0.19150521
-0.058168747 0.017918447 0.192947
-0.058439039 0.015016824 0.19441606
-0.058675028 0.012270582 0.19591399
-0.05871975 0.0097277034 0.19738869
-0.058383677 0.0071549071 0.19886568
-0.054393791 0.025285061 0.18604772
-0.055309039 0.024344038 0.18706171
-0.055099264 0.021674724 0.1884069
-0.055323157 0.01843572 0.19010338
-0.055544034 0.015073276 0.19170326
-0.056117442 0.012010486 0.19332694
-0.056735918 0.0091608334 0.19558352
-0.056629997 0.005766327 0.19665717
-0.05580613 0.0016075227 0.19688737
-0.055523627 -0.00092205417 0.19946922
-0.051577166 0.027184617 0.18306957
-0.052045688 0.025721526 0.18418165
-0.052121516 0.023882871 0.18522306
-0.052352142 0.021888737 0.18657637
-0.052400537 0.018694121 0.18821749
-0.052412655 0.014837905 0.19001694
-0.052990489 0.011513083 0.19143361
-0.053409316 0.0081359046 0.19273521
-0.054079618 0.0038642343 0.19374155
-0.053520404 7.6264383e-05 0.19653913
-0.053755946 -0.0020864077 0.19957884
-0.054412622 -0.0032034919 0.20268129
-0.054136511 -0.0039895414 0.20510605
-0.054013856 -0.0046498994 0.20649192
-0.049031302 0.028074238 0.18176158
-0.049454689 0.026159205 0.18269545
-0.04972849 0.024196969 0.18394604
-0.049965121 0.022051252 0.18547586
-0.049884778 0.018965162 0.18732841
-0.04976606 0.013907908 0.18831959
-0.050454471 0.010117054 0.19012396
-0.051143952 0.006283815 0.1905683
-0.052510418 0.00045223572 0.19287388
-0.05174771 -0.0024188112 0.19602165
-0.051121067 -0.0039575137 0.19833672
-0.051158465 -0.0042247628 0.20113616
-0.051486392 -0.0036269415 0.20475569
-0.052327551 -0.0041933656 0.20789024
-0.052798711 -0.0056534261 0.21131729
-0.052095592 -0.0079999287 0.2156639
-0.045657828 0.031000553 0.18010868
-0.046170294 0.029120451 0.18097702
-0.046776403 0.02680509 0.18213201
-0.047206599 0.024784034 0.18335561
-0.047579426 0.022399131 0.18477388
-0.047658969 0.019224964 0.18622123
-0.047577765 0.014257533 0.18710516
-0.048856501 0.0089288438 0.18793288
-0.050275706 0.0038796724 0.18917115
-0.051189549 -0.0025788827 0.19302501
-0.05058546 -0.0063482746 0.19554672
-0.049817413 -0.0066551096 0.19747242
-0.048770782 -0.0044274302 0.1996634
-0.048280738 -0.0032000202 0.20467784
-0.048695393 -0.0037567515 0.20829014
-0.049499445 -0.0063354704 0.21179867
-0.050204854 -0.0088517815 0.215371
-0.051084075 -0.012484423 0.2191968
-0.043048371 0.032849796 0.1794282
-0.043619629 0.02982991 0.18093756
-0.043592434 0.027657935 0.18184997
-0.044710856 0.02542131 0.18297714
-0.044951167 0.02317437 0.18386641
-0.044912208 0.020176025 0.18484889
-0.045187689 0.01587181 0.18583483
-0.047934256 0.0082464023 0.18675682
-0.049967032 0.0015436375 0.18811525
-0.049372461 -0.0057323938 0.19243442
-0.048143081 -0.0080361757 0.19483672
-0.046741676 -0.0066524185 0.19723926
-0.045901742 -0.0041170674 0.19915625
-0.045284364 -0.0030070019 0.20446338
-0.04525616 -0.0037950764 0.20857844
-0.045344505 -0.005881506 0.21218827
-0.046997178 -0.0093360674 0.2158327
-0.048830502 -0.013802421 0.21942537
-0.048806909 -0.017581701 0.22236933
-0.048123624 -0.020315995 0.22387041
-0.039610211 0.038680129 0.17786974
-0.039857738 0.035334118 0.17946248
-0.038521789 0.032540336 0.18085422
-0.039696205 0.030041723 0.18168123
-0.040364344 0.027524943 0.18244736
-0.041518744 0.02423862 0.18318959
-0.041526742 0.021016894 0.18353367
-0.043017454 0.01626382 0.18507825
-0.046837933 0.0084117567 0.18509933
-0.048721723 0.0029832183 0.18455577
-0.046964314 -0.0068248664 0.19102512
-0.044602949 -0.0077318572 0.19442551
-0.043314345 -0.0055020684 0.19709373
-0.043151949 -0.0039363969 0.19834147
-0.042545106 -0.003061882 0.20300409
-0.042816512 -0.0041245101 0.2068824
-0.043973561 -0.0065204566 0.21016331
-0.045627557 -0.0081220325 0.21338437
-0.045553125 -0.013679584 0.21762396
-0.045307226 -0.017864039 0.22093341
-0.04568493 -0.021270053 0.22348386
-0.044924557 -0.023661947 0.22435975
-0.037205264 0.040478867 0.17739004
-0.036630463 0.038658641 0.17908344
-0.036211662 0.034061424 0.18061467
-0.036710937 0.031556647 0.18171924
-0.036237847 0.029371107 0.18273154
-0.036047522 0.025900146 0.18403412
-0.036513813 0.02289056 0.18419281
-0.040416576 0.017102035 0.18476909
-0.044995163 0.0098490743 0.18367314
-0.046077665 0.0051588966 0.18103611
-0.042885326 -0.0079456531 0.18992372
-0.04126456 -0.008397541 0.19346425
-0.040950801 -0.0062437714 0.19392364
-0.040411938 -0.0039946353 0.19692686
-0.040370844 -0.003716992 0.2015866
-0.040974479 -0.0044907047 0.20473601
-0.042203043 -0.0066488483 0.20907973
-0.043780025 -0.0085502211 0.21268009
-0.042401779 -0.013992887 0.21630901
-0.041657981 -0.0183206 0.21962886
-0.041823652 -0.021308577 0.22233492
-0.041818779 -0.024025576 0.22364588
-0.034056399 0.041450035 0.17743388
-0.033692606 0.039737821 0.17904831
-0.033779837 0.03460528 0.18136612
-0.033802591 0.031516835 0.18278408
-0.03312828 0.02971866 0.18384859
-0.032918818 0.026977738 0.18475133
-0.033795319 0.022852467 0.18480232
-0.03465772 0.019423502 0.18450449
-0.041837435 0.012427048 0.18270983
-0.041682053 0.0065971287 0.17987499
-0.040500879 0.0026233776 0.17921345
-0.038571738 -0.0062958426 0.18674698
-0.037855756 -0.0052223639 0.1918685
-0.037583862 -0.0031678213 0.19597881
-0.037409373 -0.003090909 0.2013199
-0.038095254 -0.0045087277 0.20511892
-0.039437056 -0.007213342 0.20928614
-0.040675711 -0.010127174 0.21296556
-0.039582498 -0.014976542 0.2161894
-0.03825824 -0.018977527 0.21947147
-0.038726512 -0.021966375 0.22172032
-0.038218953 -0.023777585 0.22315101
-0.03108182 0.041838169 0.17788188
-0.030603893 0.040038299 0.1795892
-0.030818813 0.035399958 0.1820586
-0.030891946 0.032310937 0.18363175
-0.030391177 0.030387636 0.18467592
-0.03067665 0.027308326 0.18563208
-0.030919569 0.023776148 0.18569526
-0.030628838 0.021124324 0.18565156
-0.035226516 0.015372655 0.18404582
-0.036791846 0.0080079073 0.18187031
-0.033036802 0.005151561 0.18233864
-0.032864604 0.0016387169 0.18532135
-0.034030307 -0.0018074028 0.18963575
-0.034281321 -0.0020899884 0.19329786
-0.034407839 -0.0037519953 0.20327556
-0.035163458 -0.0056418334 0.20600085
-0.036784664 -0.008720411 0.20988384
-0.03763843 -0.012197643 0.2134717
-0.03564249 -0.016176848 0.21661881
-0.034589089 -0.018868769 0.22047606
-0.034386251 -0.021064602 0.22211827
-0.034930032 -0.023735831 0.22418047
-0.034419637 -0.024930503 0.22676082
-0.027798476 0.04213687 0.17862259
-0.027365169 0.040382884 0.18007872
-0.026817787 0.037323546 0.18205515
-0.027864391 0.033720575 0.18383236
-0.027698768 0.030985167 0.18547913
-0.027953077 0.027701342 0.18688729
-0.028325276 0.024594069 0.18704893
-0.028514145 0.021584507 0.18682294
-0.029651007 0.016868584 0.18611577
-0.031568009 0.010366497 0.18408778
-0.027737064 0.0063537555 0.18869066
-0.027150521 0.0033654463 0.19147225
-0.026748566 0.00066206552 0.19673017
-0.027843341 -0.003277529 0.20375903
-0.030051664 -0.0054499027 0.2072186
-0.032307789 -0.0077881631 0.20980054
-0.034119088 -0.011079307 0.21282594
-0.03320571 -0.014586098 0.21689202
-0.031984922 -0.017218733 0.21931212
-0.031930361 -0.019554138 0.22169591
-0.031831339 -0.021639349 0.22334133
-0.031884409 -0.023694539 0.22529088
-0.031501342 -0.024461795 0.22760099
-0.025538063 0.042733472 0.17882468
-0.023750169 0.040800497 0.18070158
-0.022701113 0.038520049 0.18216786
-0.02319926 0.035178259 0.1843352
-0.024028633 0.031670827 0.18671493
-0.024466015 0.028749263 0.18844505
-0.025698461 0.025267977 0.18854395
-0.026537009 0.021563293 0.18836476
-0.026254863 0.017978078 0.18888491
-0.024967108 0.014598822 0.18967055
-0.023365231 0.0091878045 0.19214866
-0.023405772 0.0049756276 0.19568798
-0.024008933 0.0017409908 0.20029883
-0.025327334 -0.0028862804 0.20660815
-0.027094072 -0.0061069271 0.21076509
-0.028486695 -0.0091918251 0.21399632
-0.029175645 -0.012805619 0.2175412
-0.028920686 -0.016065774 0.22069581
-0.029410813 -0.01880604 0.22222559
-0.030114088 -0.020421041 0.22307488
-0.029501645 -0.021910461 0.22376283
-0.028866474 -0.023305915 0.22549973
-0.02847066 -0.024708705 0.22799966
-0.019395566 0.041141488 0.18229467
-0.019394001 0.038447794 0.18399325
-0.018126141 0.035501614 0.18620171
-0.019013153 0.032441415 0.18810405
-0.019954771 0.029703792 0.19002992
-0.020949552 0.026589213 0.19144906
-0.023870897 0.021743353 0.19082007
-0.023826983 0.018965526 0.19103526
-0.023107039 0.016332248 0.19211291
-0.021916101 0.01250143 0.19342388
-0.020874497 0.007632663 0.19652238
-0.021056108 0.0026413039 0.20334692
-0.022066267 -0.0026379807 0.20951268
-0.023478325 -0.0073730671 0.2154296
-0.024262061 -0.010580545 0.21815063
-0.02471333 -0.01368106 0.2212479
-0.025554545 -0.016230136 0.22269437
-0.02620692 -0.018599425 0.22393496
-0.027238429 -0.020440625 0.22462994
-0.026663946 -0.022053473 0.22408041
-0.025983609 -0.023598885 0.22519411
-0.025646579 -0.025094179 0.22823343
-0.015602672 0.038730953 0.18578307
-0.014802294 0.035940263 0.18753667
-0.015180785 0.033205312 0.18933229
-0.015566238 0.03070089 0.19114402
-0.014861282 0.027969161 0.1932288
-0.014611552 0.024453741 0.19568339
-0.02097534 0.020497937 0.19356312
-0.020740867 0.01725932 0.19497332
-0.019298462 0.013387969 0.19654356
-0.017817803 0.0087466147 0.20093188
-0.017927937 0.0040985649 0.2059956
-0.018841263 -0.0016945167 0.21222074
-0.020035652 -0.0078116688 0.21870729
-0.020314639 -0.0114612 0.22137655
-0.020042779 -0.014543225 0.22400364
-0.021843346 -0.016286833 0.22435649
-0.02309854 -0.017969722 0.22549222
-0.023849268 -0.019485623 0.22550187
-0.023803329 -0.021012116 0.22491336
-0.023147944 -0.022837365 0.22597401
-0.02322625 -0.025437295 0.2296024
-0.011712634 0.036350716 0.1885128
-0.011483425 0.033801723 0.19005238
-0.011340843 0.031372778 0.19172703
-0.010695313 0.028471908 0.19372627
-0.0091159493 0.024565883 0.19798104
-0.012148751 0.019769557 0.19976825
-0.015771365 0.016171388 0.19958082
-0.01482861 0.01243 0.20140734
-0.014968824 0.0093725026 0.20421888
-0.015366016 0.0057766275 0.20731923
-0.016015496 -0.00066266221 0.21419546
-0.016262529 -0.0079743695 0.22072996
-0.015483184 -0.011083571 0.22302958
-0.015008207 -0.013788778 0.22519949
-0.015779829 -0.015947159 0.22598584
-0.01891348 -0.017084949 0.22540073
-0.020369371 -0.018657694 0.22527789
-0.020801224 -0.020657664 0.22567786
-0.020898275 -0.022927258 0.22767177
-0.020604201 -0.025385477 0.23109466
-0.0088049034 0.033927776 0.19076283
-0.0075006485 0.031509567 0.19278857
-0.0061329263 0.028389696 0.19629863
-0.0057212161 0.02399553 0.19964644
-0.0076813549 0.019232994 0.20244674
-0.010575013 0.015452093 0.20393045
-0.011415611 0.012467765 0.20551485
-0.011927282 0.0099024465 0.20705739
-0.012609449 0.0066998154 0.20902218
-0.013384967 0.001147783 0.21426527
-0.01181493 -0.007030142 0.22152941
-0.010956323 -0.010099793 0.2238289
-0.010887925 -0.013049698 0.2258067
-0.011357915 -0.015294437 0.22709814
-0.013324184 -0.016794825 0.22697857
-0.015634818 -0.018388003 0.22736575
-0.017185504 -0.020998541 0.22839187
-0.0183258 -0.024696751 0.23165484
-0.0027998192 0.029905261 0.19669056
-0.0025766487 0.026401516 0.19906174
-0.0036482515 0.022205362 0.20130825
-0.0050399308 0.01985882 0.2031581
-0.0069012237 0.01569269 0.2057941
-0.0078209257 0.012516013 0.2078059
-0.0083907889 0.009829103 0.20963389
-0.0089333337 0.006740984 0.21232022
-0.010786519 0.0029688743 0.21456663
-0.0075865313 -0.0059813294 0.22192506
-0.0069295298 -0.0096212374 0.22464029
-0.0072402065 -0.012806769 0.22597007
-0.0080572749 -0.015362467 0.22778146
-0.0089398501 -0.017442038 0.22898592
-0.010863836 -0.019559672 0.2304894
-0.013830178 -0.02178723 0.23112832
-0.016196035 -0.024088807 0.2320656
0.00021043977 0.024673402 0.200406
-0.00068669987 0.021437241 0.20236216
-0.00037839502 0.018713389 0.20446166
-0.0023046311 0.016226126 0.20635033
-0.0033986547 0.011932087 0.20901991
-0.0033284316 0.0085836062 0.21171416
-0.0033953313 0.0056830081 0.21404384
-0.0034823609 -0.0043082666 0.22166213
-0.0032114643 -0.00937148 0.2248563
-0.0037423861 -0.013073663 0.22632641
-0.0045874496 -0.015745761 0.22819425
-0.0058184783 -0.017921908 0.22972605
-0.007576826 -0.019866135 0.23172097
0.0021906283 0.023120975 0.20133103
0.0018725467 0.020922292 0.20269467
0.0018292863 0.018599415 0.20439234
0.001781925 0.015761342 0.20704052
0.0012699048 0.011469952 0.20973362
0.00099898549 0.0081219804 0.21225886
0.00093337329 0.0055246549 0.21447897
0.00027992431 0.0027748724 0.2170352
0.00041057082 -0.0018540185 0.22034588
-0.00023112613 -0.0077682375 0.22370814
-0.0010498805 -0.01267331 0.22645149
0.0039375885 0.02028385 0.20293695
0.0051661837 0.018581131 0.20475143
0.0048867296 0.015283963 0.20777558
0.0042944583 0.01157226 0.20993975
0.0040488136 0.0085487282 0.21216846
0.0038076018 0.0064955414 0.21428913
0 0 0 1 0 0 0 1 0 0 0 1 0 0 0 0 0 348 1 0 0
