ply
format ascii 1.0
comment PCL generated
element vertex 348
property float x
property float y
property float z
element camera 1
property float view_px
property float view_py
property float view_pz
property float x_axisx
property float x_axisy
property float x_axisz
property float y_axisx
property float y_axisy
property float y_axisz
property float z_axisx
property float z_axisy
property float z_axisz
property float focal
property float scalex
property float scaley
property float centerx
property float centery
property int viewportx
property int viewporty
property float k1
property float k2
end_header
-0.057470288 0.023538837 0.19014521
-0.057985049 0.021069255 0.19186455
-0.058364764 0.01792575 0.1933272
-0.058628812 0.01503707 0.19481725
-0.058857575 0.012292651 0.19630736
-0.058886237 0.0097438637 0.19775598
-0.058523677 0.0071579367 0.19919631
-0.054560047 0.025290756 0.18646319
-0.055462174 0.024358746 0.18746077
-0.055253126 0.021690516 0.18882462
-0.055487573 0.018450864 0.19052649
-0.055710617 0.015107276 0.19216666
-0.056283358 0.01206227 0.19378015
-0.056905109 0.0092065819 0.19599052
-0.056882866 0.0057868222 0.19703905
-0.056003097 0.0015220476 0.19712956
-0.055673253 -0.00099730364 0.19970493
-0.051760174 0.027114119 0.18348202
-0.052223403 0.025690617 0.18464543
-0.05229412 0.023880495 0.18572959
-0.052518945 0.021908257 0.18710753
-0.052548278 0.018721065 0.18871258
-0.052548878 0.014920658 0.19057694
-0.053145166 0.011614279 0.19198753
-0.053761978 0.0083057135 0.19330074
-0.054415803 0.0039145621 0.19407384
-0.053689454 3.6194167e-05 0.1967973
-0.053880267 -0.0021228006 0.19982921
-0.054520342 -0.0032314791 0.20292225
-0.054234643 -0.0039950055 0.20534804
-0.054066997 -0.0047743032 0.20672365
-0.049188849 0.027973857 0.18217839
-0.04962964 0.026095284 0.18318827
-0.049906291 0.024177168 0.18449959
-0.050145473 0.022062073 0.18607759
-0.05006361 0.019006049 0.18797098
-0.049871776 0.014049808 0.18899575
-0.050603308 0.010238101 0.19074664
-0.051473908 0.0064939843 0.19112983
-0.05269254 0.0004483237 0.19314332
-0.05186547 -0.0024171474 0.19630697
-0.051204402 -0.0039393082 0.19862564
-0.051221035 -0.0041922354 0.20141605
-0.051573224 -0.0035843789 0.20502654
-0.05244359 -0.004242036 0.20812854
-0.052948587 -0.0056746164 0.21159698
-0.052356072 -0.0080135232 0.2158176
-0.045787849 0.030810026 0.18043403
-0.046326097 0.028985003 0.18138337
-0.046952087 0.026735235 0.18264489
-0.04738532 0.024765082 0.18393898
-0.047765814 0.022419367 0.1854174
-0.047839567 0.01926451 0.18691824
-0.047713295 0.014343742 0.18787199
-0.049099829 0.0092014438 0.18874638
-0.050549235 0.0040609306 0.18966709
-0.051300835 -0.0025637541 0.19331677
-0.050611246 -0.0063121431 0.19587074
-0.049825881 -0.0065997611 0.19781084
-0.048805989 -0.0043467083 0.1999886
-0.048370104 -0.003085397 0.20500578
-0.048860859 -0.0036385269 0.20860171
-0.049712408 -0.0063010873 0.2119835
-0.05043504 -0.0088141393 0.21559188
-0.051322706 -0.012431066 0.21943608
-0.043158732 0.032640886 0.17972629
-0.043766875 0.029685875 0.18133354
-0.04375622 0.027583461 0.18236059
-0.044902224 0.025403855 0.18359123
-0.045131866 0.023197494 0.18454471
-0.045085352 0.020219957 0.18558379
-0.045349121 0.01592318 0.18662627
-0.048162512 0.0085103819 0.18761106
-0.050172754 0.0017014148 0.18856266
-0.049397774 -0.005691417 0.19276224
-0.0481118 -0.0079683419 0.19520327
-0.046743598 -0.0065526189 0.197621
-0.045931343 -0.0039851596 0.19954196
-0.045381185 -0.0028164431 0.20485713
-0.045444634 -0.0035609535 0.20899628
-0.045595579 -0.0057869377 0.21246478
-0.047263239 -0.0092807841 0.21616641
-0.049061451 -0.013713398 0.21977933
-0.049010612 -0.017422574 0.22284059
-0.048316605 -0.020115638 0.22439507
-0.039745755 0.038494747 0.178068
-0.039976109 0.035162602 0.179741
-0.038669389 0.032466147 0.18128847
-0.03985152 0.029996535 0.18217155
-0.040535245 0.027527956 0.1830297
-0.041705649 0.024286229 0.18391146
-0.041687541 0.021072771 0.18431696
-0.04315988 0.016342493 0.18590185
-0.047023594 0.0087064514 0.18602931
-0.04891279 0.0032944321 0.18517251
-0.0469351 -0.0067620063 0.19140054
-0.044566426 -0.0076230592 0.19485784
-0.043318737 -0.0053582094 0.19753577
-0.043157358 -0.0037677358 0.19880763
-0.042633075 -0.002842115 0.20351484
-0.042953916 -0.0037967258 0.20743915
-0.044152476 -0.0063934843 0.2105329
-0.045841597 -0.0080165584 0.21367861
-0.045759916 -0.013566359 0.21804872
-0.045509458 -0.017697681 0.2214592
-0.045871209 -0.021056099 0.22404534
-0.045121431 -0.023445038 0.22491616
-0.037366759 0.040335525 0.17756553
-0.036780141 0.038533077 0.17927144
-0.036373414 0.033978857 0.18100458
-0.036882922 0.031545267 0.18222533
-0.036413956 0.029397862 0.18329997
-0.036240347 0.025957257 0.1846652
-0.036745753 0.022952717 0.18493201
-0.040628951 0.017171409 0.18563768
-0.04514325 0.01011014 0.18474376
-0.046177395 0.0055501903 0.1819167
-0.042822011 -0.0078452509 0.19046065
-0.041243069 -0.0082580242 0.19403979
-0.040972304 -0.0061002509 0.19451649
-0.040432848 -0.0038357626 0.19753668
-0.040418167 -0.0035149767 0.20222469
-0.041078113 -0.0041619306 0.20543787
-0.042351842 -0.0064302608 0.20957084
-0.04398074 -0.0084049702 0.21310674
-0.042573251 -0.0138566 0.21684267
-0.041843213 -0.018175246 0.22024925
-0.041998792 -0.021107571 0.22294021
-0.042010818 -0.0238312 0.2242001
-0.034220174 0.041321438 0.17758118
-0.033843145 0.039623406 0.17920598
-0.033946555 0.034528922 0.18171744
-0.033995356 0.031531326 0.18330406
-0.033323009 0.029769629 0.18443224
-0.03313195 0.027048657 0.18538278
-0.034070533 0.022901721 0.18557696
-0.034959756 0.019469691 0.18542166
-0.041969094 0.012579842 0.18391202
-0.041745696 0.0068355026 0.1810545
-0.040568497 0.0028925121 0.18033707
-0.038535237 -0.0061398861 0.18750705
-0.037867632 -0.005072183 0.19258547
-0.037609417 -0.0030356434 0.19670591
-0.037495892 -0.0028644695 0.20207478
-0.03823638 -0.0040482408 0.20597458
-0.039603151 -0.0068568257 0.2099009
-0.040819649 -0.0098615307 0.21354727
-0.039764002 -0.014740973 0.21688913
-0.038475029 -0.018779624 0.22016925
-0.038921203 -0.021781746 0.22234936
-0.038403761 -0.023624126 0.22369415
-0.031230398 0.041692626 0.17800632
-0.030736197 0.039906729 0.17972831
-0.030972999 0.03531852 0.18236974
-0.031090479 0.032317292 0.18412505
-0.030600319 0.030438352 0.18523452
-0.030916493 0.027376657 0.18626237
-0.031205459 0.023822416 0.18645436
-0.030956903 0.021182267 0.18652043
-0.035493549 0.015405688 0.18506297
-0.036976922 0.0080474485 0.1829059
-0.03322798 0.0053329342 0.18378463
-0.033062909 0.0017913462 0.18659225
-0.034135155 -0.001692708 0.19060864
-0.034293223 -0.001965649 0.19411016
-0.034584772 -0.0033858572 0.20425554
-0.035442561 -0.0050833183 0.2070947
-0.037012771 -0.0082865674 0.21064454
-0.037855387 -0.011870976 0.2142112
-0.03589398 -0.015933845 0.21734868
-0.034795102 -0.01870257 0.22113813
-0.034570523 -0.02093152 0.22270946
-0.035113931 -0.023661632 0.22467479
-0.034589779 -0.024947139 0.22721678
-0.027926134 0.041971259 0.17871185
-0.027464779 0.040226135 0.1801741
-0.026903501 0.037182894 0.18222527
-0.028049255 0.033695959 0.18424565
-0.027903436 0.031010833 0.18600769
-0.028190253 0.027764758 0.1875075
-0.028610663 0.024670172 0.18778263
-0.02884108 0.021660658 0.18766952
-0.03002272 0.016931145 0.18709579
-0.031855352 0.010413735 0.18515757
-0.028096478 0.0064514815 0.18965442
-0.027602796 0.0034844731 0.1928717
-0.027280109 0.00087299012 0.19819362
-0.028337507 -0.0028860904 0.20516983
-0.030509552 -0.0049543274 0.20855801
-0.032666456 -0.007449294 0.21067527
-0.034466073 -0.010816156 0.21363635
-0.03351612 -0.014432283 0.21761322
-0.032215819 -0.017101079 0.22000818
-0.03212158 -0.019503653 0.2223552
-0.032012239 -0.021624776 0.22394729
-0.032049958 -0.02371476 0.22584015
-0.031651162 -0.024536615 0.22812749
-0.025652317 0.042552941 0.17887351
-0.023810662 0.040632024 0.18073079
-0.022736045 0.038376108 0.18224235
-0.023273826 0.03508494 0.18460175
-0.024188835 0.03164918 0.1872045
-0.024656652 0.028794844 0.18901628
-0.025960691 0.025355047 0.189246
-0.026863297 0.021647424 0.18920149
-0.02662288 0.018049931 0.18977734
-0.025397265 0.014645901 0.19059595
-0.023861969 0.0092838444 0.19312637
-0.023874158 0.0051262248 0.19663054
-0.024459017 0.0019403928 0.2012635
-0.02576213 -0.0026068359 0.20758204
-0.027516725 -0.0058833868 0.21168742
-0.028877042 -0.0090907784 0.2148151
-0.029529788 -0.012807172 0.21830249
-0.029200824 -0.0161673 0.22140104
-0.02963041 -0.018873813 0.22289434
-0.030306432 -0.02046231 0.22371759
-0.029693933 -0.021957172 0.22437711
-0.029042561 -0.023381272 0.22609487
-0.028623102 -0.024811978 0.22851546
-0.019400306 0.040992636 0.18229206
-0.019376224 0.038319055 0.18406062
-0.018099505 0.035339419 0.18637279
-0.019041747 0.032308221 0.18844806
-0.020028003 0.029668765 0.19049023
-0.021093095 0.026630305 0.19203292
-0.024184862 0.021822933 0.19161698
-0.024204953 0.019020248 0.19189176
-0.023538124 0.016386263 0.19301517
-0.022418108 0.012564149 0.19440961
-0.021372456 0.0077673052 0.19749492
-0.021526499 0.0028848811 0.20432824
-0.022569206 -0.0023561732 0.21055222
-0.02396258 -0.0073119234 0.21636584
-0.024669804 -0.010625851 0.21897337
-0.025051616 -0.013792005 0.22198269
-0.025808092 -0.016353609 0.22335033
-0.026406663 -0.018712785 0.22455682
-0.027417429 -0.020532785 0.22524227
-0.026857654 -0.022129703 0.22467665
-0.026165737 -0.023675539 0.22574939
-0.025797127 -0.025213551 0.22869866
-0.015535737 0.038596094 0.18582758
-0.014754882 0.035797525 0.18765716
-0.015162583 0.033072226 0.1895476
-0.015579383 0.030617351 0.19145502
-0.014915724 0.027951181 0.19362192
-0.014720012 0.024514081 0.19620749
-0.021342801 0.020537885 0.19440331
-0.021197028 0.017307015 0.19589305
-0.019819269 0.013445836 0.19752429
-0.018272111 0.0088821789 0.20184405
-0.018368063 0.0043356218 0.20696266
-0.019366456 -0.0014688504 0.21326925
-0.020539338 -0.0078333747 0.21964177
-0.02073022 -0.011579043 0.22216335
-0.020331483 -0.014731199 0.22464253
-0.022073088 -0.016448934 0.22492395
-0.023272336 -0.018101668 0.22606157
-0.024023185 -0.019607641 0.22607334
-0.023984814 -0.02111081 0.22547051
-0.023323167 -0.022932952 0.22647628
-0.023364015 -0.02559665 0.22999521
-0.011648976 0.036230709 0.18859339
-0.011456733 0.033662286 0.19020005
-0.011348858 0.031253137 0.19194201
-0.010734808 0.028391218 0.19404916
-0.0092044091 0.024555037 0.19844338
-0.012432524 0.01984081 0.20044333
-0.016213449 0.016246634 0.20040223
-0.015250132 0.012549789 0.2022201
-0.015347677 0.009543349 0.20505653
-0.015735889 0.0059975246 0.20822029
-0.016498007 -0.00050860672 0.21521901
-0.016712181 -0.0080231018 0.22159131
-0.015799675 -0.011215264 0.22369011
-0.015237761 -0.013955067 0.22570457
-0.016011341 -0.016099116 0.22643055
-0.019130757 -0.017213834 0.22589539
-0.020601286 -0.018770413 0.22577983
-0.021006377 -0.020753803 0.22616394
-0.021070519 -0.023050306 0.22810003
-0.02072842 -0.025581306 0.23143834
-0.0087624947 0.033772476 0.19088563
-0.0074944696 0.031348296 0.19296776
-0.0061486936 0.028261188 0.19660883
-0.0058061117 0.023952017 0.20003165
-0.0078534139 0.019300824 0.20294619
-0.010822969 0.015547978 0.20449385
-0.011692091 0.012589248 0.20615144
-0.012209153 0.010059782 0.20775919
-0.012906138 0.0068844203 0.20980962
-0.013772943 0.0013065657 0.21518764
-0.012171032 -0.007066539 0.22222647
-0.011184644 -0.01020238 0.22429323
-0.011053854 -0.01320104 0.22615044
-0.011504321 -0.015449389 0.2274072
-0.013503699 -0.016934704 0.22731948
-0.015834741 -0.018510602 0.22772561
-0.017365837 -0.021127138 0.22873935
-0.018435242 -0.024901561 0.23195201
-0.0028142238 0.029761393 0.19695385
-0.0026242703 0.026283495 0.19934131
-0.0037533853 0.022155769 0.20160714
-0.0051736981 0.01988437 0.20353508
-0.0070709581 0.015739312 0.20622796
-0.0079888618 0.012563279 0.20824163
-0.0085490188 0.0099119572 0.21013877
-0.0090722423 0.0068679377 0.21291922
-0.011047824 0.0031353915 0.21535297
-0.007871029 -0.0060239602 0.22242531
-0.007079083 -0.0097463643 0.22490779
-0.0073822946 -0.012956526 0.22618276
-0.008172811 -0.015531158 0.22798291
-0.0090406043 -0.017611314 0.22917993
-0.010945381 -0.019726561 0.23070735
-0.013939177 -0.021946717 0.23139277
-0.016305257 -0.024293983 0.23232745
0.00016446924 0.024560869 0.20056738
-0.00076570787 0.021352045 0.20254637
-0.00045674166 0.018650889 0.20466881
-0.0024122533 0.016210163 0.20663472
-0.0035082765 0.011909566 0.20934886
-0.0033982885 0.008559078 0.21207707
-0.0034474288 0.0056812302 0.21442966
-0.0037018408 -0.0043507069 0.22197579
-0.0033602414 -0.0095068533 0.22500013
-0.003879563 -0.013230596 0.22642489
-0.0046887458 -0.015920073 0.228286
-0.0058889049 -0.018110165 0.2298412
-0.0076006907 -0.020055544 0.23185052
0.002138247 0.022983594 0.20140624
0.0018080047 0.020804616 0.20280842
0.0017566705 0.018497765 0.20455079
0.0017161536 0.015668282 0.20723057
0.0012001019 0.011383755 0.20996371
0.00093861006 0.0080345524 0.21250011
0.00088673842 0.0054316539 0.21471272
0.00025778639 0.0026952687 0.21729054
0.00029015125 -0.001936552 0.22058108
-0.00040746777 -0.0078756018 0.22379725
-0.0011820366 -0.012836617 0.22647034
0.0038611249 0.020155508 0.20301479
0.0051001362 0.018445073 0.20485915
0.0048226616 0.015149194 0.20791574
0.004223797 0.011432786 0.21007533
0.0039891768 0.0083997371 0.2123099
0.0037664163 0.0063377367 0.21442197
0 0 0 1 0 0 0 1 0 0 0 1 0 0 0 0 0 348 1 0 0
