ply
format ascii 1.0
comment PCL generated
element vertex 348
property float x
property float y
property float z
element camera 1
property float view_px
property float view_py
property float view_pz
property float x_axisx
property float x_axisy
property float x_axisz
property float y_axisx
property float y_axisy
property float y_axisz
property float z_axisx
property float z_axisy
property float z_axisz
property float focal
property float scalex
property float scaley
property float centerx
property float centery
property int viewportx
property int viewporty
property float k1
property float k2
end_header
-0.057650272 0.023682186 0.19067167
-0.058201771 0.021047343 0.19217443
-0.058585055 0.017895695 0.19365759
-0.058836348 0.015022418 0.19518448
-0.059050504 0.012283345 0.19668388
-0.059058763 0.0097312331 0.19811887
-0.058671366 0.0071321102 0.19952725
-0.054727748 0.025271839 0.18684606
-0.055618536 0.024345631 0.18783198
-0.055417668 0.021676945 0.18921308
-0.055666558 0.018425638 0.19091195
-0.055885341 0.015098749 0.19260392
-0.056445479 0.012075086 0.19423121
-0.057064973 0.0092222812 0.1964121
-0.057122856 0.005814346 0.1974636
-0.05618773 0.0014373396 0.19737148
-0.055809069 -0.0010923223 0.19991481
-0.051927451 0.027028117 0.18386601
-0.05239689 0.025640881 0.1850829
-0.052469753 0.023858141 0.18621393
-0.052698422 0.021906381 0.18762366
-0.052710328 0.018713513 0.18918942
-0.052680798 0.01495333 0.19113097
-0.053277023 0.011667592 0.19257085
-0.054133911 0.0084518567 0.19395746
-0.054765642 0.0039546257 0.19446349
-0.053858947 -1.6359476e-05 0.19703206
-0.053998407 -0.0021923489 0.20003302
-0.054608621 -0.0033118145 0.20310733
-0.054303188 -0.0040713395 0.20551869
-0.054104377 -0.0049645794 0.2068176
-0.049326863 0.027861545 0.18257919
-0.049790058 0.026016053 0.18366852
-0.050079904 0.02414057 0.18504539
-0.05033686 0.022056537 0.18667667
-0.050270744 0.019031752 0.18861513
-0.049958348 0.014133013 0.18970519
-0.050712433 0.010308863 0.19143768
-0.051848847 0.0066720918 0.19177036
-0.052904129 0.00044388394 0.19339783
-0.052005131 -0.0024371096 0.19654243
-0.051303785 -0.0039625769 0.19884251
-0.051281702 -0.0042204508 0.20161125
-0.051625367 -0.0036269058 0.20519897
-0.052540448 -0.0043915999 0.20820351
-0.053117957 -0.005811695 0.21169455
-0.052625936 -0.0080561452 0.21596336
-0.045893688 0.030612418 0.18075155
-0.046456549 0.02884238 0.18178251
-0.047111306 0.026653856 0.18315747
-0.047559433 0.024730928 0.18453202
-0.047961567 0.022427648 0.18607666
-0.048042905 0.019294906 0.18764077
-0.047842596 0.014395559 0.18869193
-0.049428958 0.0094375303 0.1896091
-0.050898869 0.0042183325 0.19019638
-0.051458985 -0.0025579107 0.19356309
-0.050683863 -0.0063026673 0.19611467
-0.04986788 -0.006586737 0.19805481
-0.048849363 -0.0043313988 0.20021413
-0.048419364 -0.003089932 0.20521009
-0.048979226 -0.0036871934 0.20876518
-0.049934365 -0.0062895245 0.2121602
-0.050678726 -0.0088083353 0.21579583
-0.051563155 -0.012406134 0.21964581
-0.043252118 0.032428127 0.18002184
-0.043895125 0.029534409 0.18172663
-0.04390604 0.027502563 0.18287586
-0.045087554 0.025378641 0.18422939
-0.045317806 0.023214437 0.1852621
-0.04527327 0.02026047 0.18637028
-0.045517527 0.015956614 0.18748794
-0.048505273 0.0087544648 0.18848942
-0.050490577 0.0018130342 0.1890132
-0.049489949 -0.0056665647 0.19300954
-0.048139296 -0.007936487 0.19545791
-0.046777721 -0.0065142675 0.19788846
-0.04596081 -0.0039390023 0.19981186
-0.045434892 -0.0027842517 0.20510973
-0.045575164 -0.0035763048 0.20925449
-0.045861863 -0.0057152361 0.2127057
-0.047544226 -0.0092514846 0.21645702
-0.049288705 -0.013654509 0.22009087
-0.049201846 -0.017320396 0.22322908
-0.048493337 -0.019980408 0.2248141
-0.03987341 0.038270757 0.17823029
-0.040083908 0.034981813 0.18001382
-0.038813774 0.032381084 0.18171908
-0.040004369 0.029946331 0.1826636
-0.040709637 0.027528498 0.18363088
-0.041906223 0.024334759 0.18469979
-0.041857485 0.021136658 0.1851916
-0.043298874 0.016409798 0.18680492
-0.047357734 0.0089666545 0.18697509
-0.04926876 0.0035844429 0.18579027
-0.046986673 -0.0067189508 0.19166812
-0.044588976 -0.007571138 0.19515719
-0.04334629 -0.0053010299 0.19784513
-0.043160327 -0.0037037183 0.19913635
-0.042675406 -0.002797795 0.20387268
-0.043048501 -0.0037421254 0.20780279
-0.044356637 -0.0062937969 0.21085356
-0.046079211 -0.0079350406 0.21393375
-0.045971137 -0.013472969 0.21842121
-0.045703758 -0.01757583 0.22189808
-0.046041682 -0.020902602 0.22449262
-0.045296792 -0.02328673 0.22535619
-0.037525304 0.040158343 0.17770487
-0.03692808 0.038371731 0.17942221
-0.036531992 0.03387602 0.1813788
-0.037054736 0.031516813 0.18272416
-0.036596399 0.029412607 0.18386586
-0.036450874 0.026011419 0.18531281
-0.037005421 0.023027439 0.18570247
-0.040862806 0.017230885 0.18656728
-0.045456793 0.010351953 0.1858239
-0.04650173 0.0059064776 0.18277141
-0.042858489 -0.0077809142 0.19085321
-0.041297037 -0.008191837 0.19445626
-0.041051675 -0.0060357973 0.1949645
-0.040460747 -0.0037876919 0.19800211
-0.040425342 -0.003489858 0.202691
-0.041133739 -0.0040689842 0.20594171
-0.04253789 -0.0062472257 0.21000271
-0.044209663 -0.008283468 0.21347795
-0.042757493 -0.013738102 0.21730417
-0.042021219 -0.018065345 0.22075881
-0.042159319 -0.020959532 0.22342402
-0.042180832 -0.023686115 0.22464471
-0.034388039 0.041171644 0.17771116
-0.033997532 0.039483551 0.17934102
-0.034109998 0.034432124 0.18205079
-0.034186661 0.031534664 0.18381542
-0.03351796 0.029810321 0.18500952
-0.033352803 0.027110027 0.18601513
-0.034377892 0.022954676 0.1863663
-0.035312012 0.019530153 0.18637
-0.042258997 0.012704082 0.18513951
-0.042034149 0.0070360689 0.18217357
-0.040869024 0.0031032606 0.18136333
-0.03863287 -0.0060418597 0.18810979
-0.037949596 -0.0050046896 0.19314125
-0.037642054 -0.003018986 0.1972775
-0.037532806 -0.0028382048 0.20265481
-0.038327105 -0.00385976 0.20663394
-0.039813153 -0.0065341177 0.2104544
-0.040998895 -0.0096202847 0.21406671
-0.039948218 -0.014548472 0.21747123
-0.038675331 -0.018620374 0.22073947
-0.039095581 -0.021634066 0.22286394
-0.038567401 -0.023500642 0.22413725
-0.031385351 0.041538056 0.17813174
-0.030873559 0.039764941 0.17986505
-0.031125288 0.03522576 0.18266903
-0.031286467 0.032319725 0.18461505
-0.030802842 0.030484969 0.18579049
-0.03115467 0.027431576 0.18688589
-0.031518348 0.023860848 0.1872272
-0.031335924 0.021242792 0.18741168
-0.035811368 0.015426207 0.18612796
-0.037190735 0.0080404421 0.18407765
-0.033566695 0.0053880778 0.18503515
-0.033371031 0.0018294929 0.18767953
-0.034307498 -0.001663349 0.19141094
-0.034333665 -0.0019484236 0.19476309
-0.034682542 -0.0033015369 0.20500498
-0.035639491 -0.0048513035 0.2079493
-0.037272725 -0.0078692529 0.21134615
-0.038086306 -0.011573268 0.21486011
-0.036129367 -0.015735807 0.21794651
-0.034983933 -0.018556604 0.22167559
-0.034739912 -0.020813251 0.22318792
-0.035277162 -0.023596114 0.22507425
-0.034738023 -0.02495758 0.22758891
-0.028060585 0.041811895 0.17882231
-0.027567612 0.040081009 0.18029447
-0.026987789 0.037059743 0.1824256
-0.028226918 0.033668052 0.18466547
-0.028097581 0.03102589 0.18653128
-0.028418411 0.027806588 0.18811087
-0.02890837 0.024724718 0.18851067
-0.029211184 0.02172368 0.18852492
-0.030485328 0.01699928 0.18811403
-0.032207366 0.010442206 0.18631615
-0.028510988 0.006564681 0.19068299
-0.028117625 0.0035480242 0.19401287
-0.027806293 0.00095094834 0.19935538
-0.028718671 -0.002810312 0.20620623
-0.030825298 -0.0048546488 0.20950715
-0.033030119 -0.0071229474 0.21148218
-0.034797244 -0.01058359 0.21435046
-0.033806939 -0.014305307 0.21821074
-0.032427415 -0.016998254 0.22058044
-0.032291003 -0.019458516 0.22289582
-0.032167654 -0.021612914 0.22444743
-0.032189775 -0.02373275 0.22629963
-0.031775709 -0.024596669 0.22857438
-0.025773197 0.042389225 0.17895554
-0.0238747 0.040493716 0.18080121
-0.02277167 0.038269464 0.18236001
-0.023345791 0.035011359 0.18489307
-0.02433794 0.031616088 0.18768412
-0.024827389 0.028816504 0.18956205
-0.02622165 0.02540734 0.1899211
-0.027226545 0.021705542 0.19003539
-0.027057303 0.018103851 0.19068378
-0.025905248 0.014682272 0.19154479
-0.024426691 0.0093985163 0.19412948
-0.024389803 0.0053042579 0.1975819
-0.024939716 0.0021578209 0.20221762
-0.026212789 -0.0023109682 0.20850772
-0.027939247 -0.0056666452 0.21252827
-0.029235112 -0.009029286 0.21551037
-0.02984347 -0.012835394 0.21894288
-0.029452972 -0.016255749 0.22200724
-0.029815299 -0.018933637 0.22345099
-0.030468779 -0.020499764 0.22425121
-0.029850747 -0.022001471 0.2248929
-0.029183647 -0.023445914 0.22660185
-0.028750511 -0.02489714 0.22896165
-0.019410379 0.040889308 0.18233402
-0.019362556 0.038234971 0.18416102
-0.018074539 0.035221469 0.18654719
-0.019063987 0.032206979 0.18877374
-0.020077227 0.029647011 0.19091813
-0.021198513 0.026665274 0.19256492
-0.024513192 0.021859773 0.19238141
-0.024614817 0.01904724 0.19273008
-0.024002744 0.016423982 0.19390668
-0.022961779 0.01262911 0.19539751
-0.021915535 0.0079217982 0.19847251
-0.022019781 0.0031405657 0.20527841
-0.023086516 -0.0020638793 0.21153134
-0.024427082 -0.0072734975 0.21718951
-0.025049273 -0.010688243 0.21968974
-0.025375037 -0.013887081 0.22263493
-0.026038742 -0.016456965 0.22391817
-0.026571389 -0.018811751 0.22508113
-0.027560199 -0.020614903 0.2257572
-0.027012357 -0.022196481 0.22518523
-0.026312012 -0.023740562 0.22623166
-0.025925698 -0.025313048 0.22910905
-0.015467641 0.038506959 0.18588533
-0.014696447 0.035696071 0.18776393
-0.015123917 0.032977253 0.18973096
-0.015562737 0.030567275 0.1917208
-0.014930462 0.027965423 0.19395381
-0.014783283 0.024597973 0.19665466
-0.021691684 0.020541359 0.19517602
-0.02163931 0.017341401 0.19676463
-0.020341728 0.01350118 0.19847274
-0.018739449 0.009026981 0.20271897
-0.018813746 0.0045637023 0.20786528
-0.019887734 -0.0012700974 0.21422084
-0.021012146 -0.0078748306 0.22045612
-0.021122096 -0.011691911 0.22287175
-0.020600272 -0.014897805 0.22522835
-0.022275567 -0.01658722 0.22541614
-0.023412978 -0.018214457 0.22654437
-0.024161529 -0.019710859 0.22655892
-0.024130274 -0.021196028 0.22594906
-0.02346869 -0.023015371 0.22691756
-0.0234873 -0.025731014 0.23034717
-0.011570849 0.036149208 0.188657
-0.011408964 0.033561688 0.19030908
-0.011328732 0.031172672 0.1921044
-0.010736912 0.028349781 0.19430859
-0.0092602763 0.024580903 0.19882874
-0.012682087 0.019914666 0.20103097
-0.016633332 0.016315855 0.20115525
-0.015672974 0.012667226 0.20297602
-0.015718643 0.0096990643 0.20582144
-0.016093947 0.006188618 0.20902856
-0.016954614 -0.00041238539 0.21610829
-0.017125821 -0.0080995886 0.22232836
-0.016089814 -0.011355459 0.22426477
-0.015444446 -0.014126294 0.22612897
-0.016223237 -0.016254686 0.22679998
-0.019323144 -0.017337171 0.2263217
-0.020807903 -0.018875284 0.22621319
-0.021187436 -0.020841671 0.2265856
-0.021223526 -0.023157144 0.22848047
-0.02084416 -0.025745502 0.2317494
-0.0086970245 0.03365678 0.19096731
-0.0074571795 0.031225326 0.19309206
-0.0061339228 0.028159564 0.19685133
-0.0058647199 0.023944939 0.20035817
-0.008006731 0.019365938 0.2033591
-0.011058006 0.01562146 0.20493115
-0.011955541 0.012676237 0.20665912
-0.012474914 0.010173633 0.2083299
-0.01318463 0.00702528 0.21046524
-0.014132344 0.0014007444 0.21596615
-0.012500755 -0.0071349381 0.22278735
-0.011393112 -0.010319559 0.22464302
-0.011199707 -0.013359097 0.22639176
-0.011628087 -0.015609052 0.22762313
-0.013661658 -0.017082226 0.2275762
-0.01601484 -0.018637015 0.22801615
-0.017531697 -0.021250192 0.22902706
-0.018539604 -0.025074186 0.23221847
-0.0027926152 0.029632377 0.19715136
-0.002639161 0.026188375 0.19957152
-0.0038322334 0.022136904 0.20187569
-0.005287393 0.019913051 0.20385002
-0.0072264029 0.015732316 0.20651153
-0.0081491955 0.012552536 0.20850994
-0.0087017948 0.0099461265 0.21048863
-0.0092048934 0.0069509894 0.21337199
-0.011288124 0.0032415562 0.21599387
-0.0081428494 -0.0060752318 0.22280976
-0.007220509 -0.0098568974 0.22508256
-0.0075070998 -0.013092601 0.22631198
-0.0082688499 -0.015687482 0.22810559
-0.009121269 -0.017769495 0.22929931
-0.011007982 -0.019884424 0.23085539
-0.014032276 -0.022094708 0.23160018
-0.016408332 -0.024471881 0.23255226
0.00015522097 0.024458144 0.20068544
-0.00082194037 0.021280343 0.20269381
-0.00051937049 0.018570317 0.20479688
-0.0025120319 0.01614728 0.20679127
-0.0036181961 0.01183802 0.20953974
-0.0034717226 0.0084972121 0.21232265
-0.0035017079 0.0056423051 0.21470919
-0.0039233346 -0.0043704445 0.22221641
-0.0035042362 -0.0096025933 0.22508414
-0.0040012528 -0.013352085 0.22646819
-0.0047737337 -0.016063033 0.22832261
-0.0059427288 -0.018268432 0.22989903
-0.0076111057 -0.020216379 0.23192655
0.0021196597 0.022847435 0.20143501
0.0017683206 0.02067722 0.20286317
0.0017010879 0.018367428 0.20462002
0.0016552709 0.015528128 0.20730413
0.0011289885 0.011257065 0.21008919
0.00087363139 0.0079080276 0.21264423
0.00083548418 0.0052996376 0.21485932
0.0002297379 0.0025774178 0.21746312
0.00016322492 -0.0020249793 0.22076242
-0.00058147049 -0.0079313098 0.22384791
-0.0013008959 -0.012947038 0.22645502
0.0038094656 0.020002587 0.20301741
0.0050515528 0.018266596 0.2048665
0.0047624898 0.014963618 0.20794336
0.0041523501 0.01124845 0.2101129
0.0039248681 0.0082091568 0.21236011
0.003719507 0.0061391806 0.21447301
0 0 0 1 0 0 0 1 0 0 0 1 0 0 0 0 0 348 1 0 0
