ply
format ascii 1.0
comment PCL generated
element vertex 348
property float x
property float y
property float z
element camera 1
property float view_px
property float view_py
property float view_pz
property float x_axisx
property float x_axisy
property float x_axisz
property float y_axisx
property float y_axisy
property float y_axisz
property float z_axisx
property float z_axisy
property float z_axisz
property float focal
property float scalex
property float scaley
property float centerx
property float centery
property int viewportx
property int viewporty
property float k1
property float k2
end_header
-0.057759684 0.023680637 0.19093592
-0.058319189 0.021027235 0.19230682
-0.0587052 0.017871033 0.19379851
-0.058948848 0.015006482 0.19534802
-0.059153922 0.012271496 0.19685766
-0.059150975 0.0097187376 0.19829075
-0.05875181 0.0071132462 0.19968635
-0.054813921 0.0252543 0.18701932
-0.055700604 0.02433118 0.18800224
-0.055505656 0.021662064 0.18939045
-0.055762965 0.018402906 0.19108452
-0.055978093 0.015083744 0.1928044
-0.056528989 0.012072328 0.19444603
-0.057145853 0.0092239464 0.1966186
-0.057200763 0.0057839928 0.1977209
-0.056249954 0.0013930659 0.19753258
-0.055851478 -0.0011401407 0.20005749
-0.0520075 0.026978882 0.18403848
-0.05248376 0.025607841 0.18528166
-0.052559402 0.023838334 0.18643697
-0.052793398 0.021897232 0.1878659
-0.052797567 0.018700313 0.18941274
-0.052749537 0.014956656 0.19139454
-0.053340159 0.011682847 0.19285989
-0.05420367 0.0084450981 0.19438837
-0.054831736 0.0039328593 0.1947818
-0.053916045 -5.1513751e-05 0.19718739
-0.054035813 -0.0022329814 0.20016885
-0.054635227 -0.0033607776 0.20322864
-0.054327834 -0.0041289185 0.2056181
-0.054136533 -0.0050974875 0.20682199
-0.049391467 0.027801637 0.18276545
-0.049867045 0.025969382 0.18389212
-0.050166175 0.024114072 0.18530153
-0.05043653 0.022045892 0.18696116
-0.050383534 0.019039376 0.18892527
-0.049999837 0.014159137 0.19005756
-0.050758563 0.010332904 0.19179279
-0.051889125 0.0066560307 0.19225429
-0.052963145 0.00041532112 0.19357745
-0.052050535 -0.0024626616 0.19669531
-0.051336825 -0.0039887708 0.19897905
-0.051304959 -0.0042527155 0.20172384
-0.051657699 -0.0036874476 0.2052709
-0.052605953 -0.004547053 0.2081801
-0.053228177 -0.0060282163 0.21164505
-0.052759487 -0.0080744782 0.21604991
-0.045940474 0.030518282 0.18090697
-0.046515204 0.028771318 0.18197344
-0.047186811 0.026608003 0.18340176
-0.047645487 0.024706276 0.18481725
-0.048062611 0.022425454 0.18639602
-0.048151866 0.019306665 0.18799749
-0.047907215 0.01441544 0.18910916
-0.049479131 0.0094149616 0.19018717
-0.05094751 0.0041857762 0.19061507
-0.051498391 -0.0025854909 0.19373043
-0.050692875 -0.0063226433 0.19626914
-0.04987555 -0.00660086 0.1981924
-0.048869718 -0.0043430338 0.20033287
-0.048456896 -0.0031329819 0.20528896
-0.049057834 -0.003793048 0.20879629
-0.050047871 -0.0062753554 0.21226177
-0.050799988 -0.0088003492 0.21590959
-0.051684201 -0.012401639 0.21975704
-0.043293871 0.032330029 0.18017054
-0.043953154 0.029460575 0.18191831
-0.043977443 0.027459987 0.18312497
-0.045179028 0.025361108 0.18454136
-0.045413565 0.02321871 0.18561777
-0.045372147 0.020279149 0.18676719
-0.045604255 0.015971927 0.18793432
-0.048560772 0.0087275188 0.18910609
-0.050542627 0.0017632337 0.18936385
-0.049494207 -0.0056887558 0.19317697
-0.04812631 -0.0079469448 0.19561216
-0.046780623 -0.0065168985 0.19804356
-0.045974575 -0.0039354032 0.19995221
-0.045478992 -0.0028028451 0.20521197
-0.045666285 -0.0036580951 0.20933102
-0.046004608 -0.0056578773 0.21283418
-0.047689278 -0.0092282491 0.21660636
-0.049406126 -0.013637404 0.22024733
-0.049297795 -0.017294634 0.22340801
-0.048578564 -0.019941585 0.22499901
-0.039933436 0.038157307 0.17829694
-0.040132023 0.03489615 0.18014683
-0.038878322 0.032332327 0.18191932
-0.040075216 0.029916691 0.18289615
-0.040795606 0.02752446 0.18392234
-0.042011376 0.024357727 0.18509971
-0.041946564 0.021171989 0.1856463
-0.043369308 0.016444402 0.1872763
-0.047412269 0.0089405384 0.18764488
-0.049296744 0.003571321 0.1862818
-0.046976924 -0.0067296741 0.19184192
-0.044572264 -0.0075680218 0.19534384
-0.043346498 -0.0052844272 0.1980263
-0.043160129 -0.0036771856 0.1993058
-0.04272246 -0.0027795979 0.20403239
-0.04313115 -0.0037655279 0.20792398
-0.044470206 -0.0062213694 0.21101978
-0.04620764 -0.0078752441 0.21407029
-0.046083663 -0.013429407 0.21860339
-0.045803074 -0.017532995 0.22209781
-0.046123184 -0.020850737 0.22468728
-0.045376364 -0.023231767 0.22554429
-0.037601817 0.040069107 0.17775862
-0.036999989 0.038288079 0.1794804
-0.036603142 0.033816811 0.18154487
-0.037132718 0.031490702 0.18295182
-0.036682885 0.029409755 0.18412937
-0.03656026 0.026037049 0.18563406
-0.03714674 0.023072587 0.18609765
-0.040990047 0.017263165 0.18704987
-0.045520555 0.010321564 0.18657485
-0.04649936 0.0059040808 0.18343997
-0.042821195 -0.0077863587 0.19112098
-0.04128683 -0.008178344 0.19474471
-0.041062497 -0.006019752 0.19526933
-0.040470362 -0.0037483738 0.19827034
-0.040448092 -0.0034400502 0.2029133
-0.041198183 -0.0040280721 0.20614417
-0.04264836 -0.0061344882 0.21022169
-0.044337194 -0.0082025006 0.21366473
-0.042860214 -0.013675364 0.21752191
-0.042113028 -0.018022571 0.22098365
-0.042236678 -0.020903759 0.22363292
-0.042257592 -0.023631366 0.22483566
-0.034471937 0.041100286 0.17776684
-0.03407459 0.039414309 0.17939624
-0.034183461 0.034375593 0.18219571
-0.03427409 0.031525847 0.18404762
-0.033609383 0.02982193 0.18527688
-0.03346413 0.027137671 0.18632515
-0.034544162 0.022987373 0.18676825
-0.035504892 0.019571174 0.18685357
-0.0423586 0.012631138 0.18597095
-0.042078864 0.0069727045 0.18302615
-0.04092415 0.0030618587 0.18217514
-0.038609691 -0.0060435804 0.18856326
-0.037950423 -0.004980064 0.19353186
-0.037657861 -0.0029660484 0.1976252
-0.037581272 -0.002745084 0.20296574
-0.038420163 -0.003748477 0.20692299
-0.039940808 -0.0063506225 0.21073505
-0.041108251 -0.0094836559 0.21432282
-0.040049873 -0.014463116 0.21772891
-0.038774956 -0.018557381 0.22098595
-0.039177749 -0.021574503 0.22308956
-0.038642306 -0.023448849 0.22433162
-0.031463534 0.041468341 0.17819172
-0.030942719 0.039699003 0.17992827
-0.031195002 0.035174262 0.18279979
-0.031376153 0.032312676 0.18483849
-0.030896029 0.030501436 0.18605046
-0.031272575 0.027455198 0.18719015
-0.03168492 0.023881627 0.18761972
-0.031541266 0.021277783 0.18786269
-0.035986029 0.015441577 0.18667126
-0.037309706 0.0080364309 0.18469889
-0.033777885 0.0053504342 0.18589941
-0.033559028 0.0018086509 0.18843536
-0.034379195 -0.0016507953 0.1919688
-0.034343477 -0.0018924407 0.19519539
-0.034782458 -0.0031451897 0.20539789
-0.035782065 -0.0046707327 0.20834018
-0.037425354 -0.0076362961 0.21170087
-0.038216751 -0.011421646 0.21516453
-0.036249921 -0.015656719 0.21820016
-0.035076201 -0.018493719 0.22190218
-0.034820754 -0.020760544 0.22338991
-0.035350781 -0.023563687 0.22524674
-0.034800094 -0.02495325 0.22775143
-0.028129337 0.041744307 0.17888404
-0.027620221 0.040019903 0.18036252
-0.027029445 0.037007116 0.18253154
-0.028305631 0.03364544 0.18485634
-0.028185252 0.031023754 0.18677384
-0.028528297 0.027819341 0.18839936
-0.029061735 0.024746886 0.18887116
-0.029408842 0.021754045 0.18895206
-0.030741602 0.017039597 0.18862888
-0.032404844 0.010462749 0.18691851
-0.028739909 0.0066348603 0.19121699
-0.028456077 0.0036513859 0.19464888
-0.02811818 0.0010920559 0.19994858
-0.028936809 -0.0026563422 0.20670228
-0.031037476 -0.0046748896 0.20997193
-0.033231962 -0.0069242585 0.2119019
-0.034971938 -0.010458592 0.2146973
-0.033954654 -0.014245356 0.21847723
-0.032532301 -0.016950339 0.22082417
-0.032369867 -0.019435978 0.22312361
-0.032235641 -0.021604748 0.2246588
-0.032246232 -0.023736274 0.22649564
-0.031819906 -0.024616506 0.22876547
-0.025835639 0.042323034 0.17901108
-0.023909099 0.040442206 0.18085943
-0.02279293 0.038235348 0.18244261
-0.023380674 0.034978855 0.18504103
-0.024404019 0.031588506 0.18790458
-0.02490391 0.028815698 0.18981549
-0.02635148 0.025422879 0.19024572
-0.027417529 0.021729128 0.19044639
-0.027291443 0.018129921 0.19113418
-0.026179282 0.014703775 0.19201702
-0.024727056 0.0094667198 0.19462986
-0.024662402 0.0054076421 0.19805773
-0.025191583 0.0022848665 0.20269559
-0.026446411 -0.0021374263 0.20897308
-0.028159909 -0.0055318275 0.21295491
-0.02942236 -0.0089764493 0.21585907
-0.030000875 -0.012834894 0.21925086
-0.029574046 -0.016283581 0.22228315
-0.029896108 -0.01895446 0.22368632
-0.030538388 -0.020512752 0.22447471
-0.029914627 -0.02201774 0.22510798
-0.029235773 -0.023469849 0.22681324
-0.028795682 -0.024929551 0.22914907
-0.019421432 0.040858306 0.18238433
-0.019362872 0.038211722 0.18423434
-0.018067252 0.035178363 0.18664292
-0.019074347 0.032163806 0.1889295
-0.020095743 0.029633353 0.19111562
-0.021239819 0.026673455 0.19280596
-0.02467804 0.021867732 0.19274622
-0.024823513 0.019057363 0.1931341
-0.024238555 0.016444026 0.19433703
-0.023238922 0.012667978 0.19587804
-0.022195391 0.0080094943 0.19895308
-0.02226717 0.0032779623 0.20574181
-0.023339741 -0.0019087668 0.21200623
-0.024649603 -0.0072464421 0.21757756
-0.025232565 -0.010706619 0.22002885
-0.02553202 -0.013918107 0.22294007
-0.026145987 -0.016494114 0.22416607
-0.026639428 -0.018849997 0.22529688
-0.02761494 -0.020647071 0.22596727
-0.027074419 -0.022220783 0.22539292
-0.026367623 -0.023763651 0.2264293
-0.025973294 -0.025351075 0.22927886
-0.015438056 0.038478944 0.1859284
-0.014668728 0.035662659 0.18782488
-0.015102697 0.032945178 0.18982314
-0.015547735 0.030552434 0.19184487
-0.014925632 0.027978195 0.19410212
-0.014797046 0.024635812 0.19684641
-0.021850206 0.020534642 0.19552539
-0.021842925 0.01735872 0.19716705
-0.02058804 0.013531676 0.19891593
-0.018966496 0.0091022691 0.2031295
-0.019027146 0.004673847 0.20828666
-0.0201254 -0.0011832417 0.21465605
-0.021224618 -0.0078981435 0.2208166
-0.021301892 -0.011742395 0.22318909
-0.020721382 -0.014971116 0.22548078
-0.022363313 -0.016643204 0.22561628
-0.02346606 -0.01825922 0.22673279
-0.024212757 -0.019750711 0.22674905
-0.024186321 -0.021227948 0.22613725
-0.023525115 -0.023045858 0.22709225
-0.023535049 -0.025784271 0.23048843
-0.011532586 0.036125746 0.18869744
-0.01138321 0.033532064 0.19036971
-0.011312429 0.031152626 0.19218665
-0.010725864 0.028345663 0.19443144
-0.0092742536 0.024595177 0.19899662
-0.012780297 0.019935854 0.20127185
-0.016815159 0.016342016 0.20148538
-0.015867617 0.012717647 0.2033155
-0.015890235 0.0097676478 0.20616515
-0.016258998 0.0062721586 0.20939098
-0.017150151 -0.00038834746 0.21649297
-0.017307557 -0.0081465626 0.22264172
-0.016219104 -0.011424302 0.22450961
-0.015534954 -0.014208529 0.22630066
-0.01631476 -0.016328085 0.22694212
-0.019402273 -0.017391754 0.22648574
-0.020892711 -0.018918177 0.22637708
-0.021261517 -0.020875575 0.226744
-0.021286281 -0.023198547 0.22862712
-0.020891819 -0.025811343 0.23186924
-0.0086628515 0.033623196 0.19101849
-0.0074321167 0.031191027 0.19316493
-0.0061187395 0.02812623 0.19697389
-0.0058830446 0.023944139 0.20050606
-0.0080677448 0.019376576 0.20351772
-0.011159397 0.015634071 0.20509373
-0.01207172 0.012696925 0.20685874
-0.012592849 0.01020945 0.2085629
-0.013308871 0.0070783426 0.21074185
-0.014284709 0.0014227697 0.21629508
-0.012646864 -0.0071790386 0.22301957
-0.011486014 -0.010379345 0.22478519
-0.011263757 -0.013434372 0.22648464
-0.011681119 -0.015684366 0.22770306
-0.013729121 -0.017151965 0.22766961
-0.016091522 -0.018694986 0.22812012
-0.017603483 -0.021302667 0.22912835
-0.01858734 -0.025143275 0.23231745
-0.0027738316 0.029587215 0.19726247
-0.002636309 0.026152594 0.19969147
-0.0038592853 0.022126202 0.20199911
-0.0053329552 0.019908469 0.20397443
-0.0072923531 0.015697988 0.20659545
-0.008221277 0.012521993 0.20858911
-0.0087719774 0.0099455211 0.21061505
-0.0092659984 0.0069798371 0.21355288
-0.011390181 0.0032734524 0.21625945
-0.0082655912 -0.0061064037 0.22296898
-0.0072847037 -0.0099078845 0.22515289
-0.0075622029 -0.013153776 0.2263639
-0.008310263 -0.015757093 0.2281532
-0.0091560036 -0.017840276 0.22934361
-0.01103521 -0.019955343 0.23090807
-0.014074292 -0.02215885 0.2316729
-0.016458439 -0.024544708 0.23263203
0.00016345487 0.024416314 0.20075642
-0.00084000709 0.021243265 0.20276448
-0.00054306112 0.018515406 0.20483947
-0.0025548798 0.016087422 0.20682517
-0.0036688729 0.01178064 0.20959425
-0.0035078237 0.0084540462 0.2124157
-0.003528981 0.0056117754 0.21482295
-0.0040255357 -0.0043819668 0.22231895
-0.0035702812 -0.0096415021 0.22512239
-0.0040555936 -0.0134016 0.22649044
-0.0048117391 -0.016122401 0.22834066
-0.0059668967 -0.018335305 0.22992434
-0.0076172291 -0.020285781 0.23195843
0.0021238558 0.022788798 0.20146421
0.0017595255 0.020612437 0.20289108
0.0016818651 0.018290361 0.20463711
0.0016303494 0.015435918 0.20730886
0.0010969776 0.011173838 0.21012349
0.00084243377 0.0078300955 0.21269512
0.00080994895 0.0052213762 0.21491565
0.00021354458 0.0025070666 0.21753308
0.00010204386 -0.0020767476 0.22083965
-0.00066154002 -0.0079512745 0.22387466
-0.0013543748 -0.012987566 0.22645742
0.0037955411 0.01992405 0.20301858
0.0050359429 0.018166143 0.2048566
0.0047377078 0.014849788 0.20792934
0.0041208048 0.011136974 0.2101083
0.0038946068 0.0080992375 0.21236829
0.0036963755 0.0060280338 0.21448611
0 0 0 1 0 0 0 1 0 0 0 1 0 0 0 0 0 348 1 0 0
