ply
format ascii 1.0
comment PCL generated
element vertex 348
property float x
property float y
property float z
element camera 1
property float view_px
property float view_py
property float view_pz
property float x_axisx
property float x_axisy
property float x_axisz
property float y_axisx
property float y_axisy
property float y_axisz
property float z_axisx
property float z_axisy
property float z_axisz
property float focal
property float scalex
property float scaley
property float centerx
property float centery
property int viewportx
property int viewporty
property float k1
property float k2
end_header
-0.055234324 0.030675733 0.18521559
-0.056067366 0.02806953 0.18667711
-0.05670806 0.024979988 0.18872295
-0.057273984 0.021629861 0.19105509
-0.058028799 0.018194316 0.19328603
-0.058303971 0.014977064 0.19475022
-0.058347389 0.011708987 0.1957559
-0.051127769 0.032489251 0.18100685
-0.052208539 0.030949479 0.18258111
-0.052632399 0.028284883 0.18413657
-0.053241357 0.025043881 0.18604989
-0.053826399 0.021484576 0.18874878
-0.054564599 0.017838249 0.19102794
-0.055366479 0.014482199 0.19284892
-0.056260794 0.011402026 0.19537699
-0.056763142 0.007396467 0.19691001
-0.056603517 0.0038488868 0.19875236
-0.047550216 0.03524626 0.1781735
-0.048202474 0.033347387 0.1791946
-0.048375018 0.030989507 0.18053323
-0.048847511 0.028347788 0.18210517
-0.049889896 0.02522804 0.18510045
-0.05034896 0.020865079 0.18876146
-0.05119637 0.01723538 0.19060451
-0.052214149 0.014444808 0.19306938
-0.053092021 0.010980618 0.19497073
-0.053808171 0.0068591344 0.1963992
-0.054124285 0.0030527341 0.1984352
-0.054690331 0.00037656777 0.20118061
-0.054742359 -0.0016363969 0.20365213
-0.054393064 -0.0023015556 0.20697713
-0.045031235 0.036281098 0.17744714
-0.045089439 0.03375572 0.17846578
-0.045320932 0.031261809 0.17999379
-0.045768455 0.028927138 0.18209511
-0.046444487 0.025844727 0.18452503
-0.047348302 0.019916974 0.18912157
-0.048358124 0.016163087 0.19132076
-0.049458187 0.013612757 0.19367513
-0.050603013 0.0095999222 0.19463949
-0.05099709 0.0054990607 0.19507058
-0.051084291 0.0022923362 0.19769932
-0.051270049 0.00026742378 0.20048721
-0.051801812 -0.0013159021 0.20438278
-0.052313004 -0.0026780607 0.20831726
-0.052467372 -0.004460515 0.21189161
-0.051869549 -0.0076434342 0.21485387
-0.041807078 0.039641287 0.17670813
-0.04227253 0.037083197 0.17763065
-0.042296104 0.034357324 0.17890956
-0.042431056 0.031877682 0.1804602
-0.043072987 0.02934199 0.18289539
-0.043550394 0.026357861 0.18510979
-0.044329785 0.020757951 0.18837877
-0.04617209 0.016163304 0.19240065
-0.047111057 0.012395563 0.19377793
-0.048028342 0.0079718819 0.19384797
-0.048254747 0.0034957938 0.19391623
-0.048353139 0.001051068 0.19631496
-0.048155718 0.00041838447 0.20054995
-0.048509873 -0.0010487138 0.2051723
-0.04888643 -0.0027062488 0.20911984
-0.049299736 -0.0056197294 0.21168207
-0.04975551 -0.0084331501 0.21444814
-0.050053675 -0.010863108 0.21920423
-0.039062928 0.040990643 0.17690691
-0.039962638 0.037696008 0.1782859
-0.039486933 0.035088554 0.17960238
-0.039794493 0.032545261 0.181209
-0.040208738 0.02997517 0.18326481
-0.040562138 0.027003534 0.18534841
-0.041303553 0.022497227 0.18793084
-0.044070724 0.015189744 0.1927297
-0.044559766 0.011163995 0.19377308
-0.044825904 0.0067708855 0.19345914
-0.044927895 0.0026173524 0.19376162
-0.044838596 0.00098159513 0.19722395
-0.044693179 0.00054598233 0.20176412
-0.045147289 -0.0008428499 0.20605956
-0.045423627 -0.0028366107 0.2102513
-0.045634337 -0.0061360989 0.21262974
-0.046229772 -0.0087651853 0.21552891
-0.047070622 -0.011507759 0.21947616
-0.047409646 -0.01507952 0.22266336
-0.047044698 -0.018486543 0.22465359
-0.035512704 0.04345068 0.17597646
-0.036048438 0.041587405 0.17748019
-0.035441138 0.038724944 0.17892997
-0.036613401 0.036028311 0.17999382
-0.037069011 0.033376299 0.18181197
-0.037468623 0.030423729 0.18397993
-0.037381902 0.027434019 0.18600267
-0.03896315 0.022260705 0.18863767
-0.041279577 0.01502264 0.19282854
-0.041350931 0.010810402 0.19396468
-0.041369472 0.0064251958 0.19379815
-0.041203596 0.0029385537 0.19516288
-0.040836491 0.0012343585 0.1990495
-0.040961798 0.0006801436 0.20303734
-0.04174725 -0.00053374754 0.20730229
-0.042182658 -0.0030149003 0.21046291
-0.042653989 -0.0061840401 0.21235576
-0.043622054 -0.0085905762 0.21506302
-0.043457512 -0.011879534 0.21801478
-0.043795884 -0.015497426 0.22090171
-0.044516288 -0.019165972 0.22399299
-0.044251107 -0.021798493 0.22567232
-0.033060122 0.04367353 0.17618221
-0.033065245 0.041930165 0.17782721
-0.033218943 0.039247815 0.17918997
-0.033596542 0.036429517 0.18035616
-0.03389607 0.033825222 0.1823864
-0.034412157 0.030882588 0.18523797
-0.03433764 0.027663939 0.18718117
-0.036257222 0.022083331 0.18944241
-0.038245346 0.015842156 0.19303508
-0.037668996 0.010940456 0.19472952
-0.037466176 0.0069141421 0.19470288
-0.036923818 0.0034417133 0.19643734
-0.036778063 0.0020974104 0.20036224
-0.0374359 0.00098603743 0.2042347
-0.038361304 -0.00055221753 0.20782444
-0.039009046 -0.0028520732 0.21044962
-0.039708484 -0.0059282598 0.21272831
-0.040569905 -0.0088632107 0.21530433
-0.040054742 -0.012294343 0.21761541
-0.040099852 -0.015825767 0.21987885
-0.040578842 -0.019406466 0.22268851
-0.040774737 -0.02235401 0.22528018
-0.030100999 0.04382091 0.17678858
-0.030158876 0.042130057 0.1779227
-0.030431218 0.039458051 0.17968754
-0.030792434 0.036451221 0.18160057
-0.030910861 0.033848558 0.18342747
-0.031250589 0.030921619 0.18610722
-0.031222736 0.027479621 0.18857136
-0.031850539 0.023592105 0.19045964
-0.034817968 0.017624402 0.19337615
-0.034325041 0.012015635 0.19568382
-0.03279046 0.0081210081 0.19763009
-0.032608029 0.0054015336 0.1999142
-0.033522155 0.0034648166 0.20239428
-0.03419245 0.001429403 0.20530495
-0.034843061 -0.00046128663 0.20853572
-0.035694141 -0.0026923884 0.21104629
-0.036369059 -0.0060145813 0.21344353
-0.037089013 -0.0089801457 0.21595113
-0.036746681 -0.012001039 0.21803254
-0.036484979 -0.015103271 0.22065377
-0.037256457 -0.019654213 0.22251099
-0.036777325 -0.022311268 0.2252824
-0.0270698 0.0439886 0.17709032
-0.027169805 0.042213749 0.17838427
-0.027370125 0.039459422 0.18002249
-0.027673675 0.036648985 0.18235502
-0.027779248 0.033856168 0.18413202
-0.028205525 0.031063281 0.18684672
-0.028332885 0.027789673 0.18939215
-0.028407551 0.024426065 0.19114451
-0.030743459 0.019021768 0.19322672
-0.030893622 0.012571718 0.19581486
-0.029214805 0.0096084774 0.19982514
-0.029306525 0.006414677 0.20232752
-0.029819308 0.0039119236 0.20410897
-0.030228823 0.0028157809 0.20533933
-0.031804275 -0.00081768923 0.20967698
-0.032203346 -0.0027064052 0.21174586
-0.033110388 -0.0058359941 0.21417162
-0.033756983 -0.0088410014 0.21675155
-0.03310458 -0.011522224 0.21908791
-0.032966599 -0.014929909 0.22253036
-0.032771941 -0.018529488 0.22435184
-0.033315837 -0.022273665 0.22667217
-0.03328944 -0.024217768 0.22977848
-0.024034562 0.044154584 0.17808896
-0.024267647 0.04240955 0.17925735
-0.024281515 0.039656594 0.18036444
-0.024451695 0.036719259 0.18240495
-0.024752624 0.034018591 0.18470213
-0.02518061 0.031244595 0.18740541
-0.025309324 0.028182039 0.19036588
-0.025614314 0.02459109 0.19244386
-0.026861191 0.020557867 0.19495855
-0.027391421 0.014354258 0.19728167
-0.025777657 0.01037627 0.20093337
-0.026115512 0.0077801952 0.2041159
-0.02636723 0.0050902641 0.20659757
-0.026884014 0.0029548835 0.20886794
-0.027709616 0.00041736633 0.21142483
-0.028888296 -0.0026474472 0.21298411
-0.029771222 -0.005594322 0.21570081
-0.029867647 -0.0084698051 0.21870281
-0.029328886 -0.011685651 0.22074746
-0.029377516 -0.015183792 0.22377162
-0.029549705 -0.01886454 0.22599694
-0.029913342 -0.022570474 0.22805975
-0.030170528 -0.024831794 0.23084332
-0.021888755 0.044574641 0.17844322
-0.021473812 0.042492162 0.1803654
-0.021144724 0.040130161 0.18162896
-0.021205567 0.037169386 0.18298866
-0.021411445 0.034289226 0.18556923
-0.02199363 0.031624828 0.18786056
-0.022373287 0.028329592 0.19111384
-0.022618826 0.024820302 0.1940061
-0.023151385 0.021253161 0.19658157
-0.023404382 0.016548347 0.19990848
-0.023107979 0.012083744 0.20256914
-0.022946026 0.0086809015 0.20496041
-0.023261307 0.0060317796 0.20758288
-0.023930818 0.003314099 0.2102886
-0.024630997 0.00052138133 0.21265288
-0.025074501 -0.0022012177 0.21468036
-0.025679927 -0.004921929 0.21764389
-0.025952434 -0.0081136776 0.22088894
-0.025872076 -0.011897 0.22193505
-0.026245678 -0.015798505 0.22517681
-0.026149694 -0.019194577 0.22700135
-0.026500789 -0.023003111 0.22874776
-0.026744464 -0.025773885 0.231755
-0.018110888 0.042589154 0.1819201
-0.018716624 0.039866544 0.18344954
-0.018150831 0.037536599 0.18476807
-0.018318607 0.034783896 0.18652409
-0.018777341 0.032000635 0.18875854
-0.01927771 0.02893912 0.19137411
-0.01939817 0.025064852 0.19552281
-0.019791923 0.02117875 0.19814675
-0.020287979 0.017358618 0.20078179
-0.020186597 0.013741521 0.20336916
-0.019993465 0.010179705 0.20594795
-0.020294024 0.0071862903 0.20893216
-0.020770242 0.0040674573 0.21182959
-0.021173663 0.0013382304 0.21441095
-0.021525241 -0.0016305628 0.21688022
-0.022045875 -0.0044945823 0.22035176
-0.022388456 -0.0079327887 0.22279938
-0.02229454 -0.011963622 0.22377895
-0.022776859 -0.016226776 0.22669575
-0.022579329 -0.019555291 0.22706604
-0.02277742 -0.023222284 0.22804932
-0.023229511 -0.026065169 0.23180701
-0.015694201 0.040710315 0.18477076
-0.015308476 0.037857398 0.18616329
-0.015525175 0.035040401 0.18759005
-0.015729474 0.032305483 0.18954664
-0.015872525 0.029149193 0.19188152
-0.016053084 0.025607591 0.19639069
-0.016839279 0.021083416 0.1997467
-0.016957141 0.017817488 0.20211886
-0.016843975 0.014527138 0.20410785
-0.016922088 0.01144903 0.20711134
-0.016872395 0.0083618565 0.20979415
-0.017222183 0.0048646424 0.21282996
-0.017567981 0.0016539458 0.21590979
-0.017852802 -0.0013418406 0.21912999
-0.018322332 -0.0043219677 0.22218142
-0.018715229 -0.007766882 0.22430672
-0.01870624 -0.011670303 0.22525816
-0.018958615 -0.015498703 0.22663032
-0.019152304 -0.018979769 0.22769529
-0.019203415 -0.022827273 0.22943918
-0.019683639 -0.026242286 0.23338833
-0.012770265 0.03796722 0.18729854
-0.012484153 0.035442654 0.1886715
-0.01262252 0.032617569 0.1906233
-0.01269993 0.029440245 0.19215675
-0.012526738 0.025933195 0.19634311
-0.012976814 0.021961652 0.20051183
-0.013665103 0.018209811 0.20382732
-0.013774182 0.015257331 0.20600578
-0.013770608 0.012300441 0.20859376
-0.013683292 0.0091398992 0.21104816
-0.013867738 0.0054521044 0.21411459
-0.014077145 0.0020229055 0.21701568
-0.014320914 -0.00098696211 0.21998838
-0.014486704 -0.0042539905 0.22301395
-0.014711378 -0.0077291555 0.2247562
-0.014970314 -0.01157998 0.22548415
-0.015183459 -0.015295338 0.22699666
-0.015427738 -0.01899728 0.22833921
-0.01593405 -0.022915173 0.23141746
-0.015755212 -0.02589613 0.23502925
-0.010056818 0.035277884 0.18941154
-0.0094645182 0.032838389 0.1912993
-0.0092324959 0.029572818 0.19346899
-0.009181167 0.026141016 0.19690786
-0.0097775646 0.022378348 0.20125122
-0.0101393 0.018879598 0.20485695
-0.010414104 0.015867285 0.20712867
-0.010435352 0.012921794 0.20931055
-0.010320188 0.0098463185 0.21129337
-0.010307912 0.0064304876 0.21466833
-0.010342992 0.0024884955 0.21746376
-0.010512209 -0.00078558549 0.2204878
-0.010662497 -0.004227594 0.22289769
-0.010829524 -0.0077599408 0.22495392
-0.010938319 -0.011398899 0.22484086
-0.011108071 -0.015322263 0.22768606
-0.011142094 -0.018653411 0.22925368
-0.011395902 -0.023625242 0.23386237
-0.0062583694 0.032140084 0.19356942
-0.0060047149 0.029378027 0.19587339
-0.0062038004 0.025677595 0.19890718
-0.0068553952 0.023256062 0.2010861
-0.0066068629 0.018901918 0.20525251
-0.006741167 0.016249072 0.20741776
-0.0067361104 0.013380381 0.20952959
-0.0063874424 0.010283249 0.21169001
-0.0067305719 0.0070200581 0.21486269
-0.0066821049 0.0029163803 0.21788812
-0.0068853186 -0.00055406737 0.221605
-0.0068698977 -0.004159057 0.22268131
-0.0069974689 -0.007641512 0.22484605
-0.0070245396 -0.011292693 0.2254103
-0.0071358276 -0.015159895 0.2277835
-0.0079805022 -0.018856414 0.22987232
-0.0091090752 -0.022018014 0.23189972
-0.0027411482 0.028871436 0.19797455
-0.0029636242 0.025495373 0.19956127
-0.0020712561 0.022108784 0.20127235
-0.00274821 0.019332791 0.2041606
-0.0026960867 0.016160566 0.20682001
-0.0026108383 0.013461476 0.20941208
-0.0024717604 0.010497491 0.21209686
-0.002911218 0.0031425022 0.21795899
-0.0030148504 -0.00050808076 0.22161551
-0.0031385992 -0.0041602268 0.22261587
-0.0032299191 -0.0077194292 0.22421743
-0.0038475664 -0.01123735 0.22519742
-0.0046218582 -0.014364939 0.2274752
2.6834721e-05 0.027876306 0.19866137
0.00012510315 0.025190884 0.19952154
0.00038333941 0.022174241 0.20085724
0.00083192682 0.019301418 0.20338005
0.001074734 0.016193869 0.20633617
0.0010964521 0.013422769 0.20917819
0.0011714449 0.010734408 0.21187195
0.00079749408 0.0078264829 0.21453494
0.00083123834 0.0039906385 0.21662235
0.00014562457 -0.00021642742 0.22014056
-0.00046999977 -0.0037063437 0.22246933
0.0026533941 0.024649709 0.1994012
0.0036569838 0.022208307 0.20025617
0.0040655411 0.019283464 0.20272328
0.0040379586 0.01641495 0.20577481
0.0039062081 0.013788935 0.20860928
0.0037906475 0.011921461 0.21088304
0 0 0 1 0 0 0 1 0 0 0 1 0 0 0 0 0 348 1 0 0
