ply
format ascii 1.0
comment PCL generated
element vertex 348
property float x
property float y
property float z
element camera 1
property float view_px
property float view_py
property float view_pz
property float x_axisx
property float x_axisy
property float x_axisz
property float y_axisx
property float y_axisy
property float y_axisz
property float z_axisx
property float z_axisy
property float z_axisz
property float focal
property float scalex
property float scaley
property float centerx
property float centery
property int viewportx
property int viewporty
property float k1
property float k2
end_header
-0.058593243 0.023418119 0.19148035
-0.058581848 0.020970242 0.19251889
-0.058979228 0.0178023 0.19402002
-0.059209209 0.01495464 0.19561937
-0.059395008 0.012228667 0.19715835
-0.059368096 0.0096754422 0.19859737
-0.058945935 0.0070577702 0.19997598
-0.055000301 0.025194343 0.18729855
-0.055885352 0.024282765 0.18829435
-0.055705164 0.021614203 0.18969646
-0.055982634 0.018337144 0.19137932
-0.056191571 0.015029863 0.19315624
-0.05672162 0.012045156 0.19483791
-0.057330962 0.009209428 0.19700514
-0.057609122 0.005657475 0.19904089
-0.056572955 0.0011859519 0.19843806
-0.056122202 -0.001305438 0.20093997
-0.052162647 0.026854016 0.18429406
-0.052663717 0.02551041 0.18559146
-0.052748229 0.023766823 0.18679786
-0.053003617 0.021851381 0.18828051
-0.052996509 0.018653164 0.18981446
-0.052913237 0.01493768 0.19188632
-0.053484667 0.011689963 0.19341946
-0.054425519 0.0084976451 0.19670078
-0.054968353 0.0038702746 0.19656897
-0.054190736 -0.00019622482 0.19813986
-0.054279927 -0.0023478477 0.20107234
-0.054884728 -0.0034472782 0.20407918
-0.054622579 -0.0041897441 0.2064018
-0.054472275 -0.0054205684 0.20742571
-0.049517237 0.02766218 0.18305944
-0.050018188 0.025846651 0.18425274
-0.050341588 0.024029097 0.18572736
-0.050649561 0.021995518 0.18745324
-0.050633986 0.019040901 0.18949221
-0.050100971 0.014185979 0.19075383
-0.050858047 0.010362135 0.19251093
-0.051862441 0.0066205827 0.19498499
-0.053115059 0.00027503655 0.19468014
-0.052240528 -0.0025531887 0.19770752
-0.051521856 -0.0040418422 0.19995582
-0.051531371 -0.0042903721 0.20258936
-0.05205521 -0.0037878358 0.20590745
-0.053157449 -0.0048621981 0.20867397
-0.053945798 -0.0063270503 0.21231808
-0.053025875 -0.00804062 0.21630555
-0.046029959 0.030338561 0.18117195
-0.046624236 0.028623648 0.18228959
-0.047334783 0.02649292 0.18381149
-0.047819454 0.02462733 0.18531102
-0.048276316 0.022397866 0.18696679
-0.048389483 0.019321436 0.18867321
-0.048048832 0.01445566 0.18995787
-0.049535986 0.009334187 0.19344787
-0.050882287 0.0039910045 0.19308104
-0.051556382 -0.002696207 0.19482444
-0.050694145 -0.0063614859 0.19732121
-0.049947821 -0.006600284 0.19915314
-0.049083304 -0.0043224799 0.20123883
-0.04891685 -0.0031151797 0.20599435
-0.049770705 -0.0037158062 0.20937255
-0.050286602 -0.0061796876 0.21253218
-0.051043391 -0.0087119685 0.21621449
-0.051925804 -0.012363699 0.22003597
-0.043379549 0.032157578 0.1804442
-0.044063855 0.029315406 0.18224841
-0.044117786 0.027363664 0.18355104
-0.045365199 0.025304841 0.18509617
-0.045617711 0.023210175 0.18627761
-0.045585986 0.020312328 0.18753958
-0.04578986 0.016011054 0.18885399
-0.048596393 0.0086018201 0.19263925
-0.05043086 0.0014740173 0.19146705
-0.049372606 -0.005751438 0.194326
-0.048017453 -0.0079357801 0.1967051
-0.046837483 -0.0064571379 0.19915238
-0.046165884 -0.0038601856 0.20101331
-0.045998357 -0.0025984119 0.20607229
-0.046496857 -0.0032284483 0.21016352
-0.046323095 -0.0054367273 0.21313398
-0.047995146 -0.0091084801 0.2169539
-0.049646899 -0.01360751 0.22059011
-0.049484733 -0.017304964 0.22373438
-0.048735917 -0.019943325 0.22530009
-0.040059738 0.037940543 0.17840044
-0.040231045 0.034745701 0.18039511
-0.03899385 0.032220908 0.18224804
-0.040206909 0.029844893 0.183283
-0.040965382 0.027501315 0.18443029
-0.042240944 0.024396755 0.18586622
-0.042141721 0.021253299 0.18656877
-0.043522079 0.016528914 0.18825205
-0.047424257 0.0088566607 0.19148806
-0.048907582 0.0033877133 0.18923655
-0.04677416 -0.0067303092 0.19305836
-0.044451535 -0.0074784802 0.19668843
-0.043415215 -0.0051396969 0.19939291
-0.043286599 -0.0035156705 0.20062783
-0.04329079 -0.0023761422 0.20527032
-0.043969952 -0.0031337545 0.20902047
-0.044737659 -0.0059722569 0.21138903
-0.046498306 -0.0076517481 0.21439618
-0.04632638 -0.013325361 0.21897653
-0.046003342 -0.017490139 0.22244774
-0.046272796 -0.020816645 0.22499055
-0.045511108 -0.023191264 0.22581826
-0.037760891 0.039907042 0.17783128
-0.037148494 0.038129266 0.17955446
-0.036726877 0.033686791 0.18179362
-0.037265934 0.031407811 0.18330926
-0.03683687 0.029376011 0.18455714
-0.036780421 0.026084028 0.18622379
-0.037450783 0.023187738 0.18687442
-0.041274216 0.017349208 0.18803626
-0.045675751 0.010185502 0.19075248
-0.046023734 0.0057823299 0.18745537
-0.04235974 -0.0077441828 0.19289193
-0.041159481 -0.0079758707 0.19667839
-0.04109988 -0.005791225 0.19727147
-0.040691949 -0.003427359 0.20014183
-0.040910549 -0.0028551344 0.20459737
-0.041971516 -0.003251754 0.20771511
-0.042926576 -0.0058135996 0.21068415
-0.044634975 -0.0079411017 0.2140626
-0.043095216 -0.013519174 0.2179286
-0.04230094 -0.017965872 0.22134762
-0.042380705 -0.020840343 0.22395332
-0.042386446 -0.0235711 0.22511473
-0.034652665 0.040986087 0.17785618
-0.034238037 0.03929548 0.17947413
-0.034311347 0.034252737 0.18240683
-0.034423444 0.031483997 0.18441162
-0.033769064 0.029823175 0.18571034
-0.033676945 0.027183972 0.18687701
-0.034895021 0.023072284 0.18754424
-0.035920788 0.019691234 0.18779783
-0.042901125 0.012445658 0.19019245
-0.042292867 0.0067292871 0.18787585
-0.041109584 0.0030172223 0.18688133
-0.038247384 -0.0058109919 0.19140449
-0.03791881 -0.004627727 0.19608749
-0.037952714 -0.0024955322 0.19996253
-0.038260363 -0.0018544563 0.20512645
-0.039470639 -0.0024560369 0.20899829
-0.040266074 -0.0058916123 0.21132083
-0.041389689 -0.0091340141 0.21483277
-0.040275767 -0.014321251 0.21814036
-0.038964953 -0.01848634 0.22135766
-0.039323125 -0.021498485 0.2234413
-0.038769715 -0.023376433 0.22462817
-0.031632453 0.041368343 0.17830293
-0.031090474 0.039598756 0.1800382
-0.031324435 0.035075244 0.18300036
-0.031533178 0.032285001 0.18519814
-0.031054735 0.030519158 0.18648389
-0.031490874 0.027489191 0.18772282
-0.032024909 0.023927229 0.18836331
-0.031970982 0.021363828 0.18872115
-0.036377329 0.015499312 0.18773271
-0.037605293 0.0080491966 0.18600029
-0.035234056 0.0057012886 0.19073369
-0.034772936 0.0022082867 0.19269882
-0.034838714 -0.0012719174 0.19531211
-0.034611221 -0.001395377 0.19809887
-0.035826914 -0.0017146021 0.20810874
-0.037182115 -0.0027577232 0.21112572
-0.037799884 -0.0070772278 0.21243128
-0.038522318 -0.011088065 0.21572211
-0.03649215 -0.015568047 0.21856464
-0.035244763 -0.018411567 0.22221909
-0.034964804 -0.020684134 0.22367626
-0.035473291 -0.023509478 0.22550522
-0.034894407 -0.024926135 0.22800723
-0.028277634 0.041658454 0.17902003
-0.027734293 0.0399451 0.18051645
-0.027119942 0.036944188 0.18276006
-0.028438959 0.033592578 0.1851714
-0.028333865 0.030999813 0.18717673
-0.028726401 0.027821744 0.18889257
-0.029359017 0.02477592 0.18952063
-0.029813051 0.021813715 0.18974392
-0.031298533 0.017144041 0.1896203
-0.032868728 0.010537161 0.18815371
-0.029261142 0.0068171471 0.192331
-0.03042548 0.0044136373 0.198364
-0.030197512 0.0021832082 0.20348705
-0.030561756 -0.0011743251 0.20987704
-0.032697115 -0.0028534085 0.21316884
-0.033694226 -0.0064324383 0.2127831
-0.03535172 -0.010173853 0.21536371
-0.034252863 -0.014145281 0.218909
-0.03273375 -0.016883193 0.22117843
-0.032508351 -0.019406429 0.22345208
-0.032345612 -0.021593098 0.22497317
-0.032326534 -0.02373502 0.22679949
-0.031868126 -0.024629956 0.22906843
-0.025969898 0.04224728 0.17915531
-0.023988087 0.040400255 0.18103632
-0.022851858 0.038233247 0.18267427
-0.023456978 0.034940548 0.18534257
-0.024516499 0.031515665 0.18827739
-0.025032261 0.028788587 0.19024469
-0.026594324 0.02542579 0.19080973
-0.027801413 0.021762883 0.19119368
-0.027790457 0.018180592 0.19199088
-0.026787316 0.014751796 0.19295619
-0.025392823 0.0096281953 0.19564635
-0.025257669 0.0056471154 0.19901609
-0.025739269 0.0025791223 0.20365575
-0.026940126 -0.0017394742 0.20990157
-0.0286188 -0.0052223965 0.21380238
-0.029807592 -0.0088372324 0.21653205
-0.030307183 -0.012812783 0.21981375
-0.029801451 -0.0163149 0.2227499
-0.030026603 -0.018987983 0.22404012
-0.030648086 -0.020535387 0.2248058
-0.030007482 -0.022044068 0.22542915
-0.029298274 -0.023499595 0.22713396
-0.028848568 -0.024966704 0.22944523
-0.019462872 0.040861309 0.18256018
-0.019388663 0.038224645 0.18443903
-0.018068692 0.035135388 0.18684171
-0.019095365 0.032101501 0.18920985
-0.020122137 0.029606087 0.19145797
-0.021295942 0.02667447 0.1932091
-0.02499911 0.021852555 0.1933905
-0.025249572 0.019061081 0.19388539
-0.024731647 0.016477788 0.19516252
-0.023832468 0.012755537 0.19682819
-0.02279849 0.00820792 0.19991158
-0.022771852 0.0035637603 0.2066382
-0.023823049 -0.0016069786 0.21290058
-0.025046267 -0.0072193579 0.21824737
-0.0255637 -0.010748218 0.22061808
-0.025825331 -0.013961982 0.22346994
-0.026340155 -0.016545212 0.22455777
-0.026742512 -0.018906649 0.22560667
-0.027686264 -0.020694852 0.22626744
-0.027164973 -0.022254093 0.22569542
-0.026440108 -0.023790626 0.22672595
-0.026038609 -0.025396135 0.22954875
-0.015387579 0.038461208 0.18602173
-0.014613501 0.0356302 0.18793066
-0.01505368 0.032912862 0.18997857
-0.015501668 0.030547602 0.19204871
-0.014888768 0.02802413 0.19434157
-0.014787046 0.024715813 0.19715036
-0.022128783 0.020482033 0.19611567
-0.022217089 0.017380111 0.19789001
-0.021068616 0.013592229 0.19974171
-0.019429216 0.0092563527 0.20389551
-0.019433638 0.0048656883 0.20904879
-0.020527553 -0.0010742552 0.21540178
-0.021569978 -0.007986431 0.22138043
-0.021611074 -0.011849693 0.22370878
-0.020933691 -0.015091003 0.22589211
-0.02250712 -0.016726207 0.22590272
-0.023533477 -0.018322399 0.22697364
-0.024274969 -0.019805111 0.22699545
-0.024260957 -0.021269856 0.22638926
-0.02360341 -0.023082551 0.22733834
-0.023613449 -0.025852492 0.23070954
-0.011451036 0.036106769 0.18875478
-0.01132097 0.033512291 0.19046901
-0.011261071 0.031157039 0.1923265
-0.010673439 0.028384708 0.19464888
-0.009267997 0.024648687 0.19927977
-0.012919215 0.019939873 0.20162375
-0.017133806 0.016365347 0.20203896
-0.016250543 0.01279691 0.20391576
-0.016222943 0.009870843 0.206762
-0.016563151 0.0063882144 0.21000354
-0.017449975 -0.00042799462 0.21709104
-0.017600771 -0.0082785664 0.22311597
-0.016443362 -0.01155389 0.22491066
-0.015693611 -0.014350633 0.22658081
-0.016469894 -0.016450627 0.22716479
-0.019523472 -0.017475968 0.22671776
-0.021017687 -0.018977569 0.22658683
-0.021369977 -0.020917263 0.22694071
-0.021388872 -0.02324965 0.22883055
-0.020987101 -0.025895866 0.23205151
-0.0085831275 0.033601459 0.19110636
-0.0073595671 0.031185269 0.19331105
-0.0060625165 0.028114071 0.19721165
-0.0058890032 0.023969548 0.20077729
-0.0081633674 0.019355005 0.20373358
-0.011348659 0.015601135 0.20529437
-0.012294544 0.012673398 0.20713453
-0.012809839 0.010210046 0.2088984
-0.013528649 0.0071169161 0.21115665
-0.014521425 0.0013819652 0.216787
-0.012893619 -0.0072946246 0.22337748
-0.011651197 -0.010497724 0.22501804
-0.011380052 -0.0135678 0.22664191
-0.01177664 -0.015816359 0.22784233
-0.013845692 -0.017270785 0.22782294
-0.016222706 -0.018786719 0.22827704
-0.017734008 -0.021377621 0.22926587
-0.01870513 -0.025231294 0.23247059
-0.0026974438 0.029533599 0.19747566
-0.0025907776 0.02611264 0.19993304
-0.0038826778 0.022117348 0.20224728
-0.0054050004 0.019863326 0.2041685
-0.0074150963 0.015559065 0.20664173
-0.0083653098 0.012395662 0.20862967
-0.0089114774 0.0098878248 0.21075419
-0.0093884896 0.0069888714 0.21380156
-0.011558326 0.0032644966 0.21664542
-0.0084833493 -0.0061821793 0.22323376
-0.0074063474 -0.0099989371 0.22528535
-0.0076629729 -0.013260242 0.22647546
-0.008386069 -0.015876785 0.22826184
-0.0092251282 -0.017963426 0.22944671
-0.011099678 -0.020077778 0.23101887
-0.014174754 -0.022257188 0.23180059
-0.016589981 -0.024643023 0.23275891
0.00022544342 0.024352707 0.20093259
-0.00085114583 0.021174273 0.20293188
-0.00057617004 0.01837438 0.20490187
-0.0026338692 0.015899802 0.20680867
-0.003773957 0.011615759 0.20963645
-0.0035925384 0.0083380677 0.21255924
-0.0035988113 0.0055216616 0.21501763
-0.0042180121 -0.0044074575 0.22252032
-0.00369586 -0.0097024925 0.22522728
-0.004155389 -0.013481528 0.22657934
-0.0048856363 -0.016221384 0.22842558
-0.0060207909 -0.018449012 0.23001766
-0.0076504559 -0.020409487 0.23205903
0.0021747905 0.022694739 0.20158429
0.0017707847 0.020483857 0.20298332
0.0016619411 0.018111365 0.2046628
0.0015880778 0.01519985 0.20727412
0.0010283884 0.010961592 0.21016431
0.00076802808 0.0076379529 0.21278544
0.00074284471 0.005032124 0.21502551
0.00015801111 0.0023353558 0.21767113
-2.9943125e-05 -0.0021982905 0.22100347
-0.00081339601 -0.0079771187 0.22397116
-0.0014526972 -0.013046038 0.22653009
0.003799693 0.019763678 0.20305862
0.0050249863 0.017941566 0.20484614
0.0046934513 0.014574951 0.20787615
0.0040541249 0.010869644 0.21008733
0.0038228622 0.0078430781 0.21238656
0.0036341599 0.0057731951 0.21452293
0 0 0 1 0 0 0 1 0 0 0 1 0 0 0 0 0 348 1 0 0
