ply
format ascii 1.0
comment PCL generated
element vertex 348
property float x
property float y
property float z
element camera 1
property float view_px
property float view_py
property float view_pz
property float x_axisx
property float x_axisy
property float x_axisz
property float y_axisx
property float y_axisy
property float y_axisz
property float z_axisx
property float z_axisy
property float z_axisz
property float focal
property float scalex
property float scaley
property float centerx
property float centery
property int viewportx
property int viewporty
property float k1
property float k2
end_header
-0.058593243 0.023418119 0.19148035
-0.05849757 0.020985847 0.19243808
-0.058891654 0.017821584 0.19393553
-0.059125952 0.014968468 0.19551975
-0.059317689 0.012239847 0.197051
-0.059298515 0.0096870475 0.19848993
-0.058884386 0.0070735132 0.19987556
-0.054939311 0.025210371 0.18719435
-0.055825628 0.024295349 0.18818817
-0.055641029 0.021626789 0.18958573
-0.055912096 0.018355099 0.19127186
-0.056122705 0.015043481 0.19303057
-0.056658812 0.012050305 0.19470166
-0.057270162 0.009211326 0.19687305
-0.057609122 0.005657475 0.19904089
-0.056572955 0.0011859519 0.19843806
-0.056122202 -0.001305438 0.20093997
-0.052109279 0.026891857 0.18419485
-0.052603822 0.025538463 0.18547465
-0.052685957 0.023786221 0.18666475
-0.052935719 0.021862732 0.18813182
-0.052932717 0.018665127 0.18967275
-0.052860335 0.014938842 0.19171605
-0.053436205 0.011682848 0.19323047
-0.054425519 0.0084976451 0.19670078
-0.054968353 0.0038702746 0.19656897
-0.054190736 -0.00019622482 0.19813986
-0.054279927 -0.0023478477 0.20107234
-0.054884728 -0.0034472782 0.20407918
-0.054622579 -0.0041897441 0.2064018
-0.054472275 -0.0054205684 0.20742571
-0.049473684 0.027705895 0.18294917
-0.049966376 0.025883572 0.18411963
-0.050282735 0.024053127 0.18557291
-0.050579943 0.022008458 0.18727812
-0.050553851 0.019038377 0.1892949
-0.05006738 0.014171167 0.19051987
-0.050822504 0.010347873 0.19227377
-0.051862441 0.0066205827 0.19498499
-0.053115059 0.00027503655 0.19468014
-0.052240528 -0.0025531887 0.19770752
-0.051521856 -0.0040418422 0.19995582
-0.051531371 -0.0042903721 0.20258936
-0.05205521 -0.0037878358 0.20590745
-0.053157449 -0.0048621981 0.20867397
-0.053945798 -0.0063270503 0.21231808
-0.052935917 -0.0080443602 0.21622983
-0.045998227 0.030399706 0.18107603
-0.04658537 0.028672127 0.18217391
-0.047283866 0.026528226 0.18366335
-0.047760937 0.024649711 0.18513569
-0.048206184 0.022404006 0.18676709
-0.048312817 0.019315224 0.18844229
-0.048001673 0.014440549 0.18967631
-0.049535986 0.009334187 0.19344787
-0.050882287 0.0039910045 0.19308104
-0.051556382 -0.002696207 0.19482444
-0.050694145 -0.0063614859 0.19732121
-0.049947821 -0.006600284 0.19915314
-0.049083304 -0.0043224799 0.20123883
-0.04891685 -0.0031151797 0.20599435
-0.049770705 -0.0037158062 0.20937255
-0.050207734 -0.0062040747 0.21244974
-0.05096155 -0.0087336861 0.21612126
-0.051843926 -0.012374105 0.21994872
-0.043350216 0.032218751 0.18034901
-0.044025056 0.029364223 0.18213014
-0.044069692 0.027394403 0.18339859
-0.045302648 0.025321025 0.18490189
-0.045550741 0.023210926 0.18605097
-0.045516495 0.020300711 0.18727931
-0.045728646 0.015998095 0.18855101
-0.048596393 0.0086018201 0.19263925
-0.05043086 0.0014740173 0.19146705
-0.049372606 -0.005751438 0.194326
-0.048017453 -0.0079357801 0.1967051
-0.046837483 -0.0064571379 0.19915238
-0.046165884 -0.0038601856 0.20101331
-0.045998357 -0.0025984119 0.20607229
-0.046496857 -0.0032284483 0.21016352
-0.046220548 -0.0054975124 0.213038
-0.047894459 -0.0091395583 0.21684231
-0.049566008 -0.013619273 0.22047752
-0.049420424 -0.017311687 0.22361739
-0.048680387 -0.019955643 0.22518563
-0.040017422 0.038013127 0.17836015
-0.040197447 0.034798808 0.18030922
-0.038952794 0.032256171 0.18212789
-0.040161051 0.029867258 0.18314283
-0.04090802 0.027507253 0.1842507
-0.042166509 0.024383133 0.18560725
-0.042078368 0.021227829 0.18626402
-0.043471325 0.016501835 0.18793149
-0.047424257 0.0088566607 0.19148806
-0.048907582 0.0033877133 0.18923655
-0.04677416 -0.0067303092 0.19305836
-0.044451535 -0.0074784802 0.19668843
-0.043415215 -0.0051396969 0.19939291
-0.043286599 -0.0035156705 0.20062783
-0.04329079 -0.0023761422 0.20527032
-0.043969952 -0.0031337545 0.20902047
-0.044653501 -0.0060428549 0.21126868
-0.046405446 -0.0077134273 0.21429293
-0.046246741 -0.01335835 0.21885087
-0.045935549 -0.017511653 0.22232041
-0.046219826 -0.020839596 0.22487265
-0.045461483 -0.023216439 0.22570777
-0.037707664 0.039961997 0.1778007
-0.037098765 0.038181946 0.17952232
-0.036682289 0.033727888 0.18169804
-0.037217867 0.031430982 0.18317588
-0.03678273 0.029383225 0.18440031
-0.036707297 0.026067657 0.18601942
-0.03735254 0.023152759 0.18661271
-0.041182768 0.017322352 0.18770982
-0.045675751 0.010185502 0.19075248
-0.046023734 0.0057823299 0.18745537
-0.04235974 -0.0077441828 0.19289193
-0.041159481 -0.0079758707 0.19667839
-0.04109988 -0.005791225 0.19727147
-0.040691949 -0.003427359 0.20014183
-0.040910549 -0.0028551344 0.20459737
-0.041971516 -0.003251754 0.20771511
-0.042841434 -0.0059097069 0.21053076
-0.044541247 -0.0080154771 0.21393146
-0.043020148 -0.013567122 0.21778664
-0.042237531 -0.017989662 0.2212099
-0.042330004 -0.020870099 0.22382776
-0.04233874 -0.023599979 0.22500263
-0.034593258 0.041027017 0.17782266
-0.03418405 0.039336514 0.17944272
-0.034265209 0.03429145 0.18232419
-0.034369629 0.031494305 0.18427578
-0.033712354 0.029819459 0.18555146
-0.033604741 0.027166998 0.18668348
-0.034781139 0.023046395 0.18728094
-0.035787024 0.019656125 0.18747926
-0.042901125 0.012445658 0.19019245
-0.042292867 0.0067292871 0.18787585
-0.041109584 0.0030172223 0.18688133
-0.038247384 -0.0058109919 0.19140449
-0.03791881 -0.004627727 0.19608749
-0.037952714 -0.0024955322 0.19996253
-0.038260363 -0.0018544563 0.20512645
-0.039470639 -0.0024560369 0.20899829
-0.04016703 -0.0060343421 0.21112607
-0.04130419 -0.0092407819 0.21466108
-0.040202327 -0.0143731 0.21798523
-0.03889871 -0.018518418 0.2212119
-0.039270584 -0.021531023 0.22330533
-0.03872278 -0.023406059 0.22451229
-0.031576965 0.041406263 0.17826441
-0.031041689 0.039635535 0.17999868
-0.031278841 0.035107773 0.18292353
-0.031477068 0.032292046 0.18506588
-0.030997757 0.030511063 0.18632793
-0.031415936 0.027475901 0.18753567
-0.031913418 0.023912249 0.18811011
-0.031831756 0.021337016 0.18842931
-0.036252484 0.015482628 0.18737528
-0.037512496 0.0080452599 0.18557641
-0.035234056 0.0057012886 0.19073369
-0.034772936 0.0022082867 0.19269882
-0.034838714 -0.0012719174 0.19531211
-0.034611221 -0.001395377 0.19809887
-0.035826914 -0.0017146021 0.20810874
-0.037182115 -0.0027577232 0.21112572
-0.03768361 -0.0072528152 0.21218771
-0.038425282 -0.011196371 0.21552601
-0.036409494 -0.015608091 0.21841854
-0.035184897 -0.018445428 0.22208992
-0.034913063 -0.020714203 0.22355995
-0.035427641 -0.023529347 0.22540301
-0.03485737 -0.024932468 0.22790834
-0.028228782 0.041693337 0.17897649
-0.027696544 0.039976042 0.18046729
-0.02708959 0.036970496 0.18268535
-0.028390355 0.033608429 0.18505687
-0.028280113 0.031004589 0.18703131
-0.028657349 0.027817221 0.18871711
-0.029259477 0.024763519 0.18929511
-0.029681029 0.021793 0.18947195
-0.031121051 0.017112043 0.18928465
-0.0327227 0.010515388 0.18774614
-0.02909491 0.0067617521 0.19196516
-0.03042548 0.0044136373 0.198364
-0.030197512 0.0021832082 0.20348705
-0.030561756 -0.0011743251 0.20987704
-0.032697115 -0.0028534085 0.21316884
-0.033546049 -0.0065844133 0.21249069
-0.035226438 -0.010265645 0.21513282
-0.034151606 -0.014181871 0.21874605
-0.03266364 -0.016909685 0.221037
-0.032457944 -0.01941845 0.22332007
-0.032303717 -0.021597762 0.22484851
-0.032293692 -0.023734441 0.22668131
-0.031845044 -0.024621911 0.22895192
-0.025925545 0.042280074 0.17911205
-0.023962345 0.040422596 0.18098558
-0.02283353 0.038243126 0.18260595
-0.023431536 0.034956817 0.18524243
-0.024475532 0.031536683 0.18814309
-0.024985235 0.028793031 0.19009003
-0.026511358 0.025419794 0.19060995
-0.02767515 0.02174877 0.1909347
-0.027629795 0.018162603 0.19169883
-0.02659319 0.014735896 0.1926408
-0.025178662 0.0095779747 0.19530742
-0.025064562 0.0055722208 0.19869535
-0.025560947 0.0024867037 0.20333348
-0.026777441 -0.0018649114 0.20958775
-0.028466444 -0.0053197504 0.21351452
-0.029677851 -0.0088798963 0.21629851
-0.030201314 -0.012817707 0.21961318
-0.029721998 -0.016299736 0.22257856
-0.029977016 -0.018974874 0.2239013
-0.030605691 -0.020527091 0.22467448
-0.029969795 -0.022034267 0.22530216
-0.029269893 -0.023487065 0.22700818
-0.028824193 -0.024950517 0.22933118
-0.019451179 0.040870011 0.18251269
-0.01938303 0.038229451 0.18437944
-0.018070316 0.035157379 0.18677737
-0.019088218 0.032126475 0.18911171
-0.020110924 0.029614907 0.19133498
-0.021272169 0.026670741 0.19306125
-0.024891367 0.021851953 0.19316299
-0.025108883 0.019056771 0.19362544
-0.024569428 0.016465222 0.19488004
-0.023638345 0.01272772 0.19650699
-0.022601701 0.008145324 0.19958912
-0.022603385 0.0034702721 0.20633222
-0.023657326 -0.0017083376 0.21259078
-0.024905801 -0.0072313552 0.21800521
-0.025446732 -0.010734175 0.22040553
-0.025723616 -0.013943086 0.22327922
-0.026271248 -0.016523486 0.22440964
-0.026701858 -0.018884161 0.2254827
-0.027655425 -0.020676212 0.22614646
-0.027128065 -0.02224035 0.22557454
-0.026408669 -0.023778673 0.22660913
-0.026011135 -0.02537673 0.22944506
-0.015405594 0.038474385 0.18599391
-0.014631775 0.035647731 0.18789476
-0.015068701 0.032929517 0.18992318
-0.015514069 0.030553374 0.19197394
-0.014896198 0.028011812 0.19425216
-0.014783763 0.024689496 0.19703561
-0.022029486 0.020493766 0.19590108
-0.022085978 0.017371217 0.19763453
-0.020904418 0.013572242 0.19945496
-0.019274212 0.0092062298 0.20363039
-0.019293992 0.0047981897 0.20878081
-0.020382019 -0.001119711 0.21513185
-0.021442113 -0.0079618637 0.2211671
-0.021499367 -0.011813491 0.2235169
-0.020857129 -0.015046557 0.2257389
-0.022453262 -0.016693469 0.22578833
-0.023504088 -0.018297043 0.22687128
-0.024246939 -0.019782793 0.22689134
-0.024229042 -0.02125231 0.22628441
-0.02357081 -0.023066668 0.22723845
-0.023583449 -0.025824212 0.23062372
-0.011477436 0.03611904 0.18873461
-0.011340001 0.033526074 0.19043377
-0.011275062 0.031163013 0.19227631
-0.010685877 0.028379137 0.19457147
-0.0092648501 0.024636002 0.19917789
-0.012863653 0.019934719 0.2014876
-0.017019514 0.016354701 0.20183775
-0.016120264 0.01276861 0.20370319
-0.016108939 0.0098325424 0.20654851
-0.016456787 0.0063428963 0.20978132
-0.017335739 -0.00042753579 0.21686366
-0.017491238 -0.0082396297 0.22293302
-0.016361894 -0.011509731 0.22476088
-0.015635911 -0.014300812 0.22647396
-0.016412782 -0.016407168 0.22707693
-0.019476222 -0.017444707 0.22662278
-0.020968355 -0.018954158 0.22649686
-0.021326911 -0.020899754 0.2268551
-0.021349968 -0.023228049 0.22874704
-0.020953786 -0.025860758 0.23197946
-0.0086079296 0.033616886 0.19107613
-0.007380228 0.031197358 0.19326255
-0.0060775029 0.028127201 0.19713162
-0.0058825938 0.023967298 0.2006845
-0.0081269117 0.019357651 0.2036474
-0.011282516 0.015605128 0.20520861
-0.012217647 0.012673202 0.20702331
-0.012733637 0.010200656 0.20876603
-0.01345015 0.0070952647 0.21099652
-0.014431487 0.001383262 0.21659623
-0.012803382 -0.0072605507 0.22323895
-0.011591913 -0.010458721 0.22492878
-0.011338353 -0.013521636 0.22658068
-0.011741934 -0.015770473 0.22778782
-0.013802809 -0.017229201 0.22776175
-0.016174281 -0.018753596 0.22821243
-0.017687188 -0.021348817 0.22920667
-0.018667243 -0.025194459 0.23240998
-0.0027176084 0.029558791 0.19740476
-0.0026003842 0.026132911 0.1998544
-0.003869981 0.022124713 0.20216639
-0.0053773993 0.019875182 0.20409681
-0.0073720482 0.015595785 0.20660734
-0.0083166715 0.01242891 0.20859681
-0.00886425 0.0098995762 0.21068905
-0.009346975 0.0069794711 0.21369998
-0.011496042 0.0032572316 0.21649337
-0.0084057404 -0.0061591361 0.2231341
-0.0073640044 -0.0099669425 0.2252364
-0.0076270131 -0.013222442 0.22643536
-0.0083587645 -0.015834179 0.22822303
-0.0092007723 -0.017919848 0.22940966
-0.011078087 -0.020034375 0.23097773
-0.014141749 -0.02222026 0.23175083
-0.016548699 -0.024603168 0.23270844
0.00021136054 0.024378933 0.20087971
-0.0008433839 0.021200247 0.20288062
-0.00056256726 0.018418347 0.20487754
-0.0026060727 0.015953394 0.20680091
-0.0037390324 0.011663551 0.20960972
-0.0035656458 0.0083727865 0.21250252
-0.0035772473 0.0055480981 0.21494564
-0.0041515226 -0.0043987394 0.22245003
-0.0036523486 -0.0096788388 0.22519356
-0.0041199303 -0.013451292 0.22655272
-0.0048597488 -0.016184833 0.22840044
-0.0060025514 -0.018407553 0.22998852
-0.0076412135 -0.020365376 0.23202668
0.0021641168 0.022731004 0.201553
0.001771522 0.020528281 0.20295729
0.001671616 0.018168358 0.20465179
0.0016035215 0.015271423 0.207277
0.0010510861 0.011025987 0.21014388
0.00079156639 0.0076973629 0.21275131
0.00076335837 0.0050913822 0.21498671
0.00017359351 0.0023890887 0.21762323
1.3096394e-05 -0.0021592253 0.22094893
-0.0007609349 -0.0079650851 0.22394319
-0.0014178811 -0.013021835 0.22651301
0.0038031503 0.019817479 0.2030492
0.0050318474 0.018013125 0.20484832
0.0047093262 0.014659609 0.20788714
0.0040763305 0.010952596 0.21008995
0.003845633 0.0079238852 0.21237859
0.0036530318 0.0058544604 0.21451066
0 0 0 1 0 0 0 1 0 0 0 1 0 0 0 0 0 348 1 0 0
