ply
format ascii 1.0
comment PCL generated
element vertex 348
property float x
property float y
property float z
element camera 1
property float view_px
property float view_py
property float view_pz
property float x_axisx
property float x_axisy
property float x_axisz
property float y_axisx
property float y_axisy
property float y_axisz
property float z_axisx
property float z_axisy
property float z_axisz
property float focal
property float scalex
property float scaley
property float centerx
property float centery
property int viewportx
property int viewporty
property float k1
property float k2
end_header
-0.055627767 0.028615316 0.18459389
-0.056508411 0.026188584 0.18627337
-0.056910049 0.022980895 0.1884189
-0.057324696 0.019579614 0.19062768
-0.057951245 0.016103683 0.1926342
-0.058258612 0.012883229 0.19395544
-0.058132824 0.0098127397 0.19501276
-0.051765494 0.031038895 0.18096146
-0.052902859 0.029337224 0.18207513
-0.053161882 0.026488341 0.18340731
-0.0536419 0.023202013 0.18549456
-0.05399159 0.019476721 0.18816587
-0.054694198 0.01577034 0.19031927
-0.055477407 0.012276681 0.19205073
-0.055922177 0.0090042735 0.1943098
-0.055653755 0.0054060258 0.19618957
-0.055568673 0.0019432817 0.19807667
-0.048157316 0.034445997 0.17877798
-0.048810728 0.032362651 0.17945984
-0.048915345 0.029706378 0.18025008
-0.049402997 0.026846729 0.18133342
-0.050316148 0.023393502 0.18420599
-0.050587427 0.018627271 0.18775882
-0.051413342 0.014847 0.1894349
-0.052161634 0.011580463 0.19137132
-0.05242091 0.00825682 0.1938141
-0.05289286 0.0044386354 0.19562729
-0.053411376 0.00084032415 0.19735041
-0.053907465 -0.0014476554 0.20018345
-0.053812381 -0.0030781964 0.20268244
-0.05349021 -0.0039567291 0.2051806
-0.045621086 0.035618633 0.17814584
-0.045721818 0.032927133 0.17870294
-0.045884289 0.030169569 0.17971215
-0.046212576 0.027460845 0.18123914
-0.046791885 0.024004346 0.18321384
-0.047653258 0.017289305 0.18746704
-0.048614759 0.01330422 0.18955748
-0.049342133 0.01013613 0.19131824
-0.049877875 0.006307221 0.19334036
-0.050634962 0.0024836755 0.19386947
-0.050705183 -0.00051232381 0.19614838
-0.050739203 -0.0020123825 0.19888908
-0.050815184 -0.0029891385 0.2027671
-0.051540811 -0.0046010721 0.20610921
-0.052014157 -0.0066379854 0.20951191
-0.05160759 -0.0095250038 0.21301964
-0.042277742 0.039080441 0.17763183
-0.042789564 0.036416471 0.17837082
-0.042884979 0.033515818 0.17912236
-0.042990964 0.030746825 0.18014595
-0.04344083 0.027759619 0.18181804
-0.043798268 0.02440141 0.18352421
-0.044726644 0.018005215 0.18612839
-0.046605885 0.012277019 0.18913221
-0.047194514 0.008379057 0.19084674
-0.047962293 0.0039725187 0.19215968
-0.048761517 -0.00049699738 0.19209404
-0.048713632 -0.002304879 0.1940565
-0.047680452 -0.00212231 0.19818737
-0.047484629 -0.0032594847 0.20282003
-0.047927365 -0.0049956744 0.2064535
-0.048868556 -0.0076311021 0.20968732
-0.049569175 -0.010430559 0.21253927
-0.050266203 -0.012375172 0.21769609
-0.039444406 0.040383425 0.17736381
-0.040392853 0.036973406 0.17890951
-0.040029623 0.034164399 0.17983861
-0.040242862 0.031286519 0.18071075
-0.040499449 0.028335787 0.18211102
-0.0407065 0.025051208 0.18358892
-0.041528899 0.020005966 0.18552037
-0.044818155 0.011176876 0.18880373
-0.045147918 0.0068658418 0.1900097
-0.045613628 0.0020060728 0.19024353
-0.046001151 -0.0020089524 0.1905092
-0.045155063 -0.0028977173 0.1937958
-0.044076059 -0.0024846522 0.19852245
-0.044131655 -0.0036237021 0.20303237
-0.044509176 -0.0056447792 0.20712838
-0.045125898 -0.008437369 0.21024971
-0.046197381 -0.010904171 0.21338563
-0.047407757 -0.012605364 0.21847144
-0.047684614 -0.015426994 0.2225029
-0.047176939 -0.018289505 0.22513397
-0.035880752 0.042844947 0.17597173
-0.036318235 0.04097889 0.17752655
-0.03559462 0.038072359 0.17886889
-0.036758907 0.03523276 0.17987779
-0.037124246 0.032163948 0.18105738
-0.037563745 0.028740026 0.18271065
-0.037332766 0.025478335 0.18413587
-0.039174095 0.019739483 0.18602698
-0.042378575 0.010923117 0.18837726
-0.042371679 0.0066043739 0.18920381
-0.042396311 0.0015538443 0.18875642
-0.041965138 -0.0018506747 0.19051073
-0.040743537 -0.0026506977 0.19456628
-0.04024623 -0.0029017257 0.19894367
-0.040678512 -0.004118368 0.20335414
-0.041304108 -0.0067805224 0.20640597
-0.042421035 -0.0091254683 0.20916176
-0.044034824 -0.010882942 0.21216211
-0.043753762 -0.012927252 0.21728197
-0.043869507 -0.015999405 0.22101773
-0.044599123 -0.01901257 0.22465144
-0.044284016 -0.021366822 0.22654565
-0.033364922 0.043128837 0.17607947
-0.033308521 0.041399062 0.17773655
-0.03330769 0.038578026 0.17901805
-0.03365726 0.035769895 0.1802713
-0.033878829 0.032931987 0.18197967
-0.0343072 0.029406602 0.18414316
-0.034000326 0.025936285 0.18545522
-0.036409784 0.019419629 0.18662503
-0.03921875 0.011766932 0.18813695
-0.038410328 0.0068427697 0.18928777
-0.038325284 0.0025539172 0.18880606
-0.037137356 -0.0010935783 0.19109093
-0.036156464 -0.0018970581 0.19578126
-0.036469959 -0.0032699306 0.19970725
-0.037437882 -0.0047962451 0.2031734
-0.038167253 -0.0069887354 0.20588651
-0.039631192 -0.0088128559 0.20970553
-0.041292939 -0.010853451 0.21305048
-0.040541306 -0.012922967 0.21720082
-0.040231396 -0.016061055 0.22019634
-0.040653527 -0.019365517 0.22349158
-0.040944766 -0.022070669 0.22601314
-0.030449443 0.043303806 0.17655066
-0.030441798 0.041648407 0.17779265
-0.03061657 0.038898431 0.17958118
-0.030925289 0.035910226 0.1816411
-0.031053716 0.033325516 0.18351732
-0.03123587 0.030154621 0.1859408
-0.030825 0.025988961 0.18729363
-0.031216457 0.021416882 0.18789187
-0.035297364 0.013567595 0.18833953
-0.034497667 0.0078371568 0.19031295
-0.032225188 0.004111812 0.19267313
-0.031855974 0.0018259581 0.1955692
-0.03294735 -9.1655536e-05 0.19837582
-0.033457104 -0.0020634667 0.2013175
-0.034298047 -0.003897879 0.20478736
-0.035179965 -0.0060182381 0.20738128
-0.036724471 -0.0079426933 0.21117797
-0.038200572 -0.010020599 0.21478479
-0.037582148 -0.011987546 0.2179973
-0.036834825 -0.015001112 0.22080429
-0.037408262 -0.019474447 0.22283061
-0.036934815 -0.021959959 0.22567199
-0.027355146 0.043526288 0.17680277
-0.027452983 0.04179351 0.17813274
-0.027526436 0.039062109 0.17991184
-0.027786486 0.036232844 0.18233693
-0.027865408 0.033558272 0.18428296
-0.028130969 0.030480064 0.18682748
-0.027956545 0.026465973 0.18830083
-0.027723227 0.022786099 0.18913287
-0.030458212 0.016290417 0.18974666
-0.030619709 0.0091068335 0.19172183
-0.027999207 0.0060256799 0.19549245
-0.028203543 0.0033713146 0.19845733
-0.029139651 0.0011550921 0.20059563
-0.030022034 0.00023075262 0.20216693
-0.03183426 -0.0030515161 0.20683239
-0.032425042 -0.0046590832 0.2091064
-0.033874676 -0.0067658923 0.21273464
-0.035154905 -0.0089434134 0.21631019
-0.034004219 -0.0110845 0.2193068
-0.03335917 -0.01466627 0.22266786
-0.03294931 -0.018228978 0.22441229
-0.03351976 -0.021872502 0.2269332
-0.033391606 -0.023785429 0.22988604
-0.024350125 0.043692704 0.17750178
-0.024485299 0.041945741 0.17869006
-0.024375495 0.039268121 0.17986086
-0.024539132 0.036357515 0.18222933
-0.024746787 0.033519756 0.18445891
-0.025046641 0.030572476 0.18715301
-0.025006788 0.026848856 0.18926394
-0.025028246 0.023082197 0.19052418
-0.026337784 0.018608354 0.19243357
-0.026965939 0.011504197 0.19368771
-0.024897562 0.0082112895 0.19811055
-0.025078673 0.0053723571 0.20083466
-0.025340527 0.0030196297 0.20367584
-0.026062235 0.00099238451 0.206258
-0.02767064 -0.0012385546 0.20913482
-0.029361147 -0.0035165946 0.2114929
-0.030537063 -0.0060202936 0.21468194
-0.030644547 -0.0084679648 0.2184163
-0.029948054 -0.011427511 0.22099286
-0.02978342 -0.014921452 0.2240105
-0.029761327 -0.018556902 0.22596213
-0.030062012 -0.022237908 0.22808696
-0.030211156 -0.024522841 0.23087147
-0.022174563 0.044110931 0.17762829
-0.021491917 0.042022511 0.179332
-0.021016343 0.039627485 0.18049993
-0.021049781 0.036578443 0.18205792
-0.021190731 0.033511899 0.18479884
-0.02172892 0.030831698 0.18715832
-0.022063388 0.027144164 0.18994939
-0.022243043 0.023376076 0.19235851
-0.022702653 0.019893624 0.1947985
-0.023096394 0.01564144 0.19776955
-0.022729363 0.010932614 0.20037632
-0.022535117 0.0074818162 0.2030673
-0.022996433 0.0050143818 0.20583159
-0.023709645 0.0021771886 0.20850593
-0.024632864 -0.00035448119 0.2111747
-0.025505869 -0.0027863157 0.2135345
-0.026120301 -0.0053675501 0.21653268
-0.026203886 -0.0084259454 0.22019379
-0.026316166 -0.011980553 0.22189653
-0.026634589 -0.015586835 0.22521523
-0.026388645 -0.018991912 0.22672874
-0.026661688 -0.022821123 0.22857603
-0.026805948 -0.025531244 0.23141424
-0.017851645 0.041905075 0.1804015
-0.018320341 0.039227363 0.18214518
-0.017738912 0.036964718 0.1838924
-0.017947374 0.03422571 0.18586789
-0.018430587 0.031398803 0.18811588
-0.018905846 0.028152583 0.19054511
-0.019116987 0.023868078 0.19411898
-0.019473309 0.020150671 0.19640353
-0.020092765 0.016663371 0.19879079
-0.02004681 0.013132884 0.20146804
-0.020096358 0.0097953603 0.20443735
-0.020538373 0.0068088928 0.20786105
-0.020837307 0.0033976575 0.21053138
-0.021341946 0.00069784635 0.2131505
-0.021851007 -0.0021401376 0.21576063
-0.02220683 -0.0051049325 0.21910085
-0.022460375 -0.0084523596 0.22178303
-0.022512302 -0.012267683 0.22330314
-0.023056395 -0.016201934 0.22643887
-0.02290576 -0.019543948 0.22645156
-0.023081077 -0.023136845 0.22754441
-0.023361182 -0.026034623 0.23118778
-0.015283441 0.040135328 0.18372104
-0.015011219 0.03755061 0.18559536
-0.015279871 0.034792442 0.18733302
-0.01543921 0.031990431 0.18930598
-0.015278658 0.02855882 0.19126028
-0.015174587 0.024443384 0.19509232
-0.016564339 0.020279167 0.19785066
-0.016763864 0.017215924 0.20032889
-0.016826149 0.014146239 0.20258856
-0.017090697 0.011353843 0.20623048
-0.017174404 0.0083419159 0.2092095
-0.017556082 0.0046490091 0.21215954
-0.017880749 0.0012275773 0.21491934
-0.018222902 -0.0018058777 0.21798319
-0.018551847 -0.0049385284 0.2210024
-0.018717917 -0.0083225882 0.22302182
-0.01882229 -0.012130161 0.22421646
-0.019249208 -0.015860653 0.2257669
-0.019456081 -0.019220488 0.22664101
-0.019484377 -0.023024494 0.22842132
-0.01974743 -0.02641963 0.23233266
-0.012459115 0.037755694 0.18686529
-0.012208593 0.035275701 0.18856825
-0.012229648 0.032410804 0.1904102
-0.011963885 0.02899202 0.19151959
-0.011276173 0.024947666 0.19503374
-0.011734259 0.02111873 0.19893149
-0.013254462 0.017577348 0.20239913
-0.013820794 0.014936741 0.20497727
-0.013957319 0.012219162 0.20789354
-0.014006323 0.0092041502 0.21050097
-0.01428991 0.0055427593 0.21367092
-0.014460589 0.0018745202 0.21633741
-0.014637457 -0.0012171284 0.21922936
-0.014840054 -0.0045555979 0.22217084
-0.014873909 -0.0081414729 0.22368477
-0.015284061 -0.012174633 0.22422394
-0.015553762 -0.015907291 0.22574502
-0.015739609 -0.019606311 0.22684802
-0.01614181 -0.02337374 0.23002975
-0.015782757 -0.026342046 0.23369451
-0.0097851632 0.03525031 0.18929642
-0.0089097982 0.032645725 0.19102366
-0.0081950743 0.029042214 0.19264486
-0.0078245727 0.02522327 0.1955865
-0.0086118532 0.021687342 0.20005718
-0.0095556313 0.018455533 0.20388684
-0.010213394 0.015462345 0.20633443
-0.010509538 0.012716467 0.20863873
-0.010608826 0.0098773697 0.21084367
-0.010780646 0.0066654421 0.21447632
-0.01070802 0.0026889904 0.21747641
-0.010835511 -0.00069201621 0.22036053
-0.010980215 -0.0043640048 0.22265418
-0.01109485 -0.0079762619 0.22440939
-0.011130637 -0.011682021 0.22411299
-0.011455227 -0.015784625 0.22669694
-0.011484268 -0.019154973 0.2279589
-0.011642452 -0.024168648 0.23244058
-0.0050476384 0.03167142 0.19272029
-0.0046028025 0.028714439 0.19473474
-0.0048081172 0.024817212 0.19749704
-0.0057643014 0.022736233 0.20005764
-0.006082898 0.018853024 0.20504892
-0.0065041287 0.016119521 0.20706794
-0.0067582168 0.013209495 0.20918098
-0.0065950905 0.010308648 0.21169256
-0.0071934755 0.0073490553 0.21503407
-0.0070056384 0.0033952771 0.2186629
-0.0073470785 -0.00036971245 0.22206968
-0.0071580987 -0.0040633497 0.2227895
-0.0072685685 -0.0077507659 0.22459504
-0.0072129127 -0.011514792 0.22493932
-0.0074463845 -0.015445678 0.22711638
-0.0083420519 -0.019279674 0.22888321
-0.0094936276 -0.022579463 0.23076673
-0.0014048788 0.028426273 0.19724292
-0.0016727836 0.025021205 0.19867708
-0.00092992437 0.022125196 0.20127419
-0.0020475376 0.019481577 0.20461473
-0.002268835 0.016284753 0.20740469
-0.002380935 0.013698298 0.21009322
-0.0024590187 0.010956093 0.21304208
-0.0032363688 0.0038271761 0.21941659
-0.0034149254 -0.00017037081 0.22252993
-0.0033743463 -0.0039972668 0.22303241
-0.0034242219 -0.0077970922 0.2242209
-0.0040337425 -0.011422442 0.22498554
-0.0049111261 -0.014610264 0.22708736
0.0011653439 0.02775177 0.19841921
0.0013399436 0.025201453 0.19960499
0.0015290605 0.022485001 0.2017148
0.0016228439 0.019540185 0.20455287
0.0015959245 0.016175013 0.20722929
0.0014110093 0.013708518 0.21031064
0.001245485 0.011268435 0.21322827
0.00063839776 0.0085778339 0.21607892
0.00068090897 0.0049385536 0.21860316
-8.6515975e-05 0.00044035001 0.22158907
-0.00070797518 -0.0035335214 0.22320825
0.0037881122 0.02510201 0.20035045
0.004850822 0.023074556 0.20228769
0.0048877778 0.019606734 0.20467971
0.0045523932 0.016389372 0.20694737
0.0042741518 0.014033128 0.20986412
0.0040063621 0.012367629 0.21234287
0 0 0 1 0 0 0 1 0 0 0 1 0 0 0 0 0 348 1 0 0
