ply
format ascii 1.0
comment PCL generated
element vertex 348
property float x
property float y
property float z
element camera 1
property float view_px
property float view_py
property float view_pz
property float x_axisx
property float x_axisy
property float x_axisz
property float y_axisx
property float y_axisy
property float y_axisz
property float z_axisx
property float z_axisy
property float z_axisz
property float focal
property float scalex
property float scaley
property float centerx
property float centery
property int viewportx
property int viewporty
property float k1
property float k2
end_header
-0.055208515 0.028830443 0.18475832
-0.056169342 0.026204603 0.1866408
-0.056728061 0.022985635 0.18881731
-0.057193801 0.019622069 0.19113034
-0.057783533 0.01619857 0.193322
-0.057973444 0.01305293 0.19476713
-0.057898141 0.0099045811 0.19599436
-0.051296022 0.030958479 0.18116815
-0.052445333 0.029336384 0.18244745
-0.052804247 0.02651244 0.18388918
-0.05338341 0.023181852 0.18596755
-0.053880539 0.019457232 0.18874709
-0.054555435 0.015776323 0.19107434
-0.05528364 0.012362903 0.19302323
-0.055823147 0.0090912944 0.19470547
-0.055729706 0.0052607162 0.19627689
-0.055586983 0.0018192222 0.19822375
-0.047665708 0.034013662 0.17868377
-0.048344072 0.032062996 0.17950913
-0.048548151 0.029591383 0.18048035
-0.049100604 0.026866164 0.181729
-0.050087404 0.023424577 0.1847232
-0.050479256 0.018604444 0.18846899
-0.051284507 0.014833266 0.19037655
-0.05207064 0.011699282 0.19188353
-0.052475668 0.008220504 0.1940306
-0.053013083 0.0042651934 0.19565172
-0.053418308 0.00073748518 0.19751993
-0.053862754 -0.001490672 0.20042972
-0.053725731 -0.0030808155 0.20296814
-0.053334594 -0.0040206546 0.20530693
-0.045205757 0.035147011 0.17794546
-0.045283511 0.032548819 0.17868939
-0.045540664 0.029952325 0.17987917
-0.045998912 0.027457448 0.18159144
-0.046723742 0.024157383 0.18375002
-0.047556799 0.01725978 0.18832533
-0.048513241 0.013360071 0.19062974
-0.049332764 0.010195085 0.19161908
-0.050041221 0.0061950693 0.19338572
-0.050698031 0.0023363794 0.19396174
-0.050700281 -0.00060444669 0.19636892
-0.050696086 -0.002047891 0.19913872
-0.050717246 -0.0029982969 0.20304404
-0.051345211 -0.0046518752 0.20626365
-0.051772159 -0.0067922696 0.20949413
-0.051277064 -0.0099391937 0.21351573
-0.041982677 0.038614217 0.17716762
-0.04241059 0.03598747 0.17808238
-0.04246312 0.03313683 0.17904025
-0.042663645 0.030533759 0.18026249
-0.043296933 0.027780397 0.1822153
-0.043796115 0.024580535 0.18407527
-0.044691633 0.018004175 0.18695363
-0.046612538 0.012276758 0.18924454
-0.047263827 0.0083324127 0.19095911
-0.048032109 0.0038641815 0.19228601
-0.048648905 -0.00058550294 0.19236656
-0.048631273 -0.0023286566 0.1943986
-0.047642011 -0.0021640591 0.19845749
-0.047383018 -0.0032667068 0.20305324
-0.047716524 -0.0050326427 0.20664687
-0.048604861 -0.0078490367 0.2103924
-0.049262099 -0.010767948 0.21301661
-0.049921405 -0.012887173 0.21774882
-0.039261442 0.040031649 0.17707153
-0.040105406 0.036621165 0.17863251
-0.03962804 0.033827767 0.17967673
-0.039995886 0.031138064 0.18090878
-0.040428236 0.028391512 0.18256122
-0.040762879 0.02521817 0.18424931
-0.041611031 0.020121647 0.1862909
-0.044842225 0.011055793 0.18881607
-0.045154996 0.0067379097 0.19012907
-0.045509212 0.0019868333 0.19064613
-0.045844834 -0.0019941651 0.19097944
-0.045077536 -0.0028991036 0.19424884
-0.044039555 -0.0024983042 0.19879065
-0.044011764 -0.0036652121 0.20317759
-0.044277545 -0.0057766247 0.207175
-0.04482555 -0.0087116752 0.21090844
-0.045830861 -0.01126278 0.21378639
-0.047072154 -0.013152877 0.21832792
-0.047415484 -0.015994033 0.22215086
-0.046957169 -0.01887968 0.22466135
-0.035749894 0.042602561 0.17597035
-0.036247659 0.040760063 0.1775566
-0.035603352 0.037969314 0.17916892
-0.036716823 0.035069328 0.1800849
-0.037154734 0.032097522 0.18147145
-0.03760083 0.028842928 0.18326347
-0.037462536 0.025652064 0.18482763
-0.039247308 0.019819813 0.18684119
-0.042376164 0.010750818 0.18828656
-0.042353969 0.0064121974 0.1892792
-0.042297386 0.0014993359 0.18926409
-0.041865077 -0.0018529401 0.1910526
-0.040696502 -0.0026840249 0.19500448
-0.04019215 -0.0028952325 0.19905531
-0.040501535 -0.0042487327 0.20335464
-0.041092061 -0.0069065266 0.20633367
-0.042069968 -0.009236725 0.20977774
-0.043478642 -0.011264828 0.21263009
-0.043409564 -0.013537352 0.21705662
-0.043627132 -0.01654879 0.22065434
-0.044408213 -0.019567024 0.22419277
-0.044110883 -0.021917317 0.22605731
-0.03329977 0.042965174 0.17622121
-0.033282813 0.041249834 0.17795639
-0.033384275 0.038524378 0.17943425
-0.033707261 0.035561517 0.18042448
-0.033876225 0.032730762 0.18209042
-0.034282733 0.029428849 0.18454199
-0.034086883 0.025970493 0.18594728
-0.036600813 0.019408805 0.18749458
-0.039280053 0.011624071 0.1880684
-0.03846911 0.0067039724 0.18937309
-0.038323741 0.0024014569 0.1891526
-0.037129052 -0.00115526 0.19146927
-0.036139216 -0.0019884543 0.1958245
-0.036352634 -0.0034655638 0.19953839
-0.037224054 -0.0051075104 0.20293833
-0.037918329 -0.0072450275 0.20561321
-0.03915412 -0.0090472037 0.21011032
-0.040580314 -0.011446533 0.2131765
-0.040072955 -0.013804874 0.21676151
-0.039976981 -0.016738294 0.21980497
-0.040448472 -0.019858317 0.22307007
-0.040729873 -0.022550769 0.22564438
-0.030383272 0.043211803 0.17680253
-0.030423217 0.041580673 0.17806563
-0.030674636 0.038802627 0.18000793
-0.030906064 0.035599731 0.18165992
-0.030892432 0.032880243 0.18319041
-0.031063907 0.029720481 0.18552455
-0.030897623 0.025859104 0.18749683
-0.031544518 0.02159569 0.18889995
-0.035492402 0.013599311 0.18849455
-0.034675453 0.007911711 0.19054048
-0.032460973 0.0042210482 0.19288252
-0.031984575 0.0017385492 0.19553907
-0.032855842 -0.00031333652 0.19822337
-0.033236805 -0.0024460717 0.20100297
-0.033897035 -0.0045066131 0.20426536
-0.03478203 -0.0066679404 0.20684138
-0.036047675 -0.0086199511 0.21124326
-0.037322197 -0.011072461 0.21445929
-0.036989041 -0.013199822 0.21732442
-0.036594603 -0.015825771 0.22040135
-0.037214324 -0.020003637 0.22266337
-0.036731128 -0.022512935 0.22534952
-0.027383082 0.043547161 0.17726898
-0.027482463 0.041806817 0.17862059
-0.027631482 0.039011557 0.18041278
-0.027821509 0.03596488 0.18247308
-0.027804743 0.033111259 0.18401884
-0.02810974 0.03003276 0.1864685
-0.028112942 0.026381163 0.18859053
-0.028021429 0.022908751 0.18999021
-0.03088834 0.016625503 0.19105157
-0.031076947 0.0097012836 0.19319414
-0.02830255 0.0060342737 0.19547148
-0.028336363 0.0032189018 0.19826077
-0.029061491 0.00087805546 0.20033316
-0.029803548 -0.0001938916 0.20181522
-0.031288825 -0.0038237211 0.20621601
-0.031831361 -0.0055701318 0.20843175
-0.033051532 -0.0078114667 0.21251847
-0.03418855 -0.010365066 0.21574041
-0.033445291 -0.01233879 0.21855964
-0.033215258 -0.015299515 0.22245142
-0.032873843 -0.01867798 0.22432996
-0.03333129 -0.022417774 0.22656544
-0.033223365 -0.02436221 0.22950879
-0.024428779 0.043821272 0.17826061
-0.024607845 0.042073008 0.17948894
-0.024533011 0.039368045 0.18067609
-0.024627825 0.036260542 0.18263221
-0.024791367 0.033365142 0.18463467
-0.025157006 0.030342903 0.18719941
-0.025251653 0.026881719 0.18971829
-0.02536563 0.023225278 0.19138841
-0.026522096 0.018843051 0.19344372
-0.027347583 0.012009625 0.1948636
-0.025060905 0.0083307372 0.19867304
-0.02493066 0.0049200347 0.20034313
-0.025106141 0.0025191728 0.20310211
-0.025818501 0.00048007324 0.20574783
-0.027215982 -0.0019401432 0.20852987
-0.028739024 -0.0043598479 0.21134725
-0.029868435 -0.0069871997 0.21439174
-0.030032419 -0.0094662393 0.21781395
-0.029572984 -0.012187735 0.2203881
-0.029687623 -0.015382709 0.22378245
-0.029679099 -0.018978572 0.22581743
-0.029923351 -0.022693383 0.22780016
-0.030117167 -0.024920171 0.23064512
-0.022302667 0.044327967 0.17862941
-0.021749653 0.04227104 0.18053097
-0.021320257 0.039894082 0.1817556
-0.021296332 0.036807552 0.1831031
-0.021452589 0.033661246 0.18551309
-0.022034992 0.030907635 0.18773253
-0.022421233 0.027281715 0.19060627
-0.022539591 0.023584707 0.19311827
-0.022893507 0.020058461 0.1955546
-0.023003701 0.015447197 0.19829544
-0.022470588 0.010620293 0.20063561
-0.022046756 0.0070089879 0.20295458
-0.022362869 0.0043822075 0.20561476
-0.02322373 0.0016176167 0.20841876
-0.024232816 -0.00094983669 0.21106622
-0.024970919 -0.0034651468 0.21342055
-0.025649291 -0.0060424074 0.21643224
-0.025855811 -0.0089740027 0.21996269
-0.026017763 -0.012402555 0.22162865
-0.026554819 -0.01596755 0.22508655
-0.026274825 -0.019379705 0.22654779
-0.026520824 -0.023192132 0.22843482
-0.026698923 -0.025797402 0.23141129
-0.018246127 0.042291544 0.18191336
-0.018714137 0.039483629 0.1833829
-0.018071599 0.036984544 0.18459648
-0.01832778 0.034176704 0.18642497
-0.018823823 0.031394508 0.18870181
-0.019374294 0.028304564 0.19119473
-0.01944473 0.024102664 0.19476597
-0.019713052 0.02031005 0.1971242
-0.020098666 0.016535476 0.19939597
-0.019811817 0.012793923 0.2017249
-0.019446764 0.0090770479 0.20421976
-0.019655561 0.0058400724 0.20732012
-0.020216061 0.0026388096 0.21023187
-0.020895816 2.6326474e-05 0.21309108
-0.021435829 -0.0027303512 0.21571323
-0.021933939 -0.0055566486 0.21913753
-0.022296812 -0.0087388558 0.22190446
-0.022379411 -0.012427596 0.22347726
-0.023065511 -0.016418731 0.22655445
-0.022748075 -0.019858109 0.22647332
-0.022894768 -0.023450593 0.22762704
-0.023279471 -0.026176263 0.23142576
-0.015627755 0.040212873 0.18460688
-0.015206779 0.037352093 0.18597296
-0.015453457 0.034499221 0.18750998
-0.015730062 0.031792421 0.18956433
-0.015772145 0.028656479 0.19189593
-0.015843593 0.024850637 0.19598834
-0.016885396 0.020483948 0.19872333
-0.016876899 0.017154515 0.20093361
-0.016628662 0.013823154 0.20282023
-0.016548363 0.010597353 0.20590384
-0.016553001 0.0074677905 0.20865799
-0.017070722 0.0039614798 0.21179977
-0.01755756 0.00069882692 0.21492551
-0.017951239 -0.0022190807 0.21819809
-0.01841086 -0.0051098289 0.22139066
-0.01873327 -0.0083662653 0.22354801
-0.018797705 -0.012047742 0.22488546
-0.019175682 -0.015786892 0.22654431
-0.019309886 -0.019282168 0.22725655
-0.019320242 -0.023114469 0.22895333
-0.019728547 -0.026376702 0.2329274
-0.012631338 0.037504658 0.18713816
-0.012365297 0.034939718 0.18861488
-0.012522179 0.032162126 0.19061276
-0.012492157 0.029002013 0.19223207
-0.011992527 0.025409456 0.19627924
-0.012378488 0.021478774 0.20004505
-0.013501256 0.017606977 0.20298232
-0.013654689 0.014587711 0.20507239
-0.01360585 0.011698246 0.20770663
-0.013569234 0.0086056301 0.21022463
-0.013985913 0.0049437112 0.21347043
-0.014234377 0.0014129285 0.216456
-0.014511947 -0.0014870537 0.21955508
-0.014724357 -0.004574941 0.22275697
-0.014807479 -0.0079792691 0.22451672
-0.015179282 -0.011927613 0.22530766
-0.015370897 -0.015641261 0.22693363
-0.015528827 -0.019346643 0.22803871
-0.016025076 -0.023188485 0.23090243
-0.015793363 -0.026077269 0.23454912
-0.0099571105 0.034861609 0.18938805
-0.0093300631 0.032451734 0.19137938
-0.0088801067 0.029245062 0.19366924
-0.0085923737 0.025725445 0.19701378
-0.0091398144 0.021991206 0.20110805
-0.0098530706 0.018479675 0.20441799
-0.01029628 0.015380429 0.20664072
-0.010411615 0.012541282 0.20881811
-0.010356597 0.0096111158 0.21089908
-0.010614512 0.0062799058 0.21447991
-0.010584576 0.0022522137 0.21738395
-0.010668308 -0.00089918409 0.22044536
-0.010782379 -0.0043411674 0.22295524
-0.010853416 -0.0078614326 0.22497995
-0.010937189 -0.011625093 0.22491543
-0.011230069 -0.015575948 0.22777124
-0.011270559 -0.018875655 0.22920053
-0.011553409 -0.023847716 0.23359309
-0.0058576418 0.031918451 0.19382261
-0.0054722829 0.02912253 0.19606982
-0.0055763782 0.025244886 0.19886921
-0.0063058403 0.023004945 0.20121206
-0.0063205492 0.018744405 0.20530759
-0.0066472017 0.016018901 0.20734397
-0.0067905118 0.013253988 0.20949797
-0.0065247058 0.010317789 0.21193692
-0.0070702732 0.0071778009 0.21508409
-0.0068455865 0.0029030922 0.2181018
-0.0070678261 -0.00053888414 0.22181763
-0.0069078337 -0.0042092116 0.22279805
-0.0070031285 -0.0077721574 0.2249295
-0.0070064897 -0.011539448 0.22548014
-0.0072130761 -0.015369759 0.22789566
-0.0081168581 -0.019037066 0.22996803
-0.0093083177 -0.022256473 0.23194154
-0.0021763416 0.028614383 0.19827129
-0.0023661493 0.025215087 0.199697
-0.0014344188 0.022059077 0.20171721
-0.0022505859 0.019299371 0.20468135
-0.0024119457 0.01608937 0.20733882
-0.0024192131 0.013468661 0.20997159
-0.0024067436 0.010607283 0.21276374
-0.0030370383 0.0032199509 0.21840958
-0.0031332946 -0.00042721629 0.22194962
-0.0031417571 -0.004189922 0.22280766
-0.003208298 -0.0079089031 0.2243595
-0.0038292324 -0.011529847 0.22534949
-0.004677834 -0.014627333 0.22761127
0.00050990295 0.027716327 0.19905797
0.00070336455 0.025100481 0.19997816
0.0010750613 0.022168379 0.20160548
0.0014253332 0.019246586 0.20424514
0.0014816748 0.016063143 0.20707326
0.0013717922 0.013387625 0.20998114
0.0013091507 0.01079395 0.21268544
0.00080261554 0.0079351068 0.21537066
0.00086590782 0.0040629832 0.21734796
0.00014797365 -0.00010094387 0.22058745
-0.00044658335 -0.0038140202 0.22274992
0.0031961934 0.024754154 0.20019719
0.0044485661 0.02241702 0.20150201
0.0046400186 0.019233648 0.20405373
0.0044190874 0.01627733 0.20667595
0.0042326716 0.013757027 0.2094875
0.0040259701 0.011913683 0.21180557
0 0 0 1 0 0 0 1 0 0 0 1 0 0 0 0 0 348 1 0 0
