ply
format ascii 1.0
comment PCL generated
element vertex 348
property float x
property float y
property float z
element camera 1
property float view_px
property float view_py
property float view_pz
property float x_axisx
property float x_axisy
property float x_axisz
property float y_axisx
property float y_axisy
property float y_axisz
property float z_axisx
property float z_axisy
property float z_axisz
property float focal
property float scalex
property float scaley
property float centerx
property float centery
property int viewportx
property int viewporty
property float k1
property float k2
end_header
-0.054493953 0.031357467 0.18426299
-0.055521078 0.028943092 0.18532734
-0.056375712 0.025923841 0.18688604
-0.057181489 0.022902841 0.18921289
-0.057988849 0.019835116 0.19144318
-0.058386553 0.016817478 0.19321387
-0.058279775 0.013685459 0.19449262
-0.05057032 0.033702977 0.18059316
-0.051541857 0.031991735 0.18199299
-0.05209564 0.029191252 0.18345384
-0.052525204 0.025930364 0.18459077
-0.05334112 0.022745654 0.18722895
-0.054078542 0.019735491 0.18965544
-0.054921128 0.016737301 0.19186501
-0.05570516 0.01356934 0.19425492
-0.05632535 0.01002107 0.19674136
-0.056155495 0.0068270159 0.19916578
-0.047311123 0.036843769 0.17860164
-0.04794329 0.034705848 0.17925657
-0.048084971 0.032187358 0.18034698
-0.048364785 0.029405637 0.18170772
-0.049278665 0.026236819 0.18426117
-0.049924418 0.022766456 0.18774085
-0.050682504 0.019745428 0.1899126
-0.051524296 0.016991446 0.19239976
-0.052356482 0.013889597 0.1947059
-0.053055119 0.010077947 0.19677988
-0.053507261 0.0063496386 0.19943297
-0.054281924 0.0032820429 0.20197342
-0.054601699 0.00081597967 0.2043754
-0.054661851 -0.00020920648 0.20812453
-0.044811819 0.037808899 0.17775659
-0.044893626 0.035095278 0.17847385
-0.045027819 0.032447696 0.17972854
-0.045480743 0.02998049 0.18192874
-0.04614735 0.026973203 0.18439212
-0.046992064 0.022698449 0.18875423
-0.047772795 0.019759469 0.19143559
-0.048642427 0.016939538 0.19362921
-0.049438786 0.013349095 0.19526406
-0.049810421 0.0093413526 0.19662768
-0.050249722 0.0060889502 0.19943097
-0.050797738 0.0034489653 0.20197082
-0.051833279 0.0012271237 0.20586437
-0.052650526 -0.00082527677 0.20974021
-0.052959092 -0.0030191659 0.2133666
-0.052515302 -0.0061934167 0.21663716
-0.041394498 0.040922765 0.17688535
-0.041945394 0.038399905 0.17772409
-0.042027872 0.035536237 0.17882957
-0.042140853 0.032863915 0.18024608
-0.042789195 0.030440575 0.18284976
-0.043327425 0.027576799 0.18523422
-0.043859731 0.023660371 0.18876921
-0.045044038 0.020063553 0.19245093
-0.045870766 0.016625293 0.19470607
-0.046369724 0.012463166 0.19563456
-0.046482168 0.0080487225 0.19621423
-0.047068488 0.005455934 0.19877768
-0.047702033 0.0036170334 0.20270211
-0.048647728 0.0014603267 0.20713422
-0.04930554 -0.00090099237 0.21091284
-0.049884997 -0.0038115636 0.21384737
-0.05021672 -0.0069476422 0.2163078
-0.050477341 -0.010133238 0.22021091
-0.038616754 0.041930933 0.17695835
-0.039592657 0.038760751 0.17826365
-0.039114684 0.036049653 0.17939886
-0.039465543 0.033556268 0.18114503
-0.039980084 0.031108266 0.18339241
-0.040386759 0.02825373 0.18574421
-0.040920358 0.024697375 0.1888036
-0.042429097 0.019840728 0.19366296
-0.042847224 0.016181009 0.19574073
-0.042870969 0.011752084 0.19615285
-0.043117844 0.0074985931 0.1965726
-0.043654963 0.0052150534 0.19984421
-0.044422746 0.0036201458 0.2043598
-0.045354933 0.0015566202 0.20842446
-0.04586447 -0.0011333039 0.21233259
-0.046284985 -0.0043493453 0.21510437
-0.046735827 -0.0073849494 0.2175713
-0.047308128 -0.010725765 0.22002807
-0.047651231 -0.014593033 0.22293022
-0.047100749 -0.018204117 0.22469117
-0.035152685 0.044182774 0.1762829
-0.035663377 0.042337708 0.17763124
-0.03513382 0.039333738 0.17897445
-0.036248889 0.036511607 0.17983074
-0.036801498 0.034207381 0.18196711
-0.037249446 0.031620804 0.18437763
-0.037384491 0.028959155 0.18673244
-0.038134377 0.025292994 0.19003999
-0.039155677 0.019976975 0.19465485
-0.039465815 0.016141474 0.19679399
-0.039481044 0.011660705 0.19731095
-0.039692499 0.0075611966 0.19838718
-0.040063173 0.0051412252 0.20197275
-0.041027203 0.0037181496 0.20623989
-0.042088918 0.0017439922 0.21009935
-0.042518657 -0.0012764519 0.2130143
-0.042916782 -0.004442553 0.21531202
-0.043398868 -0.0076359198 0.2170608
-0.043484937 -0.01089077 0.21859275
-0.043907929 -0.014743006 0.22123611
-0.044567715 -0.018846469 0.22398864
-0.044264209 -0.021548701 0.22525689
-0.032662589 0.044231229 0.17648456
-0.032780275 0.042451557 0.1780079
-0.032910168 0.039604854 0.17921868
-0.033140946 0.036679409 0.18021847
-0.033589941 0.034341708 0.18248865
-0.034277514 0.031990837 0.18583232
-0.034551386 0.02929236 0.18836446
-0.035255395 0.025569838 0.19148211
-0.035938695 0.020663498 0.19524504
-0.036126275 0.016323462 0.19825462
-0.035992507 0.012126791 0.1989674
-0.036042508 0.0076741804 0.20013686
-0.036645483 0.0057358169 0.20402236
-0.037689675 0.0042047296 0.20791475
-0.038685694 0.0019526563 0.21132205
-0.039121021 -0.00089599908 0.21360362
-0.039612256 -0.0041022063 0.21585833
-0.039954871 -0.0077882968 0.21692017
-0.039796833 -0.011336143 0.21827281
-0.040104456 -0.014950343 0.22043523
-0.04059187 -0.018836932 0.22238362
-0.040729385 -0.022036821 0.22442947
-0.029602313 0.044239156 0.17703608
-0.029740745 0.042483233 0.17800488
-0.030020617 0.039786488 0.17960487
-0.030337682 0.036831591 0.18153635
-0.030570053 0.034304138 0.18354064
-0.031147003 0.031818073 0.18670626
-0.031557396 0.029064374 0.18988442
-0.032065682 0.025977265 0.19232033
-0.032819502 0.021777984 0.195879
-0.0329891 0.017017838 0.19925725
-0.032317188 0.012313464 0.20142974
-0.032710884 0.0089754779 0.20358942
-0.033651598 0.0068948576 0.20620154
-0.034417965 0.0046136137 0.20900883
-0.035016648 0.0021850492 0.21210875
-0.035604373 -0.00070281164 0.2142396
-0.036038436 -0.0042755809 0.21608728
-0.036321633 -0.0079826219 0.21715754
-0.036266394 -0.011344693 0.21832706
-0.036384754 -0.014536684 0.22085215
-0.037240785 -0.019337997 0.2221878
-0.036784712 -0.022074619 0.22453508
-0.02663457 0.044241495 0.17713273
-0.026692173 0.042436771 0.17831627
-0.02689505 0.039751749 0.17986962
-0.027202578 0.037129134 0.18255079
-0.027534008 0.034353457 0.18461932
-0.028113306 0.031890415 0.1875201
-0.028596286 0.02923546 0.19066054
-0.028831225 0.026176363 0.19302221
-0.02964391 0.022727568 0.19655897
-0.02991898 0.017910901 0.20048293
-0.029302558 0.013221805 0.20342298
-0.0297844 0.010008093 0.20600747
-0.030246817 0.0073036412 0.20789953
-0.030471336 0.0060540158 0.20894924
-0.032095205 0.0018055119 0.21289921
-0.031994998 -0.00067819562 0.21435067
-0.032523885 -0.0042215819 0.21648698
-0.032850482 -0.0079812147 0.21771869
-0.032590147 -0.011164511 0.21918687
-0.032778073 -0.014724339 0.22232892
-0.032811616 -0.018347122 0.22399145
-0.033276442 -0.022130515 0.2261453
-0.033096146 -0.024028895 0.2292169
-0.023506941 0.04436126 0.17810538
-0.023756905 0.042638872 0.17921171
-0.023830894 0.039919011 0.1803446
-0.024101976 0.037153944 0.18260191
-0.024576837 0.034430921 0.18521824
-0.025021629 0.031954639 0.18808301
-0.02544681 0.029425733 0.19170535
-0.025834359 0.026166279 0.19430766
-0.026508877 0.023102807 0.19760451
-0.026876193 0.018879145 0.20189096
-0.026445908 0.014284281 0.20533636
-0.02696559 0.011155874 0.20783791
-0.027305935 0.0083016325 0.21002109
-0.027540389 0.0057932818 0.2117666
-0.02779568 0.0025832185 0.21393974
-0.028608099 -0.00069687743 0.21541928
-0.029135805 -0.0044073518 0.21735321
-0.029274946 -0.0078190807 0.2190356
-0.028962238 -0.011221245 0.22022612
-0.029123707 -0.014967212 0.22299336
-0.029427789 -0.018663866 0.22531249
-0.029807556 -0.022384124 0.22712809
-0.029944206 -0.024629712 0.22981574
-0.021299083 0.044702418 0.17840262
-0.020974554 0.04267171 0.18041874
-0.020808455 0.040394958 0.18172465
-0.020940747 0.037505303 0.18331791
-0.021292053 0.034604169 0.1859291
-0.021846933 0.032050025 0.18848467
-0.022340674 0.029372761 0.19234447
-0.022567 0.026314888 0.1957238
-0.023210609 0.023271225 0.19884513
-0.023843147 0.019484317 0.2034739
-0.023696069 0.015201284 0.2064638
-0.023634829 0.011776809 0.2084471
-0.023819776 0.0087826019 0.2104937
-0.024226513 0.0056656068 0.21280161
-0.024757117 0.0024272667 0.21451077
-0.024881987 -0.00075724063 0.21599062
-0.025272675 -0.0040988121 0.21827641
-0.02543609 -0.0076671024 0.22050434
-0.025453093 -0.011428823 0.2206994
-0.025858022 -0.015651101 0.22397888
-0.026005011 -0.018964024 0.22595337
-0.026356788 -0.022799052 0.22736174
-0.02648478 -0.025475709 0.23064052
-0.017689664 0.042728052 0.18193872
-0.018488076 0.040012598 0.18347418
-0.018029096 0.037509199 0.18471153
-0.018206457 0.034698617 0.18634193
-0.018532103 0.03204634 0.18869208
-0.018938849 0.029367842 0.19174814
-0.019193597 0.026326906 0.19708605
-0.019910906 0.023192456 0.20052046
-0.02051645 0.019571437 0.2036048
-0.020443434 0.015906099 0.20620403
-0.020176532 0.012154802 0.20842552
-0.020284198 0.0088406634 0.21057038
-0.020771602 0.0055466299 0.2130433
-0.021035574 0.002435613 0.21527693
-0.021216217 -0.00084950199 0.21730216
-0.021533037 -0.0043013832 0.2199918
-0.021817021 -0.007866079 0.22158545
-0.021735387 -0.011809651 0.22209901
-0.022061775 -0.016138477 0.22471872
-0.022280183 -0.019390823 0.2254678
-0.022606147 -0.023030676 0.22649251
-0.022939637 -0.025682203 0.23079814
-0.015378539 0.040555749 0.18441616
-0.015064389 0.037607923 0.18576181
-0.015202118 0.034779768 0.18709333
-0.01535059 0.032060143 0.18907706
-0.015639596 0.029151255 0.19185363
-0.015937043 0.026505858 0.19743048
-0.016761765 0.022848744 0.20184503
-0.016948534 0.019620469 0.20407043
-0.016762868 0.016034218 0.20591354
-0.01666479 0.012496196 0.20813793
-0.016566822 0.0091307554 0.21039155
-0.016980903 0.0055439854 0.21314858
-0.017254371 0.0023868766 0.21602969
-0.017551312 -0.0011181412 0.21909279
-0.01776335 -0.0047291284 0.22139713
-0.018044094 -0.0081419591 0.22266461
-0.018018439 -0.011861858 0.22331484
-0.018310666 -0.015556598 0.22467132
-0.018687144 -0.018914945 0.22626171
-0.01888283 -0.022509733 0.22805744
-0.019269979 -0.02572581 0.23252322
-0.012449547 0.037573233 0.18676594
-0.012121697 0.035014447 0.18800108
-0.012257748 0.032200277 0.19012775
-0.012456704 0.02915615 0.19218351
-0.012571599 0.026401462 0.19712986
-0.012632943 0.023092607 0.20183666
-0.013224998 0.019605607 0.20509794
-0.013306663 0.016395679 0.20733428
-0.013141182 0.012982109 0.20940912
-0.013095035 0.0095280381 0.21146673
-0.013446069 0.0057170908 0.21410161
-0.013761505 0.0024709424 0.2170863
-0.013972825 -0.00087755953 0.21976694
-0.014104568 -0.004631367 0.22235386
-0.014346571 -0.0082270773 0.22345661
-0.014320322 -0.011523323 0.22392024
-0.014534626 -0.015006998 0.22583362
-0.014855235 -0.018619733 0.22755684
-0.015479569 -0.022497812 0.23048063
-0.015258171 -0.025319457 0.23437004
-0.0096492292 0.034659415 0.18868585
-0.0091251349 0.032269284 0.1907652
-0.0091457134 0.029270286 0.19349992
-0.009089876 0.026415767 0.19768313
-0.0091488007 0.023696389 0.20258634
-0.0095358854 0.020283002 0.20635624
-0.0098198615 0.017110663 0.20862412
-0.0098524662 0.013817892 0.21049388
-0.0097432649 0.010334537 0.21189155
-0.009757529 0.0065385979 0.2148013
-0.0099455016 0.002827602 0.2173969
-0.010221051 -0.00065609103 0.22018991
-0.010326137 -0.0043835323 0.22240372
-0.010453961 -0.0078504765 0.22422491
-0.010531782 -0.011147161 0.22400412
-0.010641083 -0.014834004 0.22699679
-0.01067982 -0.018203028 0.22877832
-0.011031497 -0.023174694 0.23322557
-0.005975754 0.031557772 0.19322845
-0.0057268762 0.029232625 0.19595909
-0.0056153405 0.02624944 0.19988
-0.0059660752 0.024480648 0.20245217
-0.0059814388 0.020216197 0.20692541
-0.006196585 0.017530341 0.20938562
-0.0062776874 0.014577308 0.21126749
-0.0059322603 0.011130368 0.21294719
-0.0062523438 0.0075047142 0.21573493
-0.0063476148 0.0032051101 0.21772245
-0.0064767189 -0.00054535543 0.22131567
-0.0065878481 -0.0042216661 0.22213465
-0.0066128438 -0.0077070184 0.22415964
-0.0066145817 -0.011076493 0.22478493
-0.0067551583 -0.014798203 0.22739397
-0.0075629391 -0.018441778 0.229583
-0.0086208349 -0.021504225 0.23129857
-0.0020463646 0.028888205 0.1980917
-0.0021364372 0.026024288 0.20040961
-0.0013451059 0.022914505 0.20278567
-0.0022284233 0.020242035 0.20601723
-0.0020975021 0.017416351 0.20878503
-0.0022680995 0.014647196 0.21133584
-0.0021810012 0.011398886 0.21362159
-0.0025449428 0.0032838495 0.2176564
-0.002670713 -0.00055474252 0.22116612
-0.0027078334 -0.0042160181 0.22192508
-0.0028404994 -0.0076638912 0.22346553
-0.0034666231 -0.011096734 0.22452472
-0.0041997759 -0.014061769 0.22704084
0.00096926111 0.028059488 0.199111
0.001113355 0.025521876 0.20043464
0.0012268175 0.02264026 0.20260173
0.0013551112 0.019964457 0.20531693
0.0015275697 0.017391389 0.20838688
0.0014948052 0.014556712 0.21103352
0.0015207478 0.011631045 0.21352865
0.0011158177 0.0084182769 0.21603131
0.0010534597 0.0041338974 0.21680118
0.00043683566 -0.00030443753 0.21942146
-3.2091692e-05 -0.0037693195 0.22145581
0.0038360222 0.024839899 0.20063211
0.0045435796 0.022494592 0.20221573
0.0047669346 0.019858202 0.20458905
0.004558743 0.017557079 0.20802329
0.0043003694 0.014838208 0.21072292
0.0040658358 0.012810338 0.21272865
0 0 0 1 0 0 0 1 0 0 0 1 0 0 0 0 0 348 1 0 0
