ply
format ascii 1.0
comment PCL generated
element vertex 348
property float x
property float y
property float z
element camera 1
property float view_px
property float view_py
property float view_pz
property float x_axisx
property float x_axisy
property float x_axisz
property float y_axisx
property float y_axisy
property float y_axisz
property float z_axisx
property float z_axisy
property float z_axisz
property float focal
property float scalex
property float scaley
property float centerx
property float centery
property int viewportx
property int viewporty
property float k1
property float k2
end_header
-0.055342443 0.028518731 0.18484879
-0.056166366 0.02593977 0.1866736
-0.05672466 0.022703227 0.18886009
-0.057186626 0.019340154 0.19116507
-0.057759739 0.015930418 0.19336163
-0.057924408 0.012808928 0.19482166
-0.057836048 0.0096775535 0.19611518
-0.051334415 0.030723203 0.18119814
-0.052473921 0.029097298 0.1824598
-0.052820738 0.026258113 0.18390726
-0.05338832 0.022913879 0.18600373
-0.05388324 0.019167116 0.18878633
-0.054551855 0.015491983 0.19113012
-0.055269051 0.012090757 0.19312951
-0.055781104 0.0088265631 0.19494011
-0.055562887 0.0050657322 0.19662775
-0.055414129 0.0016392536 0.1985859
-0.047714863 0.033802826 0.1787494
-0.048393652 0.031851429 0.17956088
-0.048598289 0.029378986 0.18051033
-0.049148563 0.02665283 0.1817371
-0.050109144 0.0231744 0.18473224
-0.05048709 0.018290885 0.18849264
-0.051283561 0.014513466 0.19044258
-0.052110612 0.011352382 0.19201505
-0.052417275 0.0078929355 0.19428161
-0.05286596 0.0040018358 0.19601317
-0.053288307 0.00052125059 0.19785738
-0.053737514 -0.0016836824 0.20075096
-0.053575628 -0.0032650556 0.20325816
-0.053200025 -0.0043269903 0.20537482
-0.045261327 0.03495289 0.17802469
-0.045339596 0.032351322 0.1787488
-0.04560193 0.02975389 0.1799154
-0.046062339 0.027258789 0.1816033
-0.046790138 0.023950191 0.18375756
-0.047567543 0.016912865 0.18834475
-0.0485144 0.01302108 0.19069894
-0.049364801 0.0098142242 0.19177508
-0.049952544 0.0058015548 0.19370101
-0.05058809 0.0019989437 0.19433185
-0.050614502 -0.00088983867 0.19670208
-0.050597485 -0.0022816251 0.19941285
-0.050575875 -0.0032204266 0.2032714
-0.051213216 -0.0050134896 0.20629518
-0.051661499 -0.0072807665 0.20938359
-0.051202051 -0.010235704 0.21349879
-0.042040158 0.038443174 0.17724875
-0.042463586 0.035810355 0.17816123
-0.042523544 0.032948874 0.17909761
-0.042732399 0.030343588 0.18030015
-0.043367993 0.027585801 0.18222301
-0.043869872 0.024379145 0.18406992
-0.04473152 0.017667903 0.18694857
-0.046680838 0.011859955 0.18938939
-0.047276191 0.007897987 0.1912037
-0.047941912 0.0034135724 0.19268535
-0.048565991 -0.0010072598 0.19275558
-0.048587259 -0.0026427731 0.19471708
-0.047550522 -0.002419926 0.19867332
-0.047244795 -0.0035482335 0.20319463
-0.047562946 -0.0054346332 0.20666222
-0.048523858 -0.0081147552 0.21040328
-0.049200259 -0.011053746 0.21299377
-0.049908414 -0.013138468 0.21770479
-0.039318886 0.039875709 0.17712431
-0.040157523 0.036456179 0.17870536
-0.039686806 0.033650458 0.17973168
-0.040066402 0.030956989 0.18094936
-0.040501971 0.028207578 0.18257689
-0.040835466 0.025026947 0.18425149
-0.041676141 0.019857289 0.18626769
-0.044918828 0.010609605 0.18900022
-0.045177728 0.0062831161 0.19042058
-0.045450665 0.0014975091 0.19103372
-0.045823362 -0.002433345 0.19130363
-0.045045495 -0.0032873566 0.19449738
-0.043948341 -0.0028054717 0.19891751
-0.043877155 -0.0040059937 0.20322549
-0.044128202 -0.0062345862 0.20710132
-0.04473003 -0.0090153553 0.21087639
-0.04577795 -0.011559932 0.21373554
-0.047078289 -0.013352995 0.2183174
-0.047438405 -0.0161124 0.22220014
-0.046973638 -0.018938191 0.22476147
-0.035808664 0.042457514 0.1759689
-0.036299936 0.040620454 0.17758028
-0.035643637 0.037843738 0.17922457
-0.036756668 0.034937061 0.18014292
-0.037205253 0.031947982 0.18151207
-0.037660923 0.028674917 0.18328491
-0.03751665 0.025472114 0.18482332
-0.039301712 0.019553101 0.18681027
-0.042477362 0.010290595 0.18846627
-0.042405795 0.0059467638 0.18954094
-0.042287104 0.0010212931 0.18954234
-0.04184521 -0.002313131 0.19128187
-0.040644225 -0.0030713247 0.19516495
-0.040101998 -0.0032098989 0.19903564
-0.040348623 -0.004682071 0.20324476
-0.040937994 -0.0074281571 0.206104
-0.041991483 -0.0095759835 0.20966107
-0.043432318 -0.011578781 0.21251507
-0.043408152 -0.013733367 0.21707822
-0.043625157 -0.016675718 0.22074488
-0.044425741 -0.019622229 0.22432338
-0.044129487 -0.021938501 0.22620805
-0.033357922 0.042842928 0.17622128
-0.033334691 0.041132998 0.1779729
-0.033423848 0.038409896 0.17946985
-0.033745613 0.035444912 0.18046118
-0.033897597 0.032608539 0.18211065
-0.034286261 0.02928769 0.18454978
-0.034078855 0.025807852 0.18591897
-0.036666378 0.019109547 0.18744633
-0.039398354 0.011164448 0.18815586
-0.038544886 0.0062730303 0.18955207
-0.038353898 0.0019687142 0.18937409
-0.037116248 -0.0015472311 0.19158594
-0.036067251 -0.0023015605 0.19582891
-0.036215894 -0.0038525469 0.19938792
-0.037069149 -0.0055827224 0.202701
-0.037744701 -0.0077642663 0.20532835
-0.039073907 -0.0093878973 0.20998459
-0.040542576 -0.011749769 0.2130809
-0.040069915 -0.013995971 0.21679607
-0.039984383 -0.016851027 0.21993195
-0.040459201 -0.019910302 0.22323391
-0.040758498 -0.022573579 0.22580978
-0.030445701 0.043115489 0.17681089
-0.030480051 0.041494336 0.17808791
-0.030722665 0.038699362 0.18005329
-0.030938715 0.035484746 0.18168275
-0.03090198 0.032763939 0.18319456
-0.031048173 0.029588204 0.18549919
-0.030875403 0.025694247 0.18746503
-0.031525783 0.021389553 0.18884574
-0.035604287 0.013139852 0.18839464
-0.034750372 0.0075294473 0.19057401
-0.032492779 0.0039734007 0.19293927
-0.031981118 0.0015517921 0.19555233
-0.032803342 -0.00057361781 0.19819975
-0.033109725 -0.0027627852 0.20090036
-0.033778857 -0.0048854658 0.20411253
-0.034645099 -0.0070869327 0.20665695
-0.035983086 -0.0089161368 0.21114224
-0.037308689 -0.011336176 0.21441776
-0.037009064 -0.013375442 0.21736516
-0.036633961 -0.015933119 0.22052737
-0.037241675 -0.020052094 0.22283527
-0.036762588 -0.022550078 0.22548626
-0.027449561 0.043479908 0.17730328
-0.027544137 0.041744009 0.17866236
-0.027681965 0.038939554 0.1804689
-0.027854912 0.035869796 0.18249823
-0.027818987 0.033015419 0.18402821
-0.02810997 0.029917061 0.18645935
-0.028106987 0.026243707 0.18858671
-0.027989971 0.02276005 0.18996841
-0.030932728 0.016379815 0.19096021
-0.03113476 0.0094416104 0.19310579
-0.028249921 0.005834064 0.19540696
-0.028253717 0.0030447741 0.19820692
-0.02898117 0.00070740719 0.2003106
-0.029757032 -0.00037800433 0.20181124
-0.031245498 -0.0040474557 0.20613453
-0.031774066 -0.0058111846 0.20832071
-0.033012521 -0.0080533959 0.21245088
-0.034194712 -0.010575805 0.21573271
-0.033480797 -0.012487396 0.2186211
-0.033275537 -0.015363703 0.22260378
-0.032929454 -0.018711174 0.22448865
-0.033369627 -0.022461843 0.22667475
-0.033247638 -0.024414647 0.22959799
-0.02450015 0.04377133 0.1782973
-0.024667658 0.042022482 0.17953205
-0.024578966 0.039319433 0.18072893
-0.024662891 0.036192734 0.18267567
-0.024810085 0.033287689 0.18466018
-0.025171615 0.030251268 0.18722436
-0.025268525 0.026764767 0.18973397
-0.025355132 0.023097327 0.19137557
-0.02647586 0.018672274 0.19337867
-0.027379952 0.01181972 0.19476999
-0.025034713 0.0081759281 0.19859526
-0.024729243 0.0047374084 0.20022133
-0.024890574 0.0023459324 0.2029949
-0.025699507 0.00032946165 0.20567884
-0.027201544 -0.0020555959 0.20850708
-0.028690994 -0.0045813341 0.2112515
-0.029847154 -0.0071777753 0.2143248
-0.030026995 -0.009624376 0.21777338
-0.029604999 -0.012287476 0.22044113
-0.029755615 -0.015429455 0.22392607
-0.029735094 -0.01901656 0.22594373
-0.029965047 -0.022734705 0.22789086
-0.030144336 -0.024960544 0.23073775
-0.022374934 0.044289004 0.17866856
-0.021798132 0.042231631 0.18056561
-0.021356037 0.039854251 0.18178917
-0.021323858 0.036758896 0.18314934
-0.021486158 0.03360121 0.18556999
-0.022071563 0.030848734 0.18779258
-0.022460837 0.027203623 0.19065386
-0.02255811 0.023492165 0.19313428
-0.022882711 0.019966571 0.19555721
-0.022988461 0.01536551 0.19825883
-0.022447295 0.010513253 0.20057909
-0.021978598 0.0068679601 0.20285846
-0.022269396 0.0042155036 0.20549835
-0.023140589 0.0014256277 0.20829828
-0.02418109 -0.0011366812 0.2109632
-0.024933985 -0.0036410987 0.21334717
-0.025623979 -0.0062142955 0.21635696
-0.025829645 -0.0091277538 0.21990718
-0.026034495 -0.012501641 0.22166558
-0.026619913 -0.016015178 0.22519535
-0.026325034 -0.019429255 0.22662474
-0.026555602 -0.023241483 0.22851311
-0.026726404 -0.025833877 0.23148113
-0.018275529 0.042249974 0.18193299
-0.018731618 0.039434567 0.18340267
-0.018092005 0.036919709 0.18461698
-0.018365856 0.034112308 0.18647152
-0.018865483 0.03133722 0.18876776
-0.019424753 0.028262125 0.19126126
-0.019495014 0.024055468 0.19481497
-0.019737888 0.020264769 0.19715336
-0.020114964 0.016486071 0.19939347
-0.019811025 0.012729087 0.20168917
-0.019408805 0.0089810668 0.2041443
-0.019588461 0.0056963353 0.20722908
-0.020155316 0.0024752454 0.21013509
-0.020864069 -0.00014634337 0.21302713
-0.021418937 -0.0028857249 0.21564922
-0.02191606 -0.0057227239 0.21905524
-0.022273952 -0.0088856649 0.22185761
-0.02239125 -0.012521625 0.22351405
-0.023122404 -0.016472505 0.22664188
-0.022797517 -0.01992383 0.22652435
-0.022943132 -0.023507087 0.22768638
-0.023315672 -0.026222199 0.23147921
-0.015639203 0.04015106 0.18461727
-0.015214122 0.037282519 0.18597123
-0.015467765 0.034424853 0.1875232
-0.015758958 0.03172883 0.18959637
-0.015797745 0.028613193 0.19194619
-0.015878016 0.024821365 0.19603612
-0.016933434 0.020468308 0.19876471
-0.016914802 0.0171196 0.2009526
-0.016646201 0.013774069 0.20281532
-0.016530482 0.010510004 0.20585486
-0.016531648 0.007369197 0.2086028
-0.017065685 0.0038571192 0.2117621
-0.01757036 0.00057972962 0.21489848
-0.017964164 -0.0023430681 0.21817385
-0.018412653 -0.0052391938 0.22136296
-0.018726289 -0.0084864199 0.22351603
-0.018809058 -0.012134295 0.22491996
-0.019218879 -0.015845403 0.22662945
-0.019357849 -0.019341053 0.22731349
-0.019364785 -0.023172041 0.22899786
-0.019761629 -0.026427574 0.2329693
-0.01263025 0.03743396 0.18712607
-0.012369368 0.034860507 0.18860474
-0.012532503 0.032092366 0.19061695
-0.012507803 0.028946983 0.19226851
-0.011991248 0.025384003 0.19633777
-0.012398621 0.021469858 0.20011832
-0.013546664 0.017573548 0.20301574
-0.013675256 0.014528936 0.20506969
-0.01360102 0.011627557 0.20767042
-0.013562243 0.0085315472 0.21018878
-0.014009684 0.0048767696 0.21346658
-0.014271626 0.0013382084 0.21648289
-0.014543915 -0.0015590764 0.21958466
-0.014740157 -0.0046391995 0.22279005
-0.014802358 -0.0080447821 0.2245374
-0.015206865 -0.011999329 0.22534585
-0.01540661 -0.01569703 0.22699387
-0.015565651 -0.019396059 0.22808459
-0.016062068 -0.023233443 0.23092829
-0.015822377 -0.026124651 0.23457678
-0.0099593867 0.034782019 0.18937229
-0.0093382066 0.032375589 0.19137567
-0.0088805808 0.029187463 0.19370565
-0.0085812472 0.025679747 0.19706903
-0.0091274222 0.021966312 0.20115177
-0.0098692738 0.018430753 0.20443134
-0.010314774 0.015314087 0.20663494
-0.010422269 0.012481268 0.20879976
-0.010362628 0.0095689166 0.2108901
-0.010652045 0.0062451372 0.21451062
-0.010634905 0.0022221361 0.21744281
-0.0106945 -0.00092406041 0.22049499
-0.010786364 -0.0043699667 0.22299774
-0.010838975 -0.0078961123 0.22500712
-0.010944923 -0.011671378 0.22495596
-0.011253306 -0.015618969 0.22782461
-0.011297642 -0.018914143 0.2292529
-0.011589799 -0.02388948 0.23363543
-0.0058313091 0.031840134 0.19382919
-0.0054389588 0.029041115 0.1960668
-0.0055436487 0.025150515 0.19883646
-0.0062795449 0.02294929 0.20121345
-0.0063125161 0.018675476 0.2052892
-0.0066526518 0.015937511 0.20731489
-0.0068090241 0.013208929 0.20948544
-0.0065437551 0.010305667 0.2119689
-0.007103492 0.0071897148 0.21512802
-0.0068833004 0.0028938847 0.21815351
-0.007085152 -0.00055413571 0.22186282
-0.0069064703 -0.0042355345 0.22281742
-0.006997372 -0.0078133354 0.22494367
-0.0070122476 -0.011589826 0.2255047
-0.0072310362 -0.015415306 0.22794154
-0.0081438264 -0.01907262 0.23002335
-0.0093439287 -0.022295166 0.23200551
-0.0021213428 0.028477358 0.19819841
-0.0023275171 0.02507594 0.19960937
-0.0014083774 0.021923849 0.2016314
-0.002229061 0.019191815 0.20462123
-0.002403385 0.016008256 0.20731854
-0.0024149052 0.013426629 0.20998745
-0.0024044106 0.010598938 0.21281175
-0.0030600394 0.0032163723 0.21844465
-0.0031443026 -0.00044059931 0.22197191
-0.0031410742 -0.0042182761 0.22280927
-0.0032082635 -0.0079573588 0.22436294
-0.0038350732 -0.011591831 0.22537342
-0.004692656 -0.014679748 0.22764686
0.00055532379 0.027544847 0.19894679
0.00073542533 0.024930947 0.19986162
0.0011049253 0.022004578 0.20151773
0.0014523282 0.019124806 0.20420691
0.0015006582 0.015981959 0.20707034
0.0013824477 0.013334491 0.21000582
0.0013169505 0.0107699 0.21272166
0.00080415007 0.0079288417 0.21542343
0.00086911354 0.0040546148 0.21738571
0.00014421638 -0.00011438016 0.22058877
-0.00044393729 -0.0038538787 0.22274087
0.0032198324 0.024571178 0.20007877
0.0044866665 0.022260854 0.20144644
0.0046633002 0.019111786 0.20405398
0.0044324985 0.016185174 0.20667557
0.0042474363 0.013695193 0.20950228
0.004038176 0.011864882 0.21183613
0 0 0 1 0 0 0 1 0 0 0 1 0 0 0 0 0 348 1 0 0
