ply
format ascii 1.0
comment PCL generated
element vertex 348
property float x
property float y
property float z
element camera 1
property float view_px
property float view_py
property float view_pz
property float x_axisx
property float x_axisy
property float x_axisz
property float y_axisx
property float y_axisy
property float y_axisz
property float z_axisx
property float z_axisy
property float z_axisz
property float focal
property float scalex
property float scaley
property float centerx
property float centery
property int viewportx
property int viewporty
property float k1
property float k2
end_header
-0.055311687 0.028102303 0.18487163
-0.056156896 0.025684671 0.18671919
-0.056717154 0.022429463 0.18891494
-0.057178542 0.019065302 0.19121218
-0.057739593 0.015667779 0.19341411
-0.057881318 0.012570658 0.19489075
-0.057780489 0.0094574355 0.19624843
-0.051369715 0.030494524 0.18123549
-0.052496053 0.028865715 0.18248378
-0.052831046 0.026013672 0.18394338
-0.053386416 0.022654567 0.1860562
-0.053883422 0.018884275 0.18884104
-0.054548204 0.015213868 0.19120315
-0.055255655 0.01182723 0.19325513
-0.055703666 0.0085023455 0.1951075
-0.055396277 0.0048231399 0.19692241
-0.05524376 0.0014253834 0.19892041
-0.047765769 0.033592653 0.17880747
-0.048443832 0.031643569 0.17961526
-0.04864753 0.029173249 0.18055269
-0.04919187 0.026448896 0.18176436
-0.05012469 0.022934385 0.18476133
-0.050491747 0.017985189 0.18853599
-0.05128016 0.014204041 0.19053498
-0.0520995 0.010911023 0.19208281
-0.052356832 0.0075030862 0.19444689
-0.052727453 0.0036891082 0.19632053
-0.05316006 0.00026929373 0.1981822
-0.05360774 -0.0018899919 0.20107643
-0.053409781 -0.0034331195 0.20357326
-0.05306394 -0.0045929574 0.20548917
-0.045317002 0.034756806 0.1780943
-0.045396414 0.032156158 0.17881069
-0.045663889 0.029562168 0.17996345
-0.04612577 0.027070792 0.18163294
-0.046854775 0.023757128 0.18378767
-0.047574535 0.016578179 0.18839425
-0.048511371 0.012698487 0.19080292
-0.04936349 0.009328641 0.1918706
-0.049871515 0.0053295898 0.19392216
-0.050483037 0.0015941765 0.19466479
-0.050531309 -0.001207668 0.19704027
-0.050496697 -0.002530165 0.19971059
-0.050432045 -0.0034228798 0.20354085
-0.05107566 -0.0053237984 0.20639034
-0.051543407 -0.0076930113 0.20934311
-0.05113595 -0.01050162 0.21353367
-0.04209758 0.038269538 0.17731515
-0.042517576 0.035631739 0.17822866
-0.042586006 0.032764189 0.17915757
-0.042802751 0.030160934 0.18034951
-0.043439917 0.027403021 0.18224788
-0.043944322 0.024192221 0.18408641
-0.044768281 0.017347855 0.18697877
-0.046699606 0.011296905 0.18946053
-0.04727963 0.0073441803 0.19135813
-0.047858331 0.0028828238 0.19300428
-0.048473272 -0.0015037281 0.1931508
-0.048532482 -0.0029966149 0.19507395
-0.047457047 -0.0026821599 0.19892871
-0.047106199 -0.0037950701 0.20338972
-0.047403216 -0.0057809493 0.20674933
-0.048450943 -0.0083545502 0.21046276
-0.049146261 -0.011308887 0.21302375
-0.049903028 -0.013360913 0.2177147
-0.039377823 0.039720401 0.17716758
-0.040210284 0.0362917 0.17876667
-0.039748084 0.033479296 0.17978831
-0.040138759 0.03078524 0.18100114
-0.040577006 0.028035369 0.18260816
-0.040909786 0.024850169 0.18427399
-0.04174133 0.019609353 0.18627457
-0.044963032 0.0099926637 0.18909632
-0.045189019 0.0056932592 0.19062957
-0.04537335 0.0009157359 0.19140264
-0.045777384 -0.0029348854 0.19167824
-0.045001261 -0.0037001844 0.19480649
-0.043857273 -0.003095398 0.19909826
-0.04374278 -0.0043008653 0.2033353
-0.043971844 -0.0066384086 0.20709629
-0.044643033 -0.0092902919 0.2108987
-0.045731619 -0.011825101 0.21374257
-0.047092136 -0.013531703 0.21835802
-0.047471896 -0.016216189 0.22229327
-0.047003645 -0.018986933 0.22490159
-0.03586759 0.04231374 0.17596143
-0.036352761 0.040482242 0.17759663
-0.035682984 0.037717558 0.17926979
-0.036797728 0.03480893 0.18019679
-0.037258331 0.03180806 0.18156114
-0.037723292 0.028519338 0.18331999
-0.037573583 0.025305573 0.18483683
-0.039358061 0.019300675 0.18681233
-0.04256003 0.0096601201 0.18856549
-0.042432059 0.0053232536 0.18975523
-0.042250264 0.00043867234 0.18985775
-0.041804593 -0.0028235461 0.19157566
-0.040582307 -0.0034648962 0.19539309
-0.040011015 -0.0034712756 0.19908477
-0.040199686 -0.0050463728 0.20321152
-0.040776528 -0.0078829946 0.20595253
-0.0419189 -0.0098821633 0.20960781
-0.043387722 -0.011859033 0.21246542
-0.043414053 -0.013909543 0.21715096
-0.043636516 -0.016788282 0.22087851
-0.044458017 -0.019668004 0.2244931
-0.044162575 -0.021952493 0.22639723
-0.033415213 0.042719584 0.17621419
-0.033385534 0.041015219 0.17798163
-0.033462279 0.038295045 0.1794979
-0.033785984 0.035331931 0.18049628
-0.033922713 0.032494981 0.18213791
-0.034294467 0.02916209 0.18457334
-0.03407887 0.025663693 0.18591759
-0.036739171 0.018829511 0.18744124
-0.039526526 0.010585787 0.18823452
-0.038606789 0.0057295519 0.18974116
-0.038351722 0.001426848 0.18964815
-0.03708845 -0.0019602675 0.19176875
-0.036000453 -0.0025740017 0.19589965
-0.036091179 -0.004164956 0.19931965
-0.03691576 -0.0059745139 0.20254715
-0.037563812 -0.0082194591 0.2051132
-0.038997658 -0.0096973293 0.20991641
-0.040503934 -0.012023713 0.21304362
-0.040074233 -0.014169469 0.21688344
-0.040006366 -0.016951213 0.22010452
-0.040484231 -0.019952731 0.22343735
-0.040801071 -0.022587951 0.22601756
-0.030506281 0.043015826 0.17681135
-0.030534761 0.041404348 0.17810081
-0.030768557 0.038592141 0.18008828
-0.030973209 0.035370253 0.18170209
-0.030915085 0.032651648 0.18320353
-0.031038761 0.029465238 0.18548702
-0.030865351 0.025545271 0.18746273
-0.031521682 0.021205664 0.18883318
-0.035791736 0.012686906 0.18846114
-0.034852643 0.0071451091 0.19072904
-0.03254376 0.0037681644 0.19310777
-0.031987257 0.001408987 0.19564457
-0.032755163 -0.00078968931 0.1982321
-0.032986529 -0.0030366252 0.20084609
-0.033643782 -0.0052477079 0.20398863
-0.034481999 -0.0074990764 0.20649877
-0.035919625 -0.009192517 0.21108922
-0.037290271 -0.011580545 0.2144237
-0.037035622 -0.013538965 0.21745835
-0.036689166 -0.016030615 0.22071029
-0.037287354 -0.020091588 0.22306076
-0.036810253 -0.022577571 0.22567692
-0.027513266 0.043404508 0.17732392
-0.027602775 0.041672289 0.17868918
-0.027730081 0.03885705 0.18050809
-0.027888365 0.03576833 0.18251348
-0.027835596 0.032915518 0.18403487
-0.028115124 0.029803932 0.1864565
-0.028110746 0.026118351 0.18860595
-0.027969923 0.022628216 0.18997832
-0.030987838 0.016156433 0.19091363
-0.031197308 0.0092047146 0.1930607
-0.028272048 0.0057257661 0.19553076
-0.028207524 0.0029179933 0.19827972
-0.028912399 0.00054361101 0.20035465
-0.029676205 -0.0005654422 0.20184973
-0.031145768 -0.0043368968 0.20602871
-0.031654008 -0.0061339699 0.2081873
-0.032968406 -0.0082863821 0.21241735
-0.034192212 -0.01077598 0.21576408
-0.033523615 -0.012631684 0.21873243
-0.033348899 -0.01542399 0.22280867
-0.033001192 -0.018741352 0.22469832
-0.033421896 -0.022501584 0.22683492
-0.0332787 -0.024462258 0.22973377
-0.024567675 0.043710098 0.1783167
-0.024724029 0.041960195 0.17955618
-0.024621619 0.039257698 0.18076089
-0.024696644 0.036113072 0.18270352
-0.024829166 0.033202462 0.18467802
-0.02518869 0.030158652 0.18724912
-0.025291789 0.026657362 0.18976787
-0.025352579 0.022982622 0.19138858
-0.026437502 0.018516483 0.19334184
-0.027418552 0.011647693 0.19470793
-0.02502102 0.0080331489 0.19853751
-0.024601558 0.0046015894 0.20024362
-0.024694895 0.0021649115 0.20295358
-0.025584666 0.00014840884 0.20562983
-0.027141124 -0.0022548772 0.20845135
-0.028632343 -0.0048078946 0.21116982
-0.029815899 -0.0073673287 0.21427661
-0.030016346 -0.0097825667 0.21775645
-0.029645668 -0.012391486 0.22052714
-0.029834751 -0.015478784 0.2241087
-0.029804422 -0.019057322 0.22611044
-0.030019013 -0.022776084 0.22801854
-0.030176876 -0.024999144 0.23086458
-0.022443764 0.044237867 0.17868982
-0.021844719 0.042180855 0.18058184
-0.021390824 0.039804175 0.18180566
-0.021351667 0.03670048 0.18318301
-0.021521498 0.033533674 0.18562151
-0.022109967 0.030784138 0.18785039
-0.022505121 0.027129391 0.19071433
-0.022581151 0.02340932 0.19317015
-0.022878015 0.019880576 0.19557564
-0.022978922 0.015277322 0.19822602
-0.022430362 0.010405004 0.20052458
-0.021926222 0.0067333733 0.20277248
-0.022193108 0.0040554376 0.20539455
-0.02306656 0.0012346978 0.20818757
-0.024125541 -0.0013340095 0.21086243
-0.024885219 -0.0038307363 0.2132737
-0.025586715 -0.0063991924 0.21628562
-0.02580006 -0.009294779 0.21986355
-0.026057255 -0.012610504 0.22172444
-0.026696432 -0.016069252 0.22533447
-0.02638736 -0.019483693 0.22673269
-0.026600527 -0.023291664 0.2286202
-0.026759649 -0.025870197 0.2315796
-0.018305985 0.042201892 0.18194209
-0.018752379 0.039380964 0.18341658
-0.018120121 0.036854345 0.18464336
-0.018411539 0.03404732 0.1865235
-0.018910291 0.03127604 0.18883507
-0.019476093 0.028215269 0.19133051
-0.019546114 0.024011282 0.19487962
-0.019767504 0.020216363 0.197191
-0.020135591 0.016428001 0.19939083
-0.019810917 0.012652809 0.20164613
-0.019373123 0.0088762911 0.20406368
-0.01953084 0.0055524693 0.20714043
-0.020102018 0.0023102346 0.21004237
-0.020830277 -0.00032877811 0.21296202
-0.021393206 -0.003054963 0.2155818
-0.02188791 -0.0059040627 0.21897367
-0.022247158 -0.0090466142 0.22182201
-0.022408163 -0.012626166 0.22357021
-0.023190254 -0.016531378 0.22675425
-0.02285848 -0.019992037 0.22660299
-0.023001494 -0.023563819 0.22777067
-0.023355372 -0.026265506 0.23155479
-0.015656216 0.040087812 0.18462935
-0.015228031 0.037212197 0.18597493
-0.015488511 0.034349971 0.18754062
-0.015791055 0.031662922 0.18962851
-0.015824366 0.02856767 0.19199556
-0.015915388 0.024796387 0.1960894
-0.016984846 0.020445256 0.19880857
-0.01695512 0.017070949 0.20096646
-0.01666332 0.01370949 0.2027989
-0.016513342 0.010407387 0.2057886
-0.016511919 0.0072578741 0.20853427
-0.017062617 0.0037452125 0.21171705
-0.017580505 0.00045150763 0.21486524
-0.017967794 -0.0024797483 0.2181422
-0.018402308 -0.0053821597 0.22132711
-0.018712411 -0.0086219013 0.22348794
-0.018824581 -0.012232761 0.22497292
-0.019270804 -0.015905511 0.22673465
-0.019415891 -0.019397067 0.22739114
-0.019416442 -0.023223814 0.22905888
-0.019795932 -0.026474426 0.23302858
-0.012635027 0.037361942 0.18711686
-0.012378574 0.034779284 0.18859543
-0.012544653 0.032019369 0.19061866
-0.012525117 0.028888755 0.1923009
-0.011996226 0.0253588 0.19639628
-0.012428062 0.021448791 0.20019004
-0.013592818 0.01752213 0.20303899
-0.013690865 0.014450109 0.2050478
-0.013589385 0.011532634 0.20760769
-0.013548886 0.0084321825 0.21012568
-0.014028727 0.0047952193 0.21344393
-0.014304919 0.0012514307 0.21649475
-0.014566486 -0.0016436442 0.21959677
-0.014741662 -0.0047171754 0.22280297
-0.014785058 -0.0081250239 0.22454147
-0.015235568 -0.012078568 0.22538503
-0.015443743 -0.015752455 0.22705412
-0.015605865 -0.019440718 0.22813198
-0.016101303 -0.023272691 0.23096162
-0.015848279 -0.026166474 0.2346101
-0.0099647548 0.034699295 0.1893546
-0.0093460148 0.032293208 0.19136481
-0.0088822739 0.029122412 0.19373591
-0.0085769575 0.025627906 0.19712433
-0.0091206338 0.021924354 0.20118855
-0.0098887421 0.018357936 0.20443086
-0.010328387 0.015217515 0.20660014
-0.010423372 0.012388658 0.20874442
-0.010357618 0.0094948914 0.21084408
-0.01067883 0.0061852504 0.21451038
-0.010681885 0.0021790052 0.21747875
-0.010716124 -0.00096157024 0.22052139
-0.010781928 -0.0044096401 0.22301586
-0.010816301 -0.0079402151 0.22501011
-0.010951118 -0.011721434 0.22497749
-0.011272106 -0.015665224 0.22785719
-0.011320523 -0.018955469 0.22928581
-0.011619841 -0.023931043 0.2336679
-0.0058052968 0.031751562 0.19383866
-0.0054103029 0.028948301 0.19607018
-0.0055195363 0.025044957 0.19880721
-0.0062579373 0.022874314 0.20120682
-0.0063077142 0.01857559 0.20524617
-0.0066559194 0.015822018 0.20725252
-0.0068211472 0.013131021 0.20943208
-0.0065546506 0.010265371 0.21196201
-0.007128722 0.0071790223 0.21513812
-0.0069213021 0.00287576 0.21817917
-0.0070984545 -0.00057865947 0.22188085
-0.0069009247 -0.0042689443 0.22281046
-0.0069874735 -0.0078609455 0.22493127
-0.0070163887 -0.011644344 0.22550444
-0.0072452896 -0.015466725 0.22795929
-0.0081654368 -0.019114682 0.230049
-0.0093723955 -0.022336716 0.23204657
-0.002076502 0.028320918 0.19812967
-0.0023024019 0.024916817 0.19951883
-0.0013967094 0.02175786 0.20152049
-0.002216656 0.019050965 0.20452422
-0.0023992334 0.015898671 0.20726852
-0.0024133816 0.01335824 0.20997235
-0.0024029496 0.010567233 0.21282881
-0.0030840195 0.0032056789 0.21845205
-0.0031530014 -0.00046047516 0.2219647
-0.0031382318 -0.0042522433 0.22278197
-0.0032066491 -0.0080109155 0.22433724
-0.0038394441 -0.011657787 0.22536844
-0.0047040503 -0.014737124 0.22765249
0.00058554829 0.027345102 0.19882812
0.00074807199 0.024730576 0.19972669
0.0011166558 0.021805281 0.20139478
0.0014685713 0.018973578 0.20413238
0.0015130688 0.015881212 0.20704415
0.001388299 0.013261891 0.21000554
0.0013215912 0.01072661 0.21273054
0.00080430094 0.0079029026 0.21544668
0.00087247451 0.004033091 0.2173951
0.00013978936 -0.00013172488 0.22056039
-0.00044095158 -0.0038967268 0.22270142
0.0032224921 0.024349451 0.19992946
0.0045058141 0.022065407 0.20134853
0.0046758507 0.018965462 0.20402066
0.0044395644 0.016077038 0.2066531
0.0042565921 0.013616689 0.20949526
0.0040457617 0.011799855 0.21184251
0 0 0 1 0 0 0 1 0 0 0 1 0 0 0 0 0 348 1 0 0
