ply
format ascii 1.0
comment PCL generated
element vertex 348
property float x
property float y
property float z
element camera 1
property float view_px
property float view_py
property float view_pz
property float x_axisx
property float x_axisy
property float x_axisz
property float y_axisx
property float y_axisy
property float y_axisz
property float z_axisx
property float z_axisy
property float z_axisz
property float focal
property float scalex
property float scaley
property float centerx
property float centery
property int viewportx
property int viewporty
property float k1
property float k2
end_header
-0.055313922 0.026378158 0.18353897
-0.056155901 0.024053914 0.18556322
-0.056677539 0.020915233 0.18821602
-0.057069715 0.017764965 0.19081996
-0.057472929 0.014593489 0.19333905
-0.057416122 0.011721478 0.19506422
-0.05720995 0.0085965972 0.19696116
-0.051572174 0.028400663 0.17919102
-0.052603487 0.026945427 0.18079908
-0.052878361 0.024222955 0.18266582
-0.053404275 0.021002531 0.18521966
-0.053887431 0.017427506 0.18843408
-0.054449018 0.013998995 0.19126529
-0.055037446 0.010819912 0.19382054
-0.055286955 0.0077878963 0.19642901
-0.054654691 0.0037039309 0.19817559
-0.054420616 0.00044074541 0.20028922
-0.047957938 0.031436149 0.17654662
-0.048650108 0.02957637 0.17752105
-0.04884192 0.027237695 0.17872801
-0.049336579 0.024651945 0.18019794
-0.050229937 0.021271998 0.18366306
-0.050484397 0.016514027 0.18828115
-0.051135238 0.012946014 0.19098324
-0.051797535 0.0099977087 0.19353299
-0.051989805 0.0064255218 0.19598164
-0.05204631 0.0022881136 0.1977787
-0.052409958 -0.00086490548 0.19975339
-0.052894477 -0.002784278 0.2026487
-0.052525088 -0.004015462 0.20505591
-0.052447759 -0.0054267566 0.20669866
-0.045531135 0.032822829 0.17631045
-0.045582969 0.030260589 0.17713796
-0.04591528 0.027761729 0.17839624
-0.046450954 0.025434278 0.18015811
-0.047279347 0.022261636 0.18256518
-0.047513932 0.015183358 0.18858345
-0.048313685 0.011532329 0.1915894
-0.049004834 0.0082938997 0.19370548
-0.049397573 0.0036570064 0.19541813
-0.049739052 3.789358e-05 0.19645979
-0.04988239 -0.0023230913 0.19886754
-0.049903579 -0.0034443184 0.20143287
-0.04969174 -0.0040331925 0.20509483
-0.050441969 -0.0059768218 0.20765182
-0.051019926 -0.008455364 0.21048962
-0.050588615 -0.011680195 0.21373084
-0.042421978 0.036719482 0.17604558
-0.04281098 0.034010414 0.17685498
-0.042925648 0.03111461 0.17784123
-0.043204196 0.02859351 0.17910519
-0.043915071 0.02594642 0.18101254
-0.044500027 0.022804141 0.18296218
-0.044953428 0.015885968 0.18695363
-0.046398465 0.010028629 0.19128123
-0.046944987 0.005846072 0.19322214
-0.047284808 0.0010735415 0.19480143
-0.047657665 -0.0031460691 0.19513655
-0.047823582 -0.0042033526 0.19697259
-0.046766318 -0.0035971915 0.20026881
-0.046389949 -0.0045099203 0.20477261
-0.046670772 -0.0064837812 0.20792277
-0.047832843 -0.0095289592 0.21063954
-0.048692033 -0.012513718 0.21324685
-0.049869258 -0.01450696 0.21821392
-0.039748851 0.038495567 0.17628762
-0.040624399 0.034968253 0.177809
-0.040241394 0.032155871 0.17887546
-0.040675469 0.029482778 0.18013015
-0.041151214 0.026795384 0.18173794
-0.041529905 0.023641126 0.18348494
-0.042236101 0.018296815 0.18582149
-0.044819448 0.0083934246 0.19097251
-0.044943094 0.003883556 0.19252332
-0.044712082 -0.00090149173 0.19340046
-0.045135148 -0.0044420143 0.19359939
-0.044414334 -0.0049694348 0.19649012
-0.043270785 -0.0040827901 0.20015293
-0.0430752 -0.0051464415 0.20442191
-0.043270674 -0.0075628133 0.20799522
-0.043928731 -0.010659969 0.21074861
-0.045344155 -0.013113399 0.21393728
-0.047259618 -0.014526137 0.21924369
-0.047955841 -0.016752606 0.22358222
-0.04757027 -0.019185401 0.22656646
-0.036162999 0.041254148 0.17509356
-0.036703207 0.039481729 0.17689951
-0.036101602 0.036971863 0.17916632
-0.037284818 0.034108106 0.18019168
-0.037790105 0.0309733 0.18137872
-0.038305618 0.027519966 0.18284889
-0.038133364 0.024266707 0.18433934
-0.039825909 0.018108997 0.18660761
-0.042654574 0.007853427 0.19011597
-0.04234381 0.003402988 0.19139147
-0.041748237 -0.0014075608 0.19155742
-0.041247383 -0.0045338185 0.19302019
-0.039985992 -0.0049965675 0.19649956
-0.039304901 -0.0047210758 0.19954535
-0.039499246 -0.0063642343 0.20356596
-0.040162764 -0.0090559963 0.20640823
-0.041372612 -0.011534659 0.20919789
-0.043050192 -0.013145979 0.2123803
-0.043513816 -0.014872569 0.21842405
-0.04394367 -0.017372793 0.22259112
-0.04502314 -0.019861847 0.2264431
-0.044794597 -0.021949906 0.22853786
-0.033729766 0.041845102 0.17550147
-0.033743061 0.040208023 0.17745642
-0.033878669 0.03771998 0.17962694
-0.034286417 0.03490404 0.1808688
-0.034310807 0.031969469 0.18231378
-0.034563206 0.028443081 0.18453708
-0.034228761 0.024824968 0.18582225
-0.037285876 0.017560044 0.18753214
-0.039999511 0.0088861622 0.18924615
-0.038832422 0.003900171 0.19057572
-0.038139019 -0.00067652634 0.19071591
-0.036572166 -0.0039830729 0.19244877
-0.035397507 -0.0043373005 0.1959265
-0.035446238 -0.0059152534 0.19901709
-0.036307178 -0.0076973946 0.2024094
-0.036971606 -0.009809481 0.20517138
-0.038459435 -0.011529186 0.20948172
-0.040244233 -0.013306215 0.21314836
-0.040174685 -0.015063415 0.2184086
-0.040376976 -0.017461397 0.22229305
-0.04093885 -0.020145046 0.22573276
-0.041455366 -0.022620866 0.22840634
-0.030884555 0.042341668 0.17629436
-0.030918859 0.040769391 0.17767105
-0.031138299 0.037889548 0.17999919
-0.0313503 0.034681384 0.18168519
-0.031154608 0.031901244 0.18309726
-0.03103523 0.028539689 0.18515216
-0.030822981 0.024535483 0.18738963
-0.031406887 0.020023055 0.18881124
-0.036622815 0.011385106 0.18896332
-0.035224102 0.0057712826 0.19075233
-0.032326628 0.0024163385 0.19269973
-0.031253673 -0.0004176494 0.19509859
-0.031828772 -0.0028507714 0.1976441
-0.032069046 -0.0052260305 0.2001714
-0.032837544 -0.0073828585 0.20349964
-0.033751622 -0.0093937749 0.20637511
-0.035424948 -0.010980043 0.21067192
-0.037099291 -0.012782698 0.21473412
-0.037306271 -0.014344982 0.21914467
-0.037372254 -0.016421702 0.22335583
-0.037937202 -0.020196985 0.22595394
-0.037504185 -0.022745822 0.22822656
-0.027954988 0.042863786 0.17700817
-0.028016221 0.04108502 0.17833841
-0.028026573 0.038049601 0.18002541
-0.028098039 0.034721401 0.18182784
-0.02788637 0.031826187 0.18336514
-0.028043181 0.028741712 0.1858916
-0.028014932 0.025154265 0.18845633
-0.027620977 0.021549307 0.18980856
-0.031008346 0.014841961 0.19034956
-0.031336721 0.0077364966 0.19177815
-0.027936371 0.0045662173 0.19497284
-0.027440285 0.0014789099 0.1975421
-0.027817959 -0.0013728915 0.19945286
-0.028360788 -0.0029427169 0.2008616
-0.030076364 -0.0067906827 0.20530891
-0.030807422 -0.0082831103 0.20775385
-0.0324963 -0.0099185044 0.2119721
-0.034033481 -0.011804191 0.21615402
-0.033993073 -0.01326248 0.22083643
-0.034304749 -0.015431973 0.22601034
-0.033994582 -0.018691683 0.2280965
-0.034197845 -0.022757677 0.2295441
-0.033920664 -0.024931096 0.23218326
-0.025050417 0.043211378 0.17798437
-0.025127992 0.041371007 0.17912088
-0.024871014 0.03850336 0.18010692
-0.024814874 0.034999955 0.1817641
-0.024807373 0.032118767 0.18388064
-0.025119947 0.029149374 0.18671541
-0.025210189 0.02574054 0.18953276
-0.024983518 0.021977535 0.19112346
-0.025576949 0.017171342 0.1926402
-0.027233455 0.010316641 0.19353811
-0.024539623 0.0067164437 0.1974743
-0.024078522 0.0035108086 0.19968916
-0.023839546 0.00083350978 0.20226546
-0.024530351 -0.0018203207 0.20479625
-0.026060693 -0.0045086835 0.20761476
-0.027911866 -0.0068020732 0.21013094
-0.029474337 -0.0087784678 0.21362948
-0.030027701 -0.010712767 0.2179075
-0.030127488 -0.012661478 0.22254102
-0.030767644 -0.015300313 0.22741312
-0.030728582 -0.019076616 0.22936685
-0.030705817 -0.02296404 0.2306249
-0.030649062 -0.025256051 0.23327178
-0.022956613 0.043806635 0.17838976
-0.022209249 0.041665908 0.18011706
-0.02164303 0.039228432 0.18122286
-0.021489726 0.03596152 0.18257914
-0.021638427 0.032705732 0.18522868
-0.022172533 0.029965254 0.18751301
-0.022488089 0.026350692 0.19054542
-0.022332733 0.022648461 0.19302276
-0.022253554 0.018983761 0.19511026
-0.022250621 0.014283232 0.19716933
-0.022066608 0.0094590504 0.19967905
-0.021519132 0.0057174922 0.20197517
-0.021614719 0.002864958 0.2044989
-0.022356749 -0.00037695476 0.20712328
-0.023508703 -0.0031373599 0.209804
-0.024270773 -0.0056162477 0.21241696
-0.025152119 -0.0080349734 0.21555381
-0.025671853 -0.010487506 0.21987084
-0.026307916 -0.013142525 0.22302146
-0.02736997 -0.015970467 0.22802928
-0.02703323 -0.019597044 0.22931939
-0.027075987 -0.023538038 0.23084107
-0.027115343 -0.02613426 0.23360722
-0.018612759 0.041805703 0.18166541
-0.018983494 0.038943902 0.18321204
-0.018403443 0.036442291 0.18479124
-0.018724447 0.033538695 0.18666779
-0.019061876 0.030618846 0.18882039
-0.019558335 0.027557798 0.19124365
-0.019524399 0.023549622 0.194985
-0.019415621 0.019590072 0.19685405
-0.019779211 0.015712058 0.19867294
-0.019493394 0.011885704 0.2008837
-0.019211886 0.0081452187 0.2034207
-0.019501014 0.0047482611 0.20667838
-0.019901238 0.001214013 0.20945215
-0.020557377 -0.0017910856 0.21241197
-0.021070886 -0.0045447932 0.21494401
-0.021576302 -0.0074351686 0.21831019
-0.021991722 -0.01031353 0.2217086
-0.022437356 -0.013334763 0.22435839
-0.023563024 -0.016745957 0.22859576
-0.023368997 -0.020358894 0.22846553
-0.023538699 -0.023953103 0.2295583
-0.023713792 -0.02663289 0.23314403
-0.01585127 0.03967829 0.18471725
-0.015319709 0.036731828 0.18595263
-0.015541058 0.033757795 0.18742399
-0.015819935 0.031073391 0.18944612
-0.015776381 0.0281532 0.19199879
-0.015973626 0.024681253 0.19642332
-0.016896615 0.020054368 0.19867191
-0.016944503 0.016501127 0.20067407
-0.016654246 0.013138647 0.20248415
-0.016636871 0.0098108118 0.20540954
-0.016895145 0.0068028718 0.20841686
-0.017470071 0.0032062174 0.21169917
-0.017816175 -0.0004303173 0.21471825
-0.017933168 -0.0036309634 0.21778329
-0.018209875 -0.0067338408 0.22079968
-0.018420404 -0.0098899202 0.22310467
-0.018759074 -0.013103067 0.22530124
-0.019493101 -0.016383179 0.22766732
-0.01984028 -0.019872844 0.22846238
-0.019831723 -0.023691922 0.23015755
-0.020007331 -0.026994206 0.23415464
-0.012632756 0.036867514 0.18697941
-0.012308148 0.034148369 0.18832016
-0.012407194 0.031415675 0.1903522
-0.012382231 0.028445672 0.19240652
-0.01187197 0.025384745 0.19710259
-0.012556301 0.021712149 0.20144325
-0.013851251 0.017175624 0.20332083
-0.013846792 0.013918811 0.20492803
-0.01374216 0.010939755 0.20729506
-0.013939688 0.0079525914 0.21000719
-0.014720075 0.0045578475 0.21366882
-0.014711689 0.00067961396 0.21666351
-0.014690877 -0.0024646507 0.21956193
-0.014670501 -0.0055870768 0.22269772
-0.014575139 -0.0090355128 0.22434427
-0.015324102 -0.01287365 0.22539203
-0.01562977 -0.016271427 0.22721812
-0.015812807 -0.019898152 0.22820334
-0.016330943 -0.023769431 0.23139694
-0.015912613 -0.026742201 0.23516257
-0.0098391399 0.034057382 0.18904772
-0.0091276905 0.031645168 0.19115137
-0.0086162221 0.028707961 0.19415759
-0.0083464952 0.025591141 0.19820097
-0.0090367636 0.022117404 0.2026494
-0.0099642621 0.017865159 0.20505665
-0.010364373 0.014296168 0.20625113
-0.010514932 0.01151663 0.20822066
-0.010625212 0.0089213541 0.21061675
-0.011415079 0.0060345759 0.21482646
-0.011073836 0.0017878441 0.21782044
-0.010853001 -0.0014299892 0.22072962
-0.010775373 -0.0048692715 0.2232423
-0.01075008 -0.0083300816 0.22531246
-0.011023946 -0.012020088 0.22540884
-0.01133876 -0.016033387 0.22804052
-0.011362574 -0.019367602 0.22925457
-0.011717432 -0.024498606 0.23379877
-0.0053011132 0.031338751 0.19440545
-0.004952413 0.028731687 0.19708493
-0.0051313024 0.02492426 0.20005897
-0.0060377168 0.022886364 0.20270377
-0.0062090568 0.01789077 0.20572093
-0.0065334383 0.014593404 0.20676111
-0.0068586604 0.012070973 0.20872749
-0.0067563304 0.009618653 0.2117583
-0.0076327375 0.0070202188 0.21527527
-0.0071034017 0.0025213254 0.21846488
-0.0072083529 -0.0009044396 0.22222532
-0.0069293221 -0.0045842258 0.22318634
-0.0070446455 -0.0081247222 0.22545877
-0.0071196137 -0.011859545 0.22616483
-0.0073571396 -0.01573297 0.22849372
-0.008209602 -0.01945748 0.23020919
-0.0094378078 -0.022806885 0.23216163
-0.0016065858 0.028061567 0.19953898
-0.0018616692 0.024633231 0.20083795
-0.0009850401 0.021335417 0.20252614
-0.0019508261 0.018413529 0.20508103
-0.0022617967 0.015031942 0.20759374
-0.0023580652 0.012523495 0.21028252
-0.0024588262 0.0099843396 0.21334483
-0.0031835821 0.0029575878 0.21891555
-0.0032565224 -0.00070095918 0.22238676
-0.0032161612 -0.0044522164 0.2233368
-0.0033193624 -0.0081949299 0.22503483
-0.0039552446 -0.011846066 0.22621351
-0.0048521203 -0.014891088 0.22844206
0.0010374838 0.027032841 0.20044979
0.0012267641 0.024333665 0.2010653
0.0016006019 0.02115739 0.20235091
0.0018503636 0.018221866 0.20491971
0.0017108571 0.015192123 0.20788683
0.0014596389 0.012544251 0.21079098
0.0013312707 0.010129563 0.21349876
0.00069152348 0.0074203517 0.21626563
0.00083711662 0.0038338117 0.21835165
9.3315226e-05 -0.00032455972 0.22112945
-0.00054227706 -0.0040627918 0.22341043
0.0037190062 0.023879604 0.20132983
0.0050530331 0.021347405 0.20246521
0.0050201011 0.018212179 0.20512363
0.0046228245 0.015379987 0.20763908
0.0043552937 0.012910122 0.2103925
0.0040797885 0.01112936 0.21276227
0 0 0 1 0 0 0 1 0 0 0 1 0 0 0 0 0 348 1 0 0
