ply
format ascii 1.0
comment PCL generated
element vertex 348
property float x
property float y
property float z
element camera 1
property float view_px
property float view_py
property float view_pz
property float x_axisx
property float x_axisy
property float x_axisz
property float y_axisx
property float y_axisy
property float y_axisz
property float z_axisx
property float z_axisy
property float z_axisz
property float focal
property float scalex
property float scaley
property float centerx
property float centery
property int viewportx
property int viewporty
property float k1
property float k2
end_header
-0.055188339 0.026602998 0.18516271
-0.056152768 0.024281407 0.18738204
-0.05675396 0.020879328 0.18957485
-0.057240471 0.017479336 0.19180204
-0.057783224 0.014104407 0.19402216
-0.057819109 0.01112876 0.19559203
-0.05763565 0.0081826719 0.19719483
-0.051639296 0.029237805 0.18189172
-0.052641328 0.027601179 0.18307529
-0.052911106 0.024705244 0.1846541
-0.053376522 0.021246286 0.18679833
-0.053943973 0.017316099 0.18953839
-0.05462642 0.013641146 0.19197066
-0.055285715 0.010334016 0.19429833
-0.055431664 0.0072585219 0.19660842
-0.054625887 0.0034046767 0.19859912
-0.054515727 0.00014248272 0.20074847
-0.048230041 0.032451786 0.17951371
-0.048851334 0.030500133 0.1803326
-0.049000558 0.028039293 0.18125217
-0.049436871 0.025334476 0.18243167
-0.050187387 0.021656204 0.18546626
-0.050595701 0.01634644 0.18920055
-0.051360998 0.012551114 0.19145425
-0.051921684 0.0093563395 0.19351037
-0.052054636 0.0059902039 0.1961879
-0.052090224 0.0020760628 0.19832693
-0.052530326 -0.0010724488 0.20027138
-0.053141795 -0.0030445028 0.20310056
-0.05289451 -0.0043366868 0.20550704
-0.052689757 -0.0055737249 0.2069975
-0.045786437 0.033678118 0.17885058
-0.045861267 0.03110181 0.17955427
-0.046102282 0.028533071 0.18064898
-0.046530779 0.026048968 0.18226007
-0.04718136 0.022727283 0.18447405
-0.047720358 0.014849245 0.18911393
-0.048575643 0.011052277 0.19178738
-0.049136113 0.0076521048 0.19364403
-0.049380988 0.0033357155 0.19596042
-0.04971597 -0.0001903747 0.1971205
-0.049924511 -0.0025484448 0.19948533
-0.050066985 -0.0036698885 0.20200364
-0.050063252 -0.0042822501 0.20570047
-0.050717689 -0.0061770794 0.20803885
-0.051183291 -0.0086511998 0.21062852
-0.050826967 -0.011969019 0.21412022
-0.042575743 0.037280805 0.17798796
-0.042985242 0.034657143 0.17895061
-0.04309833 0.031785894 0.1798875
-0.043299694 0.029179072 0.18101636
-0.043875344 0.026421869 0.1827981
-0.044336054 0.023195567 0.18463744
-0.045014866 0.015730908 0.18764155
-0.046532594 0.0092952596 0.1911961
-0.046995621 0.0053104567 0.19358063
-0.047191631 0.00075580348 0.19564809
-0.047500432 -0.0034071016 0.19605522
-0.047769397 -0.0044253441 0.19779602
-0.046947557 -0.0037533194 0.20105711
-0.046699993 -0.0046707252 0.20551273
-0.047009286 -0.0066844649 0.20852338
-0.048082624 -0.009612388 0.21127495
-0.048873831 -0.012680494 0.2135887
-0.049887903 -0.014712588 0.21800174
-0.039870456 0.038818274 0.1776306
-0.040654916 0.035393592 0.17941172
-0.04024997 0.032599822 0.18049468
-0.040629402 0.029875584 0.18164188
-0.041019436 0.027110603 0.18312642
-0.041300986 0.023918347 0.18477066
-0.042075116 0.018329663 0.18675894
-0.044892944 0.0077289715 0.19115186
-0.044860926 0.0034552717 0.19329497
-0.044503313 -0.001164472 0.19459561
-0.044885535 -0.0047118324 0.19483924
-0.044375181 -0.0051532788 0.19769497
-0.043461096 -0.0041392958 0.20119075
-0.043389026 -0.0051922919 0.20525591
-0.043574192 -0.0076690307 0.20864712
-0.044209931 -0.010656063 0.21167015
-0.045486137 -0.013218759 0.21426186
-0.047194086 -0.014698549 0.21877915
-0.047717776 -0.017173337 0.22281913
-0.047255389 -0.019740192 0.22557458
-0.036309619 0.04144083 0.1760532
-0.036784623 0.03967173 0.17783546
-0.03599852 0.036982987 0.1796713
-0.037109517 0.034127723 0.1807683
-0.037598513 0.031082479 0.18212906
-0.038076825 0.027699869 0.1837821
-0.037855763 0.02443609 0.1851874
-0.039647039 0.017986501 0.18724057
-0.042659599 0.0072491081 0.19059478
-0.042200476 0.0030259772 0.19246714
-0.041476365 -0.0016652038 0.1930937
-0.041040991 -0.004690642 0.19472921
-0.040084425 -0.0049185092 0.19817065
-0.039626267 -0.0044464916 0.20082431
-0.039800614 -0.0061689848 0.2045528
-0.0403728 -0.0089906137 0.20704772
-0.041539546 -0.011332572 0.21005325
-0.043091547 -0.013234735 0.21285625
-0.043440565 -0.014974223 0.21779197
-0.043777034 -0.017679971 0.22166653
-0.044716951 -0.020346111 0.22534294
-0.044413481 -0.022493828 0.22731873
-0.033850219 0.041924253 0.1762702
-0.033755936 0.040286049 0.17814477
-0.033721916 0.037600126 0.17982438
-0.034077313 0.034725677 0.18097559
-0.034118436 0.031946421 0.18261963
-0.034372732 0.028575163 0.18502404
-0.034105912 0.025023483 0.18627223
-0.037174825 0.017404042 0.18786973
-0.039991282 0.0083354758 0.18983673
-0.038709886 0.0036512709 0.19187891
-0.037936412 -0.00074127933 0.19255507
-0.036636215 -0.0037055651 0.19435401
-0.035765614 -0.003739933 0.19754593
-0.035799474 -0.0052802116 0.20028614
-0.036574226 -0.0071872338 0.20332624
-0.037144154 -0.009439514 0.20579627
-0.038577907 -0.011170123 0.21018204
-0.040200852 -0.013414424 0.21339506
-0.040065371 -0.015204119 0.21767554
-0.040191907 -0.017716693 0.22117551
-0.04068514 -0.020499589 0.22454229
-0.041094374 -0.023022424 0.22714502
-0.030934105 0.042323396 0.17685333
-0.030909335 0.040787563 0.17824213
-0.031058883 0.03793345 0.18043226
-0.031225977 0.03476673 0.18210882
-0.031059606 0.032129832 0.18363681
-0.031058747 0.028927661 0.18584694
-0.030889239 0.024860563 0.18786888
-0.031618189 0.020400288 0.18919085
-0.03672266 0.010891891 0.18947133
-0.035280611 0.0056510014 0.19198561
-0.032748111 0.0028785192 0.19425859
-0.032048475 0.00055965316 0.19665711
-0.032515991 -0.0018547035 0.19914222
-0.032601003 -0.0042573912 0.20148067
-0.033211883 -0.0066092117 0.20444572
-0.033990491 -0.0088637518 0.20703113
-0.035527829 -0.010622356 0.21132873
-0.037029333 -0.012944779 0.21488144
-0.037120726 -0.014599549 0.21831661
-0.037058428 -0.01684228 0.22196308
-0.03763805 -0.020575106 0.22451499
-0.037178956 -0.022869682 0.22704175
-0.027933095 0.042805322 0.17737688
-0.027967533 0.041116253 0.17880368
-0.028021075 0.038292985 0.18078966
-0.028111726 0.03521917 0.18286727
-0.027963234 0.032420281 0.1844368
-0.02818062 0.029250523 0.1867983
-0.028172739 0.025520811 0.18904935
-0.027925266 0.022070196 0.19038725
-0.03145998 0.015124517 0.19111739
-0.031640347 0.0081064906 0.19340134
-0.028549945 0.0052145659 0.19623367
-0.028264578 0.0023649563 0.19896379
-0.028717963 -0.00025843125 0.20100275
-0.029197281 -0.0016685927 0.20239477
-0.030631142 -0.0058140405 0.20621547
-0.031159263 -0.0075918385 0.20844933
-0.032582261 -0.0096202176 0.21261999
-0.033965055 -0.012014774 0.21627061
-0.033708502 -0.013693119 0.21967615
-0.033808667 -0.016095301 0.22413436
-0.033495639 -0.019175339 0.22608227
-0.033840679 -0.022814153 0.22816651
-0.033522833 -0.024721174 0.2309007
-0.024976473 0.043190114 0.17827743
-0.025040682 0.041460887 0.17955333
-0.024827434 0.038801629 0.180838
-0.024885792 0.035646979 0.18301789
-0.024934733 0.032718636 0.1850242
-0.025262602 0.029659957 0.1875983
-0.025404584 0.026112711 0.19021325
-0.025367647 0.022468977 0.1917408
-0.026358068 0.017833214 0.19345625
-0.027754212 0.010903853 0.19479793
-0.02506214 0.0074565648 0.19856638
-0.024760114 0.0041616275 0.20067191
-0.024518173 0.0014867227 0.20309545
-0.025209632 -0.0010331626 0.20554791
-0.026586579 -0.0036841484 0.20836899
-0.028133295 -0.0061897654 0.21097173
-0.029413855 -0.0085489834 0.21426558
-0.029801913 -0.010849335 0.21790883
-0.02991792 -0.013258754 0.22120801
-0.030316712 -0.016096713 0.22521932
-0.030305658 -0.019528167 0.22722323
-0.030453829 -0.023131752 0.22899254
-0.030419143 -0.025294052 0.23176071
-0.022859983 0.043786358 0.17861976
-0.022100329 0.041796144 0.18047374
-0.021546401 0.039461698 0.18172617
-0.021467555 0.03632842 0.1833577
-0.021685766 0.033071838 0.18601672
-0.022265179 0.03031883 0.18827949
-0.022690207 0.026681572 0.19121644
-0.022670269 0.02299742 0.1935492
-0.022846712 0.019397669 0.19575781
-0.022924919 0.01470714 0.19808771
-0.022389404 0.0098757548 0.20040655
-0.021886101 0.0062374845 0.20268343
-0.022101309 0.003410361 0.2052467
-0.0228421 0.00025843424 0.20789939
-0.023756696 -0.0025690424 0.210462
-0.024457259 -0.0050861295 0.21296448
-0.025197215 -0.0076254015 0.21601839
-0.025566684 -0.010474022 0.219754
-0.026255451 -0.013499636 0.22223379
-0.027253864 -0.016687686 0.226235
-0.026889 -0.020002829 0.2274963
-0.026956238 -0.023699734 0.22935285
-0.026992749 -0.026174383 0.23223127
-0.018455368 0.041891437 0.18179531
-0.01883065 0.039055943 0.18338013
-0.018267082 0.036453467 0.18486783
-0.018654237 0.033635572 0.18692328
-0.019087708 0.030842969 0.18928275
-0.019651372 0.027835719 0.19179162
-0.019697091 0.02368826 0.19533645
-0.019849218 0.019801736 0.19733469
-0.020206813 0.015990395 0.19933778
-0.019825261 0.012198539 0.20149559
-0.019331807 0.0083983308 0.20390171
-0.019489665 0.004973521 0.20704649
-0.0199853 0.0014568759 0.20981707
-0.020623684 -0.0014386185 0.21271095
-0.021123616 -0.0041937171 0.21527113
-0.021578491 -0.0071498421 0.21861058
-0.022046607 -0.010219282 0.22177324
-0.022574244 -0.013485327 0.22405571
-0.023731243 -0.017076137 0.22751278
-0.023344398 -0.020498335 0.22718959
-0.023403825 -0.023962779 0.22833754
-0.023578817 -0.02655944 0.23202027
-0.015719403 0.039687909 0.18464905
-0.015298005 0.036786739 0.18609853
-0.01560254 0.033931125 0.18780266
-0.015912583 0.031268891 0.18995067
-0.015861701 0.028254438 0.19237839
-0.01599982 0.024593126 0.19642839
-0.017113673 0.020114955 0.19889373
-0.01709546 0.016646171 0.20097153
-0.016753275 0.013272648 0.20277563
-0.016578417 0.0099425083 0.20570372
-0.016628163 0.0067825387 0.20850816
-0.017133372 0.0031132251 0.21165784
-0.017574254 -0.00040228848 0.21472774
-0.017822368 -0.0034717959 0.21793617
-0.018110262 -0.0064422586 0.22105511
-0.018524343 -0.0096775303 0.22338033
-0.018976532 -0.01306797 0.22545654
-0.019691048 -0.01639968 0.22747269
-0.019853702 -0.019754792 0.22795717
-0.019746462 -0.023498394 0.22945069
-0.019984704 -0.026739283 0.23341295
-0.012652093 0.036940303 0.18716325
-0.012424915 0.034343246 0.18871576
-0.012553575 0.03163306 0.19080438
-0.012516346 0.028567156 0.19260587
-0.011937975 0.025203489 0.19684814
-0.012416872 0.02112064 0.20059806
-0.013695632 0.017057914 0.20314546
-0.013711378 0.013930672 0.2050343
-0.013598938 0.011000836 0.20747533
-0.013634721 0.0078824321 0.20999919
-0.014143695 0.0042309077 0.21338485
-0.014402053 0.00056078448 0.21644484
-0.014494048 -0.0023446619 0.21945302
-0.014478487 -0.0054275687 0.22258572
-0.014452491 -0.0088676373 0.22431634
-0.015388384 -0.01269405 0.22563505
-0.015662672 -0.016130246 0.22746071
-0.015831213 -0.019671457 0.22849528
-0.016326031 -0.023443187 0.23122478
-0.015967194 -0.026333304 0.23483258
-0.0099689746 0.034287743 0.18943147
-0.0093084425 0.031883601 0.19150294
-0.0087876776 0.028783934 0.19408122
-0.0084559685 0.02533379 0.19772166
-0.0088739926 0.021486253 0.20158592
-0.0098730056 0.017736251 0.20451619
-0.010334435 0.014500459 0.20651405
-0.010416032 0.01170886 0.20850253
-0.010377486 0.0089179194 0.21064155
-0.010788048 0.0056172004 0.21445279
-0.010868663 0.0017302415 0.21744461
-0.010739613 -0.001398862 0.22039999
-0.010610703 -0.0048505883 0.22282909
-0.010576626 -0.0083676847 0.22477831
-0.010946392 -0.012069864 0.22503902
-0.011326843 -0.015975174 0.2279987
-0.011398455 -0.019218717 0.22945084
-0.011745682 -0.02412797 0.23387617
-0.0055515547 0.031235842 0.19430795
-0.0051193135 0.028355652 0.19655992
-0.0052244351 0.02440718 0.19917294
-0.0059009488 0.022282777 0.20152666
-0.0062015024 0.017705476 0.20509195
-0.0066437572 0.014911669 0.20698828
-0.006839178 0.012395825 0.20908959
-0.0065570395 0.0096943667 0.21179567
-0.0072099958 0.0067792162 0.21503843
-0.0071436064 0.0026283341 0.21810062
-0.0071183136 -0.00087981607 0.22170757
-0.00680765 -0.0045890468 0.22253235
-0.0068948269 -0.0082145128 0.2247078
-0.0070240875 -0.011966165 0.22547498
-0.0073065395 -0.015772061 0.22802934
-0.0082485322 -0.01938498 0.23011857
-0.0094768377 -0.0225616 0.23223877
-0.0016527247 0.027115051 0.19809188
-0.0020530978 0.023759695 0.19937977
-0.0012993111 0.020442788 0.20097396
-0.0021320849 0.017851017 0.20390773
-0.0024077944 0.014895174 0.20694493
-0.002428076 0.012564884 0.20976104
-0.0023991442 0.0099981986 0.21276729
-0.0032760981 0.0030298519 0.21834697
-0.0031868196 -0.0006659847 0.22168681
-0.0031072975 -0.0045158309 0.22246212
-0.0031974544 -0.0083229141 0.22413369
-0.0038531914 -0.01199467 0.22535354
-0.0047533093 -0.015036066 0.22771157
0.00082598155 0.025712121 0.19824743
0.00078947347 0.023090465 0.19897665
0.0010940186 0.020136407 0.20048758
0.0015120937 0.017576082 0.20340458
0.0015345905 0.014880746 0.2067741
0.0013783349 0.012436147 0.20986582
0.0012963531 0.010064549 0.21261972
0.00075400952 0.0073391129 0.21538232
0.00081242359 0.0036347215 0.21728864
6.3371124e-05 -0.00026975441 0.22024289
-0.00044214382 -0.0041432059 0.22237168
0.003129862 0.022372089 0.19879816
0.0044749263 0.020163763 0.20027694
0.00469669 0.017499847 0.203447
0.0044445121 0.014996395 0.2063611
0.0042525679 0.012714019 0.20932522
0.0040324824 0.010997074 0.21171938
0 0 0 1 0 0 0 1 0 0 0 1 0 0 0 0 0 348 1 0 0
