ply
format ascii 1.0
comment PCL generated
element vertex 348
property float x
property float y
property float z
element camera 1
property float view_px
property float view_py
property float view_pz
property float x_axisx
property float x_axisy
property float x_axisz
property float y_axisx
property float y_axisy
property float y_axisz
property float z_axisx
property float z_axisy
property float z_axisz
property float focal
property float scalex
property float scaley
property float centerx
property float centery
property int viewportx
property int viewporty
property float k1
property float k2
end_header
-0.055245716 0.026501885 0.18536265
-0.056166172 0.024060942 0.18754792
-0.056774389 0.020629011 0.18972555
-0.057263412 0.017221501 0.19194239
-0.057804558 0.013847111 0.19417095
-0.057825293 0.010889919 0.1957621
-0.05762187 0.0079759397 0.19739142
-0.051694173 0.029048016 0.18208623
-0.052673407 0.027407594 0.18325159
-0.052933063 0.024505369 0.18484291
-0.053381976 0.021027202 0.18697421
-0.05396245 0.017068962 0.18969971
-0.054646973 0.013392659 0.19214359
-0.05529527 0.010100171 0.19451639
-0.055445727 0.0071002464 0.19694276
-0.054476641 0.0032234925 0.19898947
-0.054398376 -2.0333488e-05 0.20114681
-0.048326325 0.032281987 0.17972475
-0.0489318 0.030327849 0.18054263
-0.049071614 0.027866714 0.1814573
-0.049485043 0.025163794 0.18263029
-0.050203566 0.021461602 0.18565482
-0.050623298 0.016098676 0.18935989
-0.051382672 0.012304972 0.1916523
-0.051949203 0.009213605 0.19388649
-0.052021794 0.0058256197 0.19659305
-0.051967494 0.0018787429 0.19878094
-0.052422188 -0.0012334548 0.20071183
-0.053084753 -0.0032002043 0.20351045
-0.05287822 -0.0044881566 0.20587982
-0.05266374 -0.0056925947 0.20732324
-0.04588211 0.033513285 0.17905942
-0.045956116 0.030941335 0.17976038
-0.046187144 0.02837483 0.18084432
-0.046609912 0.025889294 0.18244788
-0.04724215 0.022567293 0.18466893
-0.047757946 0.014597641 0.18928146
-0.048591197 0.010817214 0.19199279
-0.049133033 0.0074980473 0.19406775
-0.049287904 0.0031238922 0.1964328
-0.049573842 -0.00039288733 0.19763564
-0.049798142 -0.0027019868 0.19996193
-0.050016228 -0.0038194992 0.20247284
-0.050045673 -0.0044209836 0.2061459
-0.050703019 -0.0062666717 0.20839939
-0.051179919 -0.0087148035 0.21095666
-0.050782394 -0.012201109 0.21423276
-0.042673435 0.03711617 0.1781636
-0.043079372 0.034507435 0.17914467
-0.043199413 0.031637583 0.18008603
-0.043393414 0.029023672 0.18120076
-0.043958265 0.026264971 0.18296425
-0.044411108 0.023035385 0.18480512
-0.045066938 0.015499867 0.18781076
-0.046530485 0.0091406452 0.1916333
-0.046941843 0.0051316977 0.1941063
-0.047067557 0.00051846 0.19621453
-0.047330201 -0.0036016922 0.19660723
-0.047628429 -0.0045996453 0.19831057
-0.046878535 -0.0038921663 0.20147702
-0.046659041 -0.0048042885 0.20596692
-0.046999451 -0.0067870021 0.20891884
-0.048025146 -0.0098072002 0.21144149
-0.048829392 -0.012894834 0.21370326
-0.049883913 -0.014942341 0.21804099
-0.039972495 0.038661126 0.17775628
-0.040744763 0.035250429 0.17958178
-0.040347096 0.032466158 0.18068428
-0.040721659 0.029728254 0.18181388
-0.041102126 0.026958648 0.18327543
-0.041375171 0.023765597 0.18491621
-0.042137183 0.018135576 0.18690197
-0.044878922 0.0075635314 0.19166501
-0.044776648 0.0032530909 0.19392523
-0.044343013 -0.0013696192 0.19523403
-0.04472575 -0.0049057505 0.19545405
-0.044273943 -0.0053143841 0.19827417
-0.043409884 -0.0042768777 0.20162277
-0.043371391 -0.0053072162 0.20568876
-0.043563146 -0.0077764196 0.20903985
-0.044147808 -0.010861558 0.21185599
-0.045445405 -0.013430175 0.21438189
-0.047212705 -0.014904384 0.21883287
-0.04776619 -0.017368663 0.22286575
-0.047310725 -0.019912058 0.2256324
-0.036396883 0.041294176 0.1761166
-0.036876153 0.039534081 0.17791834
-0.03607155 0.036859814 0.17978145
-0.037175976 0.034018259 0.18092027
-0.037663467 0.030965062 0.18227862
-0.038143795 0.027562531 0.18390885
-0.037912443 0.024291564 0.18529376
-0.039696883 0.01779006 0.18737043
-0.042640544 0.0070502064 0.19113179
-0.042126123 0.0028454571 0.19311666
-0.041323625 -0.0018971527 0.19376336
-0.040918883 -0.0049345829 0.19541056
-0.040043909 -0.005113102 0.19879387
-0.03959756 -0.0046024569 0.20126998
-0.03977897 -0.006304163 0.20493136
-0.040358543 -0.0090920869 0.20740223
-0.041482545 -0.01153302 0.21020052
-0.043037977 -0.013434084 0.21298261
-0.043442316 -0.015151487 0.21788839
-0.043808993 -0.017849552 0.22176224
-0.044771183 -0.020497719 0.2254325
-0.044468857 -0.022625567 0.22741726
-0.033937693 0.041787285 0.17632516
-0.033829588 0.040161688 0.17821541
-0.033774294 0.037479982 0.17992587
-0.034136418 0.034622576 0.18110947
-0.034161508 0.031857204 0.18275276
-0.03439492 0.028481798 0.18514414
-0.03411971 0.024929903 0.18637085
-0.037233967 0.017204827 0.18799438
-0.040013682 0.0081223901 0.19028771
-0.038684648 0.0034746707 0.19243656
-0.03784376 -0.0010090935 0.19320515
-0.036613822 -0.0040110671 0.19496368
-0.035789363 -0.003947726 0.19798902
-0.035810653 -0.0054297694 0.20061627
-0.03657772 -0.007315821 0.20362052
-0.037139095 -0.0095549831 0.20606939
-0.038512837 -0.011370311 0.21029177
-0.040140562 -0.013621607 0.21350056
-0.040055368 -0.015376166 0.21780485
-0.040227439 -0.017858857 0.22132234
-0.040730849 -0.020616867 0.22468257
-0.041156705 -0.023123587 0.22728905
-0.031015139 0.042197824 0.17689516
-0.030980194 0.040674005 0.17830187
-0.031111894 0.037819866 0.18053214
-0.031274173 0.034669138 0.18223344
-0.031092912 0.032050274 0.18376976
-0.031069759 0.028848352 0.18596362
-0.0308963 0.024758942 0.18797119
-0.031638589 0.020296387 0.1892864
-0.03681301 0.010675992 0.18975106
-0.035313211 0.0054796366 0.19232406
-0.032796808 0.002752518 0.1945419
-0.032103308 0.00040026195 0.19688027
-0.032524362 -0.0020255391 0.1993833
-0.03259176 -0.0044156495 0.20170596
-0.033191409 -0.0067592668 0.20464015
-0.033960495 -0.0090106558 0.20723055
-0.035460908 -0.01082763 0.21142206
-0.036965959 -0.013163863 0.21498574
-0.03711836 -0.014788063 0.21846087
-0.037119769 -0.017001279 0.22214475
-0.037705056 -0.020674428 0.2247351
-0.037260897 -0.022913694 0.22727016
-0.028008619 0.042686742 0.17740229
-0.028030336 0.041007545 0.17884156
-0.028070683 0.038193643 0.18086959
-0.028152132 0.035138026 0.18298928
-0.027985837 0.032352563 0.18457884
-0.028189918 0.029164843 0.18690775
-0.028178526 0.02542592 0.18914537
-0.02791851 0.021996049 0.19047832
-0.031531498 0.014990455 0.19120792
-0.03169905 0.0079619754 0.19353686
-0.028575392 0.0051120403 0.19628666
-0.02830728 0.0022808923 0.1990504
-0.028732652 -0.00035807979 0.20114335
-0.029163331 -0.0018324052 0.20253004
-0.030585626 -0.006011528 0.20630288
-0.031113293 -0.0077833268 0.20854957
-0.032507513 -0.009826635 0.21269597
-0.033901472 -0.012232468 0.21637174
-0.033724044 -0.013891112 0.21983671
-0.033889078 -0.016233146 0.22433151
-0.033591941 -0.019258188 0.22630677
-0.033939384 -0.022846034 0.22842702
-0.033601925 -0.024731757 0.23113492
-0.025045868 0.043083724 0.17827231
-0.025091408 0.041363835 0.17955516
-0.024854003 0.038722672 0.18086347
-0.024917919 0.03558493 0.18312849
-0.024951722 0.032651208 0.18514779
-0.025265031 0.029578106 0.18769334
-0.025409715 0.026020234 0.19029874
-0.025364816 0.022398949 0.19181688
-0.026354102 0.017755089 0.19350933
-0.027804529 0.010813077 0.19486092
-0.025071735 0.007394461 0.1985908
-0.024808915 0.0040859594 0.20062368
-0.024612727 0.0014383271 0.20306845
-0.0252431 -0.0011946001 0.20548008
-0.02649962 -0.0039429828 0.2082888
-0.028055293 -0.0063908654 0.21099448
-0.029333914 -0.0087354239 0.21430975
-0.029761722 -0.01102025 0.2179804
-0.029973613 -0.013409543 0.22134505
-0.030402545 -0.01622091 0.22539419
-0.030411048 -0.019610114 0.22742206
-0.030558795 -0.023179242 0.22918653
-0.030492894 -0.025332367 0.23192495
-0.022930322 0.043692898 0.17860097
-0.022138905 0.041727986 0.18044749
-0.02156358 0.039409973 0.18171223
-0.021478642 0.036279611 0.18341503
-0.021702448 0.03299804 0.18611863
-0.022271717 0.030232795 0.18837492
-0.02269851 0.026598014 0.19130212
-0.022667026 0.022936124 0.19361703
-0.022825539 0.01932987 0.19579245
-0.02290575 0.014636788 0.19807538
-0.022381347 0.0098146908 0.20040727
-0.021899162 0.0061900383 0.20270722
-0.022121454 0.0033404636 0.2052692
-0.022837132 0.00013021751 0.20790634
-0.023710338 -0.0027500475 0.21044698
-0.024395352 -0.0052715708 0.21296449
-0.025138479 -0.0077976673 0.21603671
-0.025548451 -0.010641471 0.21980117
-0.026315544 -0.013645399 0.22236234
-0.027366996 -0.016808135 0.22639628
-0.027002474 -0.020092146 0.22764274
-0.027044924 -0.023765743 0.229481
-0.027060222 -0.026225781 0.23233248
-0.018475052 0.041844837 0.18175969
-0.018832842 0.039010458 0.18337451
-0.018275559 0.036391653 0.18492547
-0.01867513 0.03357045 0.18701434
-0.019093245 0.030771732 0.18937895
-0.019652091 0.027768632 0.1918855
-0.019688355 0.023629434 0.19540597
-0.019835113 0.019734591 0.19735073
-0.020203885 0.015934188 0.19933273
-0.019833287 0.012149049 0.20149589
-0.019346425 0.0083465073 0.20391573
-0.019502958 0.0049020881 0.2070739
-0.019978432 0.0013292819 0.20981927
-0.020586343 -0.0016091455 0.21270083
-0.021072397 -0.0043755197 0.21525812
-0.02152618 -0.0073375623 0.21860908
-0.022034949 -0.010399412 0.22182861
-0.022626458 -0.013634545 0.22417544
-0.023846811 -0.017185088 0.22764632
-0.023455817 -0.020585112 0.22729169
-0.023496334 -0.02402962 0.22842483
-0.023638774 -0.026613282 0.23207776
-0.01571911 0.03962557 0.184659
-0.01529528 0.036723655 0.18614911
-0.015603204 0.033876728 0.1878863
-0.015907286 0.03121658 0.19004591
-0.015834674 0.028208833 0.19247884
-0.015972754 0.024554841 0.19649772
-0.017098214 0.020056091 0.19889666
-0.017102173 0.016585372 0.20097877
-0.016770242 0.013212754 0.20280026
-0.016606715 0.0098888269 0.20574707
-0.016663706 0.006722765 0.20855898
-0.017137058 0.0030031276 0.21167511
-0.01754521 -0.00056141033 0.21471904
-0.017768504 -0.0036515824 0.21791714
-0.018032964 -0.0066230572 0.22103472
-0.018495837 -0.0098539051 0.22340766
-0.019022737 -0.013218209 0.22556655
-0.019779878 -0.016502097 0.22759253
-0.019948399 -0.019822937 0.22804074
-0.019822055 -0.023548039 0.22949713
-0.020039119 -0.026794311 0.23345332
-0.01264217 0.036884926 0.18720847
-0.012415875 0.034294214 0.188785
-0.012529422 0.03159225 0.1908883
-0.01247859 0.028531978 0.19270226
-0.011884067 0.025180224 0.19696145
-0.01235697 0.021050956 0.20068021
-0.013680583 0.016975233 0.20317808
-0.013703699 0.013840241 0.20506953
-0.013612625 0.010919468 0.20751306
-0.01367032 0.0077994005 0.21003337
-0.014148546 0.0041170898 0.21339263
-0.014379841 0.00040686375 0.21642086
-0.014435168 -0.0024962309 0.2194086
-0.014388285 -0.0055816076 0.22252466
-0.014365547 -0.0090201925 0.22426993
-0.015412143 -0.01280577 0.22567841
-0.015702326 -0.016204361 0.22751118
-0.015871875 -0.019718265 0.22853318
-0.016376715 -0.023480667 0.23124789
-0.016004546 -0.026371995 0.2348444
-0.0099505074 0.034251276 0.18950114
-0.0092732972 0.031847268 0.19158968
-0.0087339645 0.02875042 0.19419803
-0.0083862888 0.025296399 0.19789256
-0.0087742023 0.021391701 0.20170747
-0.0098395096 0.017619347 0.20457467
-0.010325847 0.014372007 0.20655654
-0.010420858 0.011583448 0.20851842
-0.010399539 0.0088035455 0.21065304
-0.01080257 0.0054867673 0.21445362
-0.0108609 0.0016074164 0.217408
-0.010707295 -0.0015207026 0.22035007
-0.010550137 -0.0049706153 0.22277117
-0.01051616 -0.0084759584 0.22471832
-0.01093655 -0.01214557 0.22503856
-0.011331151 -0.016044077 0.22800146
-0.011411589 -0.019280545 0.22945113
-0.011777862 -0.024178892 0.23388714
-0.0054704077 0.031169159 0.19448921
-0.0050226548 0.028270895 0.19676401
-0.0051114913 0.02431519 0.19937666
-0.0057771103 0.022170516 0.20168948
-0.0061661066 0.01754028 0.2051387
-0.0066416999 0.014742049 0.20701741
-0.0068449839 0.012230865 0.20908526
-0.0065646595 0.0095330505 0.21179152
-0.0072277398 0.0066361334 0.21502644
-0.0071584703 0.0025429332 0.21807534
-0.0070942086 -0.00097626384 0.22165756
-0.0067704865 -0.0046831677 0.22247165
-0.0068667731 -0.0083027836 0.22466253
-0.0070183058 -0.01203448 0.22546865
-0.0073155025 -0.015836356 0.22802974
-0.0082630049 -0.019449128 0.23010407
-0.0094989724 -0.022617368 0.23224109
-0.0015269299 0.026910935 0.19823097
-0.0019505579 0.023574296 0.19951862
-0.0012303466 0.020229764 0.20102292
-0.0020916921 0.017633144 0.20390275
-0.0024119026 0.014671809 0.20694503
-0.0024367049 0.012353048 0.20975523
-0.0024089029 0.0098168859 0.21277653
-0.0033056007 0.0029646708 0.21835116
-0.0031742945 -0.00073499203 0.2216343
-0.0030881397 -0.0045947782 0.22240926
-0.0031876157 -0.0083966609 0.22410722
-0.0038505804 -0.012061755 0.22535823
-0.0047603161 -0.015096405 0.22772464
0.00091170997 0.025432019 0.1982936
0.00084125513 0.022814872 0.19899884
0.0011251995 0.019853827 0.20045327
0.0015381793 0.017300287 0.20334959
0.0015381324 0.014639465 0.20677686
0.001369564 0.012212304 0.20987687
0.0012762176 0.0098605277 0.21263164
0.00072425714 0.0071487147 0.21539505
0.00078098633 0.0035034013 0.21730858
5.5237917e-05 -0.00031347771 0.22021261
-0.00043110584 -0.0042103445 0.22232825
0.0031471932 0.022022747 0.19873306
0.0044902111 0.019800859 0.20017351
0.004716943 0.017183451 0.20340075
0.0044501433 0.014736806 0.20636302
0.0042442116 0.012471375 0.20934109
0.0040171347 0.010770107 0.21173643
0 0 0 1 0 0 0 1 0 0 0 1 0 0 0 0 0 348 1 0 0
