ply
format ascii 1.0
comment PCL generated
element vertex 348
property float x
property float y
property float z
element camera 1
property float view_px
property float view_py
property float view_pz
property float x_axisx
property float x_axisy
property float x_axisz
property float y_axisx
property float y_axisy
property float y_axisz
property float z_axisx
property float z_axisy
property float z_axisz
property float focal
property float scalex
property float scaley
property float centerx
property float centery
property int viewportx
property int viewporty
property float k1
property float k2
end_header
-0.055304784 0.026956201 0.1855821
-0.056198925 0.02439197 0.18728752
-0.056850486 0.020860111 0.18937042
-0.05733401 0.017407082 0.19150297
-0.057806384 0.014074665 0.19376706
-0.057752434 0.011209833 0.19544324
-0.057553302 0.0084359599 0.19718404
-0.051634096 0.029333055 0.18161926
-0.052672908 0.027753817 0.18297537
-0.052978918 0.02484666 0.18460585
-0.053477075 0.021290211 0.18667263
-0.054065749 0.017189868 0.18921661
-0.054705705 0.013512489 0.19169223
-0.055279877 0.010310172 0.19423807
-0.055495057 0.0073561394 0.19697085
-0.054443508 0.0032683846 0.19895236
-0.054391127 8.4149557e-05 0.2011503
-0.048063558 0.032189038 0.17872441
-0.048780859 0.030408088 0.17982303
-0.048983555 0.028102174 0.18103375
-0.049484212 0.025511337 0.18239753
-0.050291236 0.021774709 0.18537717
-0.050693579 0.016081348 0.18876688
-0.051384982 0.012308314 0.19118387
-0.051986039 0.0094652716 0.19380502
-0.052050546 0.0060554286 0.19660845
-0.05204533 0.0019795648 0.19868942
-0.052482236 -0.0010989892 0.20067741
-0.053106386 -0.0030346245 0.20350678
-0.052876517 -0.0043144138 0.20587437
-0.052687522 -0.0054458375 0.20732145
-0.045590226 0.033431586 0.178177
-0.04572098 0.030944338 0.17911419
-0.04609257 0.028510608 0.1804786
-0.046575084 0.026201496 0.18225691
-0.047320057 0.022966992 0.18458328
-0.047768071 0.014444328 0.1886408
-0.048550736 0.010795033 0.19157024
-0.049177673 0.0077242972 0.19398572
-0.049428284 0.0031602564 0.19625948
-0.049695551 -0.00035392068 0.19749279
-0.049901217 -0.0025987695 0.19989645
-0.050058778 -0.0037139284 0.20241186
-0.050054912 -0.0043193898 0.20608595
-0.05071678 -0.0060236822 0.20840658
-0.051187929 -0.0083162021 0.21103401
-0.050825067 -0.011737552 0.21443346
-0.04228273 0.037116386 0.17742421
-0.042756006 0.034443256 0.17837328
-0.042961974 0.031643827 0.17952324
-0.043291338 0.029204739 0.18090755
-0.043937296 0.026588844 0.1828323
-0.044454534 0.023426222 0.18475839
-0.045113914 0.01541745 0.18728617
-0.046636652 0.0092208283 0.19140908
-0.047078822 0.0051869648 0.19390154
-0.047227848 0.00049751363 0.19595449
-0.047451988 -0.0035747639 0.1964806
-0.04771512 -0.0045382529 0.19819988
-0.046909977 -0.003818457 0.2013718
-0.046667919 -0.0047061564 0.20586348
-0.047002502 -0.0066310023 0.20886087
-0.048077732 -0.0095389606 0.21133706
-0.048930779 -0.012476829 0.21382433
-0.049978469 -0.014132813 0.21850507
-0.039549325 0.038733654 0.17733219
-0.040428061 0.03527616 0.17901693
-0.040114086 0.032522265 0.18022113
-0.040605932 0.029963309 0.18160127
-0.041053485 0.027251109 0.18314986
-0.041382231 0.024082197 0.18484277
-0.042200509 0.018258099 0.18662319
-0.045008317 0.0075664222 0.19142513
-0.044953212 0.0031877039 0.19365552
-0.044466645 -0.0014060693 0.19499524
-0.044822667 -0.0048598559 0.19531159
-0.044343378 -0.0052422378 0.19814612
-0.04341796 -0.0042053917 0.20147941
-0.043378081 -0.0052399738 0.20557687
-0.043578297 -0.0076598208 0.20897157
-0.044198141 -0.010765832 0.21152681
-0.045572542 -0.013094117 0.2144022
-0.047273863 -0.014131172 0.21930107
-0.04779521 -0.016356364 0.22354843
-0.047359865 -0.018858334 0.22638835
-0.035987433 0.041288409 0.17562668
-0.036470626 0.039601766 0.17758602
-0.035747301 0.037015084 0.17968787
-0.037020259 0.034301642 0.18089756
-0.03758952 0.031263728 0.1822309
-0.038066808 0.027805481 0.18376002
-0.03787525 0.024493081 0.1851186
-0.039731927 0.017792311 0.18695441
-0.042780742 0.0069829999 0.19083643
-0.042300954 0.0027613272 0.19285327
-0.04141324 -0.0019032492 0.19355422
-0.040979758 -0.0048856069 0.19523148
-0.04006597 -0.005060283 0.19864489
-0.039575938 -0.0045892219 0.20113254
-0.03980146 -0.0063217189 0.20479083
-0.040394317 -0.0090724025 0.20732829
-0.041587405 -0.011600147 0.209813
-0.043263547 -0.013254712 0.21278167
-0.043591022 -0.014598745 0.21824679
-0.043875001 -0.017105015 0.22234213
-0.044878025 -0.019602494 0.22611332
-0.044614322 -0.02177139 0.22807604
-0.033525303 0.041762028 0.17580451
-0.033505861 0.040207025 0.1777986
-0.033579376 0.037667934 0.17968088
-0.034074116 0.035037979 0.18127297
-0.034148254 0.032267582 0.18296576
-0.034374304 0.028698491 0.18513814
-0.034136489 0.025048045 0.18628554
-0.037401278 0.017060464 0.18761241
-0.040120173 0.0079760468 0.18995474
-0.038857367 0.0033343835 0.1922183
-0.037911724 -0.0010521901 0.19302788
-0.036578812 -0.0039359755 0.19482653
-0.03576069 -0.0038889411 0.19785251
-0.035798844 -0.0054870085 0.20045437
-0.036574803 -0.0074304021 0.20347618
-0.037160702 -0.0096693188 0.20596643
-0.038620353 -0.011537298 0.20996286
-0.040436316 -0.013411256 0.21342172
-0.040313639 -0.014881556 0.21804506
-0.040344547 -0.01727807 0.22176519
-0.040826149 -0.019944739 0.2252488
-0.041334573 -0.022494137 0.22779542
-0.030658823 0.04217504 0.17642938
-0.030687489 0.040726408 0.17791498
-0.030966079 0.037984286 0.18033051
-0.031268161 0.034984581 0.18233404
-0.031124417 0.032398961 0.18399957
-0.031136507 0.02907965 0.18609159
-0.031091103 0.024871765 0.18811157
-0.031899661 0.02030826 0.18939157
-0.036844406 0.010459134 0.18939787
-0.035454798 0.0053354562 0.19226138
-0.032970134 0.0027128686 0.19469586
-0.032135352 0.00040651864 0.19696775
-0.032498315 -0.0020602616 0.19935685
-0.032555312 -0.0045613227 0.2015623
-0.033125158 -0.0070039756 0.20446365
-0.033937056 -0.0092363944 0.20710197
-0.035605367 -0.010956027 0.21116169
-0.037322715 -0.012853444 0.21501301
-0.037413109 -0.014310845 0.21853596
-0.037175786 -0.016601039 0.22225635
-0.03784173 -0.020378662 0.22490962
-0.037423082 -0.022741443 0.22734304
-0.027728153 0.042737603 0.17712742
-0.027832462 0.041109037 0.17863426
-0.027975803 0.038334098 0.1807254
-0.028129337 0.03525519 0.18283965
-0.028075336 0.032433216 0.18441632
-0.028279349 0.029271146 0.18686543
-0.028340464 0.025526665 0.18927424
-0.028179355 0.022028927 0.1906344
-0.031647306 0.014751232 0.19084957
-0.031848766 0.0076478207 0.1931034
-0.028835079 0.0050256471 0.19642691
-0.028462656 0.0021735334 0.19916221
-0.02876687 -0.00048136269 0.20118998
-0.029099539 -0.0020377515 0.2024518
-0.030378247 -0.0064673242 0.20608947
-0.031003391 -0.0081570111 0.20839961
-0.032666985 -0.0099128634 0.21248496
-0.034241658 -0.011876262 0.21640271
-0.033872351 -0.013637155 0.21964303
-0.033743992 -0.016212836 0.22407499
-0.03351992 -0.01938647 0.22594766
-0.034020249 -0.02299751 0.2280882
-0.033728022 -0.024919212 0.23082452
-0.02485601 0.043165602 0.17816319
-0.024983786 0.04145965 0.17949907
-0.02485992 0.038793899 0.18082359
-0.02492597 0.035484843 0.18278529
-0.025002912 0.032502681 0.18468165
-0.025331108 0.029543299 0.18746758
-0.025556538 0.026050689 0.19034597
-0.025526192 0.022331938 0.19177535
-0.026400838 0.017531676 0.1931583
-0.027980598 0.010509832 0.19446817
-0.025428195 0.0071466719 0.19844489
-0.025064228 0.0040500914 0.20076945
-0.024758987 0.0013629486 0.20321114
-0.025138913 -0.0014686686 0.20552398
-0.026302345 -0.0043710736 0.2082056
-0.027989952 -0.0067817369 0.21068805
-0.029488506 -0.0089078378 0.21408641
-0.029907737 -0.011025639 0.21782646
-0.029931476 -0.013466883 0.22107172
-0.030310536 -0.01644069 0.22498685
-0.030346166 -0.019909319 0.22696054
-0.030653588 -0.023478623 0.22884974
-0.030686364 -0.025653685 0.23164243
-0.022767153 0.04375805 0.17856397
-0.022091011 0.041749403 0.18047082
-0.02159621 0.039394654 0.18171629
-0.02152051 0.03608916 0.18308592
-0.021740487 0.032684498 0.18549465
-0.022317944 0.030060943 0.18792699
-0.022816231 0.026524702 0.19116469
-0.022701614 0.022767315 0.19333339
-0.022745581 0.018985439 0.19514978
-0.022924306 0.014223046 0.19719923
-0.022690991 0.0096417004 0.20001605
-0.022142408 0.0060243355 0.20249858
-0.022145353 0.0031314234 0.20505184
-0.022728479 -0.00017344895 0.20766336
-0.023685625 -0.0030337742 0.21030712
-0.024382228 -0.0055727209 0.21284884
-0.025181467 -0.0081230002 0.21587294
-0.025523037 -0.010744231 0.21978563
-0.026284683 -0.01360395 0.22237575
-0.027324779 -0.016942315 0.22615908
-0.027025491 -0.020348882 0.22747888
-0.027198756 -0.024019776 0.22942615
-0.027316859 -0.026526628 0.23228224
-0.01852696 0.041788246 0.18178488
-0.018961599 0.03891721 0.18328169
-0.018465351 0.036186665 0.18447085
-0.018791012 0.033231273 0.18639098
-0.019225527 0.030486459 0.18878923
-0.019798879 0.027547332 0.19137013
-0.019593943 0.023317365 0.1948553
-0.019754725 0.019360837 0.19647254
-0.020276042 0.015610413 0.19846676
-0.019977564 0.011943875 0.20080303
-0.019554064 0.0082807718 0.20353444
-0.019675424 0.0048621977 0.20688419
-0.020057783 0.0013106044 0.2097414
-0.020804113 -0.0016410841 0.21282834
-0.021368274 -0.0043254532 0.21544065
-0.021819871 -0.0072557214 0.21878299
-0.022171777 -0.010260324 0.22204311
-0.022732096 -0.013434216 0.22453444
-0.023997756 -0.017066015 0.22803782
-0.023544505 -0.020627888 0.22761343
-0.023667576 -0.024139114 0.22864825
-0.023959445 -0.026814232 0.23232751
-0.015951069 0.039526455 0.18436958
-0.015542082 0.036552519 0.18560699
-0.015814822 0.033576149 0.18723312
-0.016141322 0.030916115 0.18936466
-0.016134227 0.027950414 0.1918073
-0.016195908 0.024100699 0.19572587
-0.017170588 0.019772615 0.19799154
-0.017323999 0.016428623 0.20022678
-0.017037278 0.013170394 0.20220557
-0.016879208 0.0099077402 0.20525454
-0.016955981 0.0068479297 0.20832549
-0.017483542 0.0032736168 0.21173979
-0.01808878 -0.00016634843 0.21508259
-0.018369606 -0.0031325114 0.21848473
-0.01869514 -0.0060251718 0.22172442
-0.018854115 -0.0093908058 0.22396301
-0.019214693 -0.012847475 0.22613876
-0.020008722 -0.016144004 0.22842532
-0.020167183 -0.019633461 0.228898
-0.020085052 -0.023502229 0.23017973
-0.020410007 -0.026854951 0.2340375
-0.012880512 0.036689576 0.18656917
-0.01267997 0.034023967 0.18807057
-0.01284658 0.031334389 0.19016041
-0.012896156 0.028287729 0.19200645
-0.012358708 0.024813855 0.19607875
-0.012987818 0.021094134 0.20000073
-0.014192888 0.01712903 0.20268495
-0.014119824 0.014013675 0.20457681
-0.013842669 0.011010584 0.20687838
-0.013874829 0.0079883821 0.20962803
-0.01456846 0.0046078488 0.21351604
-0.01497045 0.0010385173 0.21699566
-0.015066449 -0.001804902 0.22014761
-0.014978264 -0.0047581857 0.22338592
-0.014892142 -0.0082320198 0.22515161
-0.015770551 -0.012399676 0.22660212
-0.016030358 -0.015832249 0.22861293
-0.016251775 -0.019368734 0.22981657
-0.016743772 -0.023282103 0.23229921
-0.016434807 -0.026294772 0.23576048
-0.010269147 0.033966903 0.18873422
-0.0097160414 0.031651203 0.19084936
-0.009310591 0.028627196 0.19347733
-0.0089965118 0.025006391 0.19675167
-0.009486868 0.021478483 0.20068352
-0.010261127 0.017707679 0.20376781
-0.010598287 0.01434855 0.20550729
-0.010577972 0.011612498 0.20753869
-0.01050622 0.0090200845 0.20994386
-0.011050195 0.0060592443 0.21439134
-0.011311281 0.00219763 0.21787679
-0.011039185 -0.00089419313 0.22080331
-0.010804457 -0.0043374067 0.22321962
-0.01067418 -0.0079589523 0.22513543
-0.011161444 -0.011897407 0.2255381
-0.011621649 -0.015718484 0.22897698
-0.011753373 -0.018883482 0.23067017
-0.012193043 -0.023831656 0.2351106
-0.0061971894 0.031178141 0.19341215
-0.0057886657 0.028234843 0.19536044
-0.0058931317 0.024174513 0.19764057
-0.0065787821 0.022243746 0.20019276
-0.006466148 0.017615201 0.20391315
-0.0067703407 0.014574364 0.20549521
-0.0069442783 0.012233528 0.20765825
-0.0065530678 0.0098459758 0.21072845
-0.0071939132 0.0072608818 0.21443023
-0.0073273438 0.0029258963 0.21798034
-0.0072006495 -0.00052005152 0.22170722
-0.0068869879 -0.0043222061 0.22246163
-0.0069447076 -0.0080751302 0.22466283
-0.0071562431 -0.012000537 0.22555129
-0.007491075 -0.015724489 0.22852932
-0.0085509 -0.019150112 0.23112015
-0.0098427301 -0.022223817 0.23350568
-0.0022460534 0.027041472 0.19646186
-0.0026299017 0.02364523 0.19777235
-0.001716344 0.02050736 0.19959489
-0.0024159495 0.018048974 0.20272152
-0.0025252409 0.015078396 0.20577742
-0.0025079141 0.012936024 0.20875213
-0.0024037769 0.010531097 0.21190527
-0.0032366889 0.0031930839 0.21761088
-0.003180783 -0.00052589667 0.22124025
-0.0031410933 -0.0044784308 0.22199151
-0.0032653499 -0.0084075853 0.22377598
-0.0039828387 -0.012169658 0.22516413
-0.0048778881 -0.015132993 0.22778308
0.00035410604 0.025663827 0.19662377
0.00036898945 0.023096006 0.19747661
0.00082358049 0.020397961 0.1993369
0.0012929175 0.018237246 0.20269738
0.0013828214 0.015646549 0.20611644
0.001246636 0.013289403 0.20925719
0.0012736723 0.010975762 0.2120178
0.0008323373 0.0082443822 0.21476641
0.0010917297 0.0042560482 0.21648674
0.00013858621 -0.00027168929 0.21931158
-0.00045498813 -0.004269735 0.22159277
0.0028021645 0.022581924 0.19748595
0.0042745415 0.020847131 0.19951078
0.0044835978 0.018501094 0.20297992
0.0042499425 0.016013142 0.2059098
0.0041082809 0.013832422 0.208874
0.0039400533 0.01211625 0.21124499
0 0 0 1 0 0 0 1 0 0 0 1 0 0 0 0 0 348 1 0 0
