ply
format ascii 1.0
comment PCL generated
element vertex 348
property float x
property float y
property float z
element camera 1
property float view_px
property float view_py
property float view_pz
property float x_axisx
property float x_axisy
property float x_axisz
property float y_axisx
property float y_axisy
property float y_axisz
property float z_axisx
property float z_axisy
property float z_axisz
property float focal
property float scalex
property float scaley
property float centerx
property float centery
property int viewportx
property int viewporty
property float k1
property float k2
end_header
-0.055821907 0.026199194 0.18552545
-0.056643993 0.023731967 0.18744299
-0.057196654 0.020328335 0.18981145
-0.05759535 0.016913561 0.19205974
-0.058005761 0.013520199 0.19424094
-0.057896882 0.010581448 0.19575441
-0.057611406 0.0077547175 0.19735684
-0.052164901 0.028544966 0.18154493
-0.053178728 0.026954822 0.18279633
-0.053409621 0.02414353 0.18463837
-0.053799473 0.02077667 0.18704548
-0.054284044 0.016859451 0.18989736
-0.054866053 0.013150704 0.19229166
-0.055409946 0.0098067988 0.19458844
-0.055501591 0.0067316573 0.19709514
-0.05412351 0.0027663943 0.19894585
-0.054026414 -0.00043926042 0.20116694
-0.048736665 0.031836767 0.17916684
-0.049355894 0.029865494 0.1799725
-0.049443007 0.027444512 0.18098852
-0.049851082 0.024779161 0.18232188
-0.05056468 0.021262065 0.18563727
-0.050865475 0.015982725 0.18964876
-0.051522393 0.012116678 0.19187658
-0.05211715 0.0090441015 0.19419222
-0.051978331 0.0054587298 0.19663799
-0.05170019 0.0014336301 0.19871348
-0.052108712 -0.001613567 0.20069049
-0.052724916 -0.0035303477 0.20350176
-0.052485686 -0.0047984179 0.20582832
-0.052249853 -0.0063223615 0.20691578
-0.046286814 0.033170249 0.17868303
-0.046333037 0.030550402 0.17929168
-0.046528943 0.028025251 0.18043464
-0.04689898 0.02562183 0.18217283
-0.047486812 0.022429822 0.18462722
-0.047910199 0.014532159 0.18959576
-0.048657112 0.010651559 0.19220391
-0.049214441 0.0073221745 0.19427164
-0.049188741 0.0026185771 0.19625357
-0.049350396 -0.00089380529 0.19754541
-0.049489848 -0.0031089648 0.19990768
-0.049660563 -0.0041772244 0.20240654
-0.049607269 -0.0047178487 0.20603073
-0.050271418 -0.0068200957 0.20805499
-0.050699413 -0.0096117854 0.21026435
-0.050197788 -0.013284495 0.21336782
-0.04294204 0.03681143 0.17790408
-0.043442473 0.03418247 0.17884703
-0.043592211 0.03127962 0.17967403
-0.043767598 0.028760124 0.18089919
-0.044236004 0.026137369 0.18279552
-0.04459567 0.02298788 0.18480124
-0.045177992 0.015469509 0.18796237
-0.046682809 0.0091536483 0.19193973
-0.046946473 0.0048132208 0.19408074
-0.04695246 -5.7428577e-05 0.19595069
-0.047130555 -0.0040979902 0.19644302
-0.047356762 -0.005035325 0.19812164
-0.046595011 -0.0042629512 0.20119844
-0.046208896 -0.0051348465 0.2057972
-0.046564579 -0.0071708956 0.20865713
-0.047528718 -0.010521737 0.21071433
-0.048237253 -0.013819295 0.21279688
-0.049285915 -0.016230118 0.21695693
-0.040124778 0.03823629 0.17724507
-0.041012198 0.034911402 0.17928335
-0.040718164 0.032102428 0.18027779
-0.041071463 0.029590558 0.18158408
-0.041362133 0.026932959 0.18316472
-0.041546304 0.023817861 0.18493851
-0.04222171 0.018176349 0.18697731
-0.045034163 0.0075404691 0.19181986
-0.044795655 0.0028675471 0.19370566
-0.044231065 -0.0019010776 0.19485584
-0.044564303 -0.0054007596 0.19516408
-0.044016287 -0.0057290322 0.19795951
-0.043073703 -0.0046572988 0.2011877
-0.042971518 -0.0056082816 0.2053946
-0.043119587 -0.0081355497 0.20873235
-0.043626662 -0.011429824 0.2111204
-0.044852015 -0.014244967 0.21353409
-0.046656266 -0.016053082 0.21791071
-0.047276828 -0.018563168 0.22193861
-0.046830174 -0.021021446 0.22476313
-0.036550362 0.040617757 0.17513038
-0.036975589 0.039031044 0.17712861
-0.036112159 0.036502484 0.17920537
-0.037313629 0.033743605 0.18054681
-0.037885576 0.030851599 0.18207039
-0.038357753 0.027630923 0.18387893
-0.038032018 0.024454292 0.18539546
-0.039798319 0.017861404 0.18738832
-0.04282428 0.0069533489 0.19107723
-0.042214107 0.0025681395 0.19266537
-0.041272085 -0.0024847174 0.19313355
-0.040765319 -0.0055426215 0.19488734
-0.039716784 -0.0056126546 0.19824079
-0.039161243 -0.0050690453 0.20068939
-0.039360307 -0.0066623236 0.20446958
-0.039919589 -0.0094180452 0.2070418
-0.04097626 -0.012150698 0.20948029
-0.042514157 -0.014017629 0.21232295
-0.042815663 -0.01602494 0.21721838
-0.043210462 -0.018793572 0.22108321
-0.044266433 -0.021440173 0.22475176
-0.04398194 -0.023505278 0.22679244
-0.034066781 0.041169908 0.17532815
-0.033967711 0.039711449 0.1773763
-0.03391213 0.037217505 0.17930487
-0.034294616 0.034513637 0.18078816
-0.034334715 0.031877432 0.18265881
-0.034578331 0.028610514 0.18523921
-0.034252718 0.025087206 0.18662755
-0.037455395 0.017168604 0.18795784
-0.040214848 0.008038302 0.19007015
-0.038810924 0.0032242737 0.19174194
-0.037785202 -0.0017119881 0.19218057
-0.036210753 -0.0049021789 0.19413993
-0.035270032 -0.0046323892 0.19716623
-0.035375431 -0.0059892656 0.19994761
-0.036151972 -0.0078141419 0.20309928
-0.036717676 -0.010010958 0.20563717
-0.03800052 -0.012023642 0.20959578
-0.039618853 -0.014175545 0.21296857
-0.039329462 -0.016046682 0.21729459
-0.039524902 -0.018582447 0.2208893
-0.040122572 -0.021299351 0.22433844
-0.04064694 -0.023794986 0.22693098
-0.031171059 0.041692846 0.17596184
-0.031151444 0.040337868 0.17754251
-0.031362139 0.037726622 0.18010825
-0.031551365 0.03471528 0.18206301
-0.031344816 0.032196384 0.18375535
-0.031285658 0.029015299 0.18602096
-0.031017963 0.02486176 0.18809979
-0.031529404 0.020105317 0.18888019
-0.037039921 0.010608598 0.18955094
-0.035359751 0.0053159422 0.19188602
-0.032571159 0.0024144368 0.1940598
-0.031539571 -0.00028263338 0.19617531
-0.031940907 -0.0027196838 0.19860145
-0.032115318 -0.004970768 0.20106462
-0.032688182 -0.0073680589 0.20405224
-0.033464402 -0.0096106958 0.20671654
-0.034951262 -0.011483221 0.21073483
-0.036417332 -0.013694 0.21449636
-0.036371585 -0.015348793 0.21803796
-0.036378622 -0.017598305 0.22182141
-0.036979035 -0.021292999 0.22446549
-0.036650185 -0.023519693 0.22696953
-0.02821121 0.042415533 0.17669457
-0.028279399 0.040887631 0.17833187
-0.028398324 0.03829512 0.1806969
-0.02850523 0.035305426 0.18290105
-0.028295182 0.032453179 0.18437065
-0.028431719 0.029289722 0.18678513
-0.02826835 0.025519054 0.18908526
-0.027787697 0.021827117 0.18994719
-0.031474378 0.014729016 0.19051272
-0.031793665 0.0077851336 0.192992
-0.028573995 0.0050468128 0.19635142
-0.028094823 0.0019930606 0.1989001
-0.028310537 -0.0008534746 0.20068373
-0.02868402 -0.0023873281 0.20191717
-0.029949602 -0.0067335973 0.20572735
-0.030475713 -0.0085669626 0.20798258
-0.031993032 -0.010455749 0.21205254
-0.03334843 -0.012669878 0.2159297
-0.033001836 -0.014352412 0.21960603
-0.033331852 -0.016657587 0.22429205
-0.033042233 -0.019652877 0.22629532
-0.03340964 -0.023275623 0.22838102
-0.033316016 -0.02505818 0.23135509
-0.025298739 0.043007735 0.17778054
-0.025375949 0.041401166 0.17926811
-0.025216952 0.038884092 0.18082772
-0.025276385 0.035746571 0.18302874
-0.025248349 0.032731619 0.1848347
-0.025530558 0.029704601 0.18749768
-0.025487762 0.026102729 0.19007884
-0.025242034 0.022197511 0.1911184
-0.025951808 0.017225301 0.19234627
-0.02792355 0.010638834 0.1945298
-0.025190324 0.0071234116 0.1985777
-0.024688073 0.0038957912 0.20072575
-0.024139188 0.0010015588 0.20293941
-0.024330318 -0.0020670434 0.205009
-0.025575399 -0.0049970658 0.20769602
-0.027276373 -0.0074438686 0.21019909
-0.02879189 -0.0094803246 0.21366443
-0.029224845 -0.011555721 0.21773869
-0.029467074 -0.013612254 0.22175699
-0.030065814 -0.016317315 0.22588229
-0.030011022 -0.019781783 0.22790171
-0.030169163 -0.023344478 0.22977856
-0.030287564 -0.025416544 0.23274161
-0.023186428 0.043667875 0.17817813
-0.022425389 0.0417904 0.18025237
-0.021896319 0.039516397 0.18163085
-0.021835541 0.036389638 0.18329675
-0.022074137 0.033124313 0.18589418
-0.022621777 0.03039813 0.18820272
-0.022876676 0.026685594 0.19102435
-0.022710066 0.022756914 0.19299272
-0.022764331 0.018918084 0.19496675
-0.022870027 0.014056253 0.19736129
-0.02243726 0.0094727203 0.20015709
-0.021750728 0.0058404682 0.20251028
-0.021576134 0.0027347188 0.20487761
-0.02189778 -0.00085567625 0.20720471
-0.022676248 -0.0040084762 0.20963262
-0.023383206 -0.0065866541 0.21218143
-0.024215728 -0.0090918625 0.21531971
-0.024774712 -0.011517238 0.21977732
-0.025825549 -0.013863986 0.22304201
-0.027132064 -0.016711963 0.22735892
-0.026675293 -0.020044262 0.22875921
-0.026722698 -0.023754008 0.23070852
-0.026918722 -0.026191728 0.2336219
-0.018780487 0.04184673 0.18149577
-0.019225392 0.039063334 0.18317297
-0.01881331 0.036505997 0.18469974
-0.019188143 0.033744253 0.18687244
-0.019581739 0.030890688 0.189202
-0.020099144 0.027849825 0.19161259
-0.020029489 0.023553705 0.19503485
-0.019976111 0.019377513 0.19671051
-0.020223266 0.015447213 0.19866058
-0.019730415 0.011708857 0.20088412
-0.019186305 0.0080788201 0.20358814
-0.019153394 0.0045162509 0.20684442
-0.019315654 0.00059446582 0.20941298
-0.019801052 -0.0026857087 0.21222754
-0.020212978 -0.0055294214 0.21474004
-0.020611988 -0.0085312454 0.21812169
-0.02125261 -0.011154444 0.22194859
-0.022156235 -0.013839638 0.22496738
-0.023676813 -0.016892759 0.22902727
-0.023120645 -0.020480316 0.22882979
-0.023121625 -0.024015408 0.22996306
-0.023472983 -0.02655562 0.23361281
-0.016204044 0.039621875 0.18421765
-0.015870024 0.036739286 0.18567929
-0.01618672 0.033932716 0.18752114
-0.016517855 0.031289734 0.18968649
-0.016511146 0.028308144 0.19208542
-0.016709358 0.024646876 0.19618985
-0.017363278 0.019797396 0.19831769
-0.017135063 0.016206011 0.20029286
-0.016639523 0.012876929 0.20216244
-0.016510712 0.0097755454 0.20539616
-0.016699476 0.0067162053 0.20857616
-0.016968092 0.0027436842 0.21170425
-0.017245404 -0.0011138652 0.21474795
-0.017407993 -0.0043009012 0.21802585
-0.017660515 -0.0072186613 0.22129032
-0.017928807 -0.010418292 0.22373062
-0.01858812 -0.013504928 0.22648516
-0.01960359 -0.016492384 0.22905928
-0.01973772 -0.019841781 0.22966586
-0.019558042 -0.02361788 0.2311517
-0.019983282 -0.026752014 0.23513021
-0.013193708 0.036809694 0.18656518
-0.013047992 0.034272391 0.18823285
-0.013241135 0.031630699 0.19038069
-0.013311295 0.028589362 0.19219759
-0.012813131 0.025081357 0.19623362
-0.013021758 0.020478092 0.19957702
-0.01380986 0.016650325 0.20245689
-0.013656751 0.01376436 0.20454544
-0.013687925 0.011131277 0.20729759
-0.013870678 0.0081836144 0.21020599
-0.014315004 0.0042509791 0.21371885
-0.014389643 0.00024288021 0.21699339
-0.014478819 -0.0025958039 0.22013377
-0.014472621 -0.0055256402 0.22347088
-0.014293222 -0.0089837387 0.22527564
-0.015242907 -0.013119313 0.22700401
-0.015653033 -0.016547371 0.22916284
-0.015883353 -0.020045256 0.23029588
-0.016320677 -0.023615222 0.23299989
-0.016080378 -0.026358133 0.23668106
-0.010612493 0.034159433 0.18881033
-0.010085651 0.03180192 0.19089881
-0.0096912337 0.028641598 0.19336225
-0.009477172 0.024852144 0.19649172
-0.0095836446 0.020852776 0.20004931
-0.010212216 0.017498191 0.20365353
-0.010531804 0.014620814 0.20621613
-0.010596928 0.012064177 0.20845512
-0.010572171 0.0094938427 0.21089832
-0.011095439 0.0061588287 0.21503432
-0.011060501 0.0016954571 0.2182201
-0.010856265 -0.0013727195 0.22126168
-0.010653292 -0.0047338558 0.22381556
-0.010497348 -0.0082784239 0.22591181
-0.010909915 -0.012305919 0.22656554
-0.011393808 -0.016310666 0.22981417
-0.01148897 -0.019582309 0.23135166
-0.011850992 -0.024278231 0.2358202
-0.0065975538 0.030785667 0.1929034
-0.0062738848 0.027649008 0.19457287
-0.0064917724 0.023432828 0.19672954
-0.0068802708 0.021537174 0.19929789
-0.0065120324 0.01752519 0.20399752
-0.006892425 0.015162168 0.20652828
-0.007020975 0.013070476 0.20896477
-0.0066752164 0.010621486 0.21195981
-0.0073552495 0.0077979495 0.21548933
-0.0073030721 0.0026380282 0.21868114
-0.0072068875 -0.00076102675 0.22244504
-0.0067977649 -0.0045045358 0.22339155
-0.00682791 -0.0082251634 0.22584322
-0.0069754957 -0.012162271 0.22693752
-0.007334257 -0.016046228 0.22982502
-0.0083685052 -0.019686345 0.23207395
-0.0096301232 -0.02282712 0.2342573
-0.0029400296 0.025894733 0.19493163
-0.0034103 0.022444023 0.19628237
-0.0025256753 0.01918908 0.19824903
-0.0027947596 0.017246826 0.20210354
-0.002762862 0.015053619 0.20587918
-0.0026647975 0.013241055 0.20909691
-0.0024452235 0.01107836 0.21244968
-0.0033092247 0.0031830266 0.21855132
-0.0032296483 -0.0006119 0.22224966
-0.0030625204 -0.0045165229 0.22325607
-0.0031136395 -0.0084259761 0.22529908
-0.003779605 -0.012218238 0.22684117
-0.0047478429 -0.015258676 0.22940497
-0.00053474953 0.024131361 0.19460942
-0.00062822102 0.02152021 0.19559233
-0.00013081191 0.018830966 0.19773163
0.00072421401 0.017081469 0.20149229
0.0011191124 0.015061419 0.20537142
0.001144433 0.013125441 0.20889699
0.0012449129 0.011176341 0.21195503
0.00087584124 0.0087950788 0.21510138
0.0009810403 0.0047241515 0.21725452
9.230397e-05 -0.00021629983 0.22052997
-0.0003848889 -0.0042165443 0.22309858
0.0017290165 0.020725224 0.19533141
0.0033729468 0.019110506 0.19755173
0.0039485744 0.01723047 0.20146656
0.0039657513 0.015173467 0.20479086
0.0040143696 0.013371311 0.20813535
0.0039421241 0.011963903 0.21080303
0 0 0 1 0 0 0 1 0 0 0 1 0 0 0 0 0 348 1 0 0
