ply
format ascii 1.0
comment PCL generated
element vertex 348
property float x
property float y
property float z
element camera 1
property float view_px
property float view_py
property float view_pz
property float x_axisx
property float x_axisy
property float x_axisz
property float y_axisx
property float y_axisy
property float y_axisz
property float z_axisx
property float z_axisy
property float z_axisz
property float focal
property float scalex
property float scaley
property float centerx
property float centery
property int viewportx
property int viewporty
property float k1
property float k2
end_header
-0.055533249 0.024038861 0.18730256
-0.056371644 0.02163649 0.18876861
-0.057015717 0.018152317 0.19074713
-0.057329781 0.014849564 0.19279262
-0.057542577 0.011662005 0.19489837
-0.057401944 0.0088131689 0.19672903
-0.056935653 0.0061422209 0.19848302
-0.052209847 0.026277725 0.18305321
-0.053089801 0.024861388 0.18431713
-0.053330254 0.02206612 0.18606514
-0.053721916 0.018628607 0.18803386
-0.054144468 0.014691064 0.19047345
-0.054538 0.011223967 0.19284911
-0.054936513 0.0081506139 0.19559057
-0.054114066 0.0050269691 0.19815555
-0.051140852 0.001258229 0.19960406
-0.051586833 -0.0016001681 0.2019563
-0.049107194 0.029242264 0.18044901
-0.049609654 0.027452892 0.18142588
-0.049776267 0.025205987 0.18249832
-0.050163608 0.022725491 0.18390721
-0.050681159 0.019063583 0.1866041
-0.050686412 0.013841462 0.18971848
-0.051053941 0.010189301 0.19220327
-0.051066875 0.007215112 0.19512589
-0.049900986 0.0034954031 0.19725445
-0.048827004 -0.00060196087 0.19965175
-0.050054144 -0.0031454067 0.20193671
-0.051311351 -0.004455558 0.20470014
-0.051457208 -0.0056356858 0.20677663
-0.051391028 -0.0070621264 0.20711951
-0.046710152 0.030657928 0.17989686
-0.046768356 0.028186189 0.18054765
-0.04702254 0.025737898 0.18172882
-0.047506228 0.023375271 0.18343286
-0.048165493 0.020179329 0.18571439
-0.047637995 0.012277794 0.18937489
-0.047962248 0.008691418 0.19227502
-0.047777869 0.0053412514 0.1949861
-0.046509635 -4.5793651e-05 0.19728696
-0.047253359 -0.0033219983 0.1990786
-0.047676537 -0.0053368178 0.20094605
-0.04828785 -0.0059529059 0.20321319
-0.048836667 -0.0062474208 0.20644641
-0.049609266 -0.0079390481 0.20822661
-0.050132882 -0.010408454 0.2103297
-0.049951579 -0.013739873 0.21366678
-0.043714546 0.034411781 0.17921355
-0.043918226 0.031969354 0.1799621
-0.044062484 0.029040582 0.1807801
-0.044363778 0.026403693 0.18196557
-0.044958513 0.023738068 0.18367167
-0.045535348 0.020493567 0.18546209
-0.045435771 0.013223506 0.18775365
-0.04553299 0.0070205154 0.19230376
-0.044881582 0.0024311112 0.19510055
-0.045271154 -0.0033742713 0.19758524
-0.046519883 -0.0071524382 0.19827847
-0.046566039 -0.0080988538 0.19984373
-0.045668531 -0.0066187917 0.20197752
-0.04557392 -0.0070417784 0.20633927
-0.046106767 -0.0086536864 0.2092327
-0.047122132 -0.011348454 0.21108057
-0.048047353 -0.014404583 0.21316759
-0.04932883 -0.016476838 0.21644722
-0.041123457 0.036253784 0.17864116
-0.041613281 0.032851461 0.18033594
-0.041207667 0.03008618 0.18127695
-0.0417298 0.027199153 0.18245481
-0.042136289 0.024456661 0.18370706
-0.042468335 0.021229567 0.18520242
-0.042982962 0.015620547 0.18673833
-0.043708913 0.0054882159 0.19225475
-0.043003194 1.7320413e-05 0.19492362
-0.043994423 -0.0062795719 0.19622673
-0.044668756 -0.00953604 0.19745468
-0.043601073 -0.0090964353 0.20010498
-0.042544179 -0.0074044308 0.20202532
-0.042470556 -0.007814588 0.20607921
-0.042708021 -0.0096802171 0.20939183
-0.043228455 -0.012367646 0.21180397
-0.044673078 -0.014923085 0.21373732
-0.046972468 -0.016588321 0.21693541
-0.047682796 -0.019062111 0.2207267
-0.047375247 -0.021322971 0.2234396
-0.037421033 0.039703038 0.17650561
-0.037933588 0.037682604 0.17836027
-0.036954276 0.034966145 0.1803143
-0.037970893 0.03228673 0.18160185
-0.038441099 0.029008733 0.18263344
-0.038988847 0.02519124 0.18392134
-0.038865987 0.021809744 0.1849847
-0.040402573 0.015420135 0.18680093
-0.041600961 0.00474795 0.19147179
-0.040624954 -0.00021184502 0.19366874
-0.041900475 -0.0079654707 0.19476902
-0.041260216 -0.01029963 0.1974826
-0.039946679 -0.009163308 0.20028977
-0.039581291 -0.0081399065 0.20125735
-0.039046269 -0.0090909842 0.2048618
-0.039555639 -0.011163895 0.20757166
-0.040786684 -0.013320156 0.20967506
-0.042295743 -0.015015651 0.21232806
-0.043129366 -0.016872095 0.21606395
-0.043716766 -0.019508021 0.21985061
-0.044874262 -0.021859948 0.22349022
-0.044672798 -0.023726458 0.2255725
-0.034858253 0.040498607 0.17664902
-0.034662664 0.038862642 0.17853571
-0.034456901 0.03597831 0.18031153
-0.034970105 0.0331943 0.18169427
-0.034782019 0.030501144 0.18301596
-0.034699455 0.026801186 0.18483432
-0.034346502 0.023266833 0.18566744
-0.037628736 0.015367413 0.1869635
-0.039541721 0.0060211685 0.1899865
-0.037531149 0.000671927 0.19209726
-0.03845394 -0.008492385 0.19390151
-0.037669923 -0.01096736 0.19673443
-0.036815833 -0.0093148714 0.19823979
-0.03621421 -0.008912948 0.20043166
-0.036323588 -0.01026231 0.20310763
-0.036511194 -0.012029829 0.20553161
-0.037784684 -0.013544884 0.2090923
-0.039462242 -0.015692854 0.21227989
-0.039584149 -0.017304862 0.21593659
-0.04011545 -0.019519713 0.21948393
-0.040787008 -0.0218018 0.22300912
-0.04136325 -0.023952885 0.22574496
-0.031831171 0.04107552 0.17718545
-0.031742696 0.03951728 0.17871979
-0.031770878 0.036418334 0.18095922
-0.031924024 0.033262189 0.18262978
-0.031532865 0.030761311 0.18397254
-0.031148501 0.027414121 0.18557306
-0.030809343 0.023094535 0.18698597
-0.031526461 0.018918119 0.18740319
-0.036868773 0.0086383987 0.18845837
-0.034606487 0.003055054 0.19075884
-0.032911025 9.581101e-05 0.1919136
-0.033412106 -0.006376043 0.19317763
-0.033135951 -0.0075901574 0.19713138
-0.033011705 -0.0075842058 0.20027184
-0.032827307 -0.0094443029 0.20325412
-0.033113364 -0.011718673 0.20586197
-0.03460969 -0.013221014 0.20980555
-0.036135904 -0.015627434 0.21340434
-0.036564361 -0.017222943 0.21635386
-0.036969967 -0.019141173 0.22000398
-0.037888162 -0.021960437 0.2231341
-0.037786983 -0.023441968 0.22595741
-0.028863868 0.041573253 0.17761059
-0.028754579 0.039905414 0.17908184
-0.028683543 0.036983505 0.18126249
-0.028705455 0.033915903 0.18330178
-0.028290233 0.031186197 0.18475685
-0.028229428 0.027696643 0.18634525
-0.027985811 0.023877783 0.18784434
-0.027497089 0.020820456 0.18838696
-0.031780977 0.013666695 0.18852933
-0.031802282 0.0062349671 0.19074097
-0.028799707 0.0040272377 0.19289532
-0.028574001 0.00057009707 0.19507988
-0.029252212 -0.0036201351 0.19718161
-0.02949129 -0.005372697 0.1990647
-0.029863061 -0.0088592218 0.20418374
-0.029968293 -0.010899189 0.20642997
-0.031469993 -0.012608515 0.21071099
-0.03293338 -0.015053542 0.21443717
-0.033173438 -0.016814964 0.21743084
-0.033758864 -0.018407349 0.2218945
-0.033901174 -0.020696647 0.22427545
-0.034547884 -0.023230387 0.22720528
-0.034470581 -0.024476059 0.23000889
-0.025894266 0.042020276 0.17812195
-0.02576397 0.040390253 0.17934503
-0.025249161 0.037893075 0.18086185
-0.025417686 0.034761738 0.18346295
-0.025283376 0.031713165 0.18529299
-0.025282687 0.028300481 0.18716541
-0.025183735 0.024596248 0.18866894
-0.025047125 0.021302544 0.18931887
-0.025967984 0.016626166 0.1902985
-0.028054507 0.0096003171 0.19156876
-0.025049711 0.0062308228 0.19515167
-0.024944095 0.0030177447 0.1979007
-0.024562767 -5.4969485e-05 0.20050915
-0.024832992 -0.0037930475 0.20354542
-0.025602771 -0.0070433603 0.20618396
-0.026944306 -0.0094961561 0.20865825
-0.028151399 -0.011751413 0.21236001
-0.028874246 -0.013842377 0.21646304
-0.029835487 -0.016149189 0.21954133
-0.030607434 -0.018394288 0.22310296
-0.030999048 -0.020861886 0.2255418
-0.031580873 -0.023587314 0.22790724
-0.031619545 -0.02512997 0.230575
-0.023814617 0.04272845 0.17822589
-0.022693299 0.041015938 0.17979744
-0.021819923 0.038919184 0.1811332
-0.021709157 0.035824075 0.18334992
-0.022047836 0.032266278 0.1861591
-0.022308171 0.02926434 0.1881256
-0.022525646 0.02542793 0.18966784
-0.022389522 0.021839801 0.19093527
-0.022291716 0.018207224 0.19272128
-0.022582073 0.013896415 0.19469672
-0.022284247 0.0088933501 0.19746819
-0.021698972 0.0047923331 0.19975275
-0.021655656 0.001302499 0.20224698
-0.022217019 -0.0026537876 0.20540987
-0.022984296 -0.0058282092 0.20839554
-0.02354536 -0.0082437638 0.21146199
-0.024362896 -0.010636595 0.21495858
-0.02513578 -0.013323748 0.21925838
-0.026732098 -0.016264388 0.22181991
-0.028281447 -0.018845795 0.22470966
-0.028125238 -0.021208525 0.22594434
-0.028062163 -0.02393797 0.2279468
-0.028083235 -0.026017226 0.23085226
-0.018886769 0.041368876 0.18079092
-0.018989773 0.038597628 0.18266033
-0.018403172 0.035879295 0.18465075
-0.018812554 0.033007707 0.18691903
-0.019021612 0.03013071 0.18923773
-0.019425161 0.026970129 0.19119515
-0.019410605 0.0225213 0.19295911
-0.019580053 0.018769082 0.19453707
-0.020187728 0.01533212 0.19642539
-0.020140262 0.011519064 0.19860558
-0.019482922 0.0071923314 0.20113425
-0.019144852 0.0027456777 0.20463698
-0.019346448 -0.0015012798 0.20788576
-0.019720955 -0.0047975569 0.21155365
-0.020248186 -0.0075648897 0.21443
-0.02075379 -0.010399464 0.21824153
-0.021975216 -0.013280166 0.22186586
-0.02338641 -0.016307067 0.22425491
-0.025344223 -0.019116964 0.22657892
-0.024843069 -0.021651896 0.22602317
-0.02460238 -0.024430361 0.2272798
-0.024651729 -0.026547141 0.23071226
-0.015969643 0.039132934 0.18392925
-0.015332917 0.036437903 0.18586899
-0.015491603 0.033684429 0.18793629
-0.015648475 0.030941641 0.1899951
-0.01513561 0.027849678 0.19216281
-0.015074183 0.023953348 0.19510263
-0.016951019 0.019387931 0.1965135
-0.017420476 0.015944481 0.19864026
-0.017158723 0.012248862 0.20059133
-0.016762208 0.0082843918 0.20371404
-0.016615322 0.004449985 0.20682158
-0.016646616 5.9074944e-05 0.21033892
-0.01665587 -0.0039847661 0.21433291
-0.01666631 -0.0071266028 0.2179094
-0.016701825 -0.010105873 0.22122073
-0.018200813 -0.012943989 0.2236709
-0.020020433 -0.015886858 0.22595905
-0.021046508 -0.018493246 0.22722992
-0.021235203 -0.020972021 0.22711174
-0.020887995 -0.023929758 0.22837304
-0.021248782 -0.026941735 0.23237421
-0.012586147 0.036849692 0.18695411
-0.012233764 0.034377996 0.18879814
-0.012057845 0.031689323 0.19086175
-0.011678034 0.028552784 0.1925264
-0.01086367 0.024922518 0.19655989
-0.011534479 0.02008301 0.20005605
-0.013544311 0.015694465 0.20168133
-0.01358299 0.011928088 0.20348208
-0.013723896 0.0087907771 0.20575266
-0.013939817 0.0054150121 0.20823632
-0.013888508 0.0011524074 0.21225087
-0.013344991 -0.0031867004 0.21664663
-0.013078893 -0.0060841544 0.21975125
-0.012895063 -0.0091555016 0.22274025
-0.013191555 -0.012219678 0.22475949
-0.015618341 -0.014937507 0.22575563
-0.016477106 -0.017732328 0.22719711
-0.016801806 -0.020772602 0.2279195
-0.017487105 -0.023977621 0.23022614
-0.017372575 -0.026638884 0.23378801
-0.0096746115 0.034610584 0.18960141
-0.0087633934 0.032162663 0.19175903
-0.0079185087 0.028943639 0.19453797
-0.0075246622 0.02492645 0.19863111
-0.0078575453 0.01985028 0.20214587
-0.009556558 0.015797773 0.20396441
-0.010359458 0.011989491 0.20529734
-0.010574685 0.008977294 0.2068627
-0.010800023 0.0062190215 0.20893829
-0.011053775 0.0025481482 0.21322335
-0.0099083455 -0.0019836128 0.21773507
-0.0095873578 -0.0051243934 0.22087857
-0.0093430672 -0.0083304457 0.22334109
-0.0095266551 -0.011253525 0.22519614
-0.010674538 -0.01391291 0.2257925
-0.011795486 -0.017219706 0.22831364
-0.012288726 -0.020351989 0.2295417
-0.013313179 -0.024969855 0.23367493
-0.0047992771 0.030984195 0.19595018
-0.0043957257 0.027637685 0.19859324
-0.004442398 0.023123272 0.20120002
-0.0050070602 0.020453071 0.20286898
-0.006040174 0.015369108 0.20503965
-0.0068888483 0.012026261 0.20605165
-0.0071443692 0.0092314007 0.20755683
-0.006969336 0.0065922355 0.21038987
-0.0077955108 0.0037120907 0.21381536
-0.0064046779 -0.00093181629 0.21870293
-0.006140023 -0.0044328705 0.2221617
-0.0058425614 -0.0078583127 0.22323094
-0.0062644621 -0.010915929 0.22551179
-0.0068027372 -0.013805674 0.22669858
-0.0077732299 -0.017066978 0.2292812
-0.0091960747 -0.020514458 0.23088345
-0.010885182 -0.023569928 0.2327794
-0.0010458556 0.025252767 0.20021863
-0.001365686 0.021873964 0.20142475
-0.00071863574 0.01841072 0.20232077
-0.0018766619 0.015483167 0.2043485
-0.0027093692 0.011677606 0.20629941
-0.0027834938 0.0091104116 0.20886676
-0.002883717 0.0067393077 0.21208757
-0.0028683986 7.5988974e-05 0.21917319
-0.0023658897 -0.003877043 0.22224227
-0.002362147 -0.007715554 0.22339018
-0.0027183404 -0.010861264 0.22546594
-0.0036990053 -0.013869728 0.22703296
-0.0051440294 -0.016412264 0.22949673
0.0011516429 0.023302624 0.19996701
0.0010760451 0.020743633 0.20046864
0.0013589977 0.017843425 0.20136862
0.0016411084 0.015227974 0.20386137
0.0013420109 0.012088642 0.20706221
0.0010281381 0.009373188 0.20999767
0.0008276439 0.0070966505 0.21276623
0.00016533519 0.0045309342 0.21556182
0.00072774506 0.0010352429 0.21800968
0.00061273942 -0.0028661897 0.22118551
0.00026464413 -0.0071190004 0.22343434
0.0031154153 0.019607849 0.19970375
0.0046259766 0.017457047 0.20074916
0.0048698471 0.01518076 0.2042703
0.0042978111 0.012500242 0.20738128
0.0039261291 0.0099686487 0.21009246
0.0035716146 0.0082653603 0.21247059
0 0 0 1 0 0 0 1 0 0 0 1 0 0 0 0 0 348 1 0 0
