ply
format ascii 1.0
comment PCL generated
element vertex 348
property float x
property float y
property float z
element camera 1
property float view_px
property float view_py
property float view_pz
property float x_axisx
property float x_axisy
property float x_axisz
property float y_axisx
property float y_axisy
property float y_axisz
property float z_axisx
property float z_axisy
property float z_axisz
property float focal
property float scalex
property float scaley
property float centerx
property float centery
property int viewportx
property int viewporty
property float k1
property float k2
end_header
-0.055924192 0.023979489 0.18649197
-0.056735378 0.021397619 0.18816674
-0.057423506 0.017873729 0.19009688
-0.05772604 0.014619829 0.19215716
-0.057841823 0.011495627 0.19416857
-0.057741914 0.0085650533 0.1960876
-0.057318121 0.0058753416 0.19782002
-0.052584004 0.026068125 0.18234937
-0.05342713 0.024698481 0.18375707
-0.053697594 0.0218956 0.18548641
-0.054167718 0.018349433 0.18740714
-0.054553669 0.014415219 0.18982807
-0.054918073 0.011019494 0.19220616
-0.055326346 0.0079527758 0.19497941
-0.05468319 0.00469187 0.19722892
-0.05179818 0.00055334042 0.19856521
-0.052030247 -0.0021893166 0.20097898
-0.049516309 0.028864108 0.1795284
-0.050006676 0.027192 0.18062198
-0.050192676 0.025030194 0.18185009
-0.050597765 0.022649096 0.18338099
-0.051153205 0.018773139 0.18599398
-0.05103777 0.013577205 0.18902746
-0.051355597 0.0099588521 0.19152388
-0.051500965 0.0069978382 0.19427979
-0.050544884 0.002932729 0.19615312
-0.049502689 -0.0012893117 0.19858997
-0.050494358 -0.0036521323 0.20103489
-0.051550265 -0.0048107491 0.20388357
-0.051596027 -0.0058039539 0.2060225
-0.051481381 -0.0071627893 0.20645423
-0.047069982 0.030356495 0.17928942
-0.047182355 0.027913237 0.17988798
-0.047456589 0.025555925 0.18110871
-0.047998257 0.023225464 0.18288554
-0.048742797 0.020027222 0.18515097
-0.047947798 0.011967559 0.18866718
-0.048253588 0.0083266674 0.19155689
-0.0483444 0.0048972284 0.19393758
-0.047339946 -0.00077000662 0.19605231
-0.047884502 -0.0039115916 0.19806755
-0.048061024 -0.0058968929 0.20001392
-0.048478004 -0.0063764974 0.20228176
-0.048949011 -0.0063776155 0.20565867
-0.049642503 -0.0079270266 0.20754017
-0.0501258 -0.010258558 0.20980833
-0.049756642 -0.013535431 0.21334043
-0.044112708 0.034246907 0.17932424
-0.044312894 0.031753607 0.1796626
-0.044477098 0.028793026 0.18025157
-0.04482536 0.026181052 0.18141925
-0.045464147 0.023545237 0.18312815
-0.046181537 0.020295633 0.18488339
-0.046001736 0.012990425 0.18704452
-0.046305388 0.0066629606 0.19137044
-0.045850862 0.0018821679 0.19381696
-0.046081431 -0.0040161796 0.19633511
-0.047198184 -0.0079310229 0.19736306
-0.047076534 -0.0087718247 0.19894297
-0.046041891 -0.0070664571 0.20094171
-0.045680441 -0.0070647886 0.20537543
-0.046039738 -0.0084669581 0.20842966
-0.046960671 -0.011249936 0.21056613
-0.047866989 -0.01421138 0.21283183
-0.049168523 -0.016117107 0.21609947
-0.041472334 0.036221534 0.17910297
-0.042014677 0.032686867 0.18033627
-0.04168234 0.029869644 0.18094687
-0.042199187 0.026950888 0.18193355
-0.042634886 0.024189223 0.18312663
-0.043062244 0.02096064 0.18457511
-0.043690111 0.015346883 0.18605973
-0.04478281 0.0052169282 0.19123212
-0.044118457 -0.00047783947 0.19343893
-0.044938575 -0.0071303952 0.19499017
-0.045347076 -0.010374408 0.1965443
-0.044057723 -0.0096610794 0.19904216
-0.042904671 -0.0077442336 0.20077936
-0.042571981 -0.0077760555 0.20501715
-0.042612694 -0.0093851509 0.20850156
-0.042972971 -0.012110726 0.21125947
-0.044497862 -0.01467178 0.21333095
-0.046877328 -0.016264781 0.21651042
-0.047559734 -0.018577786 0.22039217
-0.047280483 -0.020677906 0.22314517
-0.037695631 0.039682999 0.17648382
-0.038174935 0.037589479 0.17847779
-0.037153017 0.034782771 0.18030332
-0.038236368 0.03211572 0.18141842
-0.038663521 0.0287423 0.18184341
-0.03932206 0.024811752 0.18304327
-0.039355963 0.021396298 0.18416002
-0.041154191 0.015100792 0.18606077
-0.042916104 0.0046202238 0.19036688
-0.041842408 -0.00053522532 0.19196272
-0.042905889 -0.0089940075 0.1935
-0.041895043 -0.011105944 0.19640923
-0.040397659 -0.0096506793 0.1990293
-0.039983895 -0.0085372869 0.19991314
-0.039234348 -0.0091553126 0.2036888
-0.039615799 -0.011033665 0.20664695
-0.040731769 -0.013267452 0.20907985
-0.042209476 -0.014803177 0.21184194
-0.043081023 -0.016647933 0.21559566
-0.043634944 -0.019110631 0.21949354
-0.044806667 -0.021265099 0.22324319
-0.044637635 -0.023017416 0.22539961
-0.035088893 0.040492326 0.17646702
-0.034855522 0.038738962 0.17825536
-0.034625351 0.035722345 0.17993589
-0.035173468 0.033016194 0.18132192
-0.034883928 0.030243061 0.18209256
-0.034619574 0.026226794 0.18307364
-0.034274776 0.022719871 0.18402195
-0.038129143 0.015124467 0.18591562
-0.041052513 0.0061398768 0.18888648
-0.038946722 0.00068064354 0.19027233
-0.039420791 -0.010339301 0.19252311
-0.038414691 -0.012156203 0.19583493
-0.037451304 -0.010226713 0.19694965
-0.036699358 -0.0093349675 0.19903249
-0.036634762 -0.010533751 0.20193811
-0.036821455 -0.012174551 0.20453519
-0.037838515 -0.013744807 0.20833136
-0.039516471 -0.015705008 0.21169239
-0.039521318 -0.017160537 0.21536879
-0.04002979 -0.019140659 0.21908079
-0.040715363 -0.021252116 0.22274913
-0.041359629 -0.023280445 0.22559288
-0.032021612 0.041095085 0.17702068
-0.031937897 0.039407928 0.17847233
-0.031911161 0.036091004 0.18049234
-0.03205565 0.032865494 0.1819106
-0.031524599 0.030331787 0.18278803
-0.030909967 0.026843686 0.18381262
-0.030618947 0.022591211 0.18557329
-0.031492732 0.018616633 0.18576142
-0.038354866 0.0087626614 0.18725482
-0.036144312 0.0031982581 0.18916234
-0.034278482 2.9192581e-05 0.19002938
-0.034380749 -0.0083581116 0.19132787
-0.033792146 -0.0088438867 0.19533609
-0.033533931 -0.007911467 0.19869313
-0.033163495 -0.009717836 0.20195265
-0.033379048 -0.011950493 0.20467505
-0.034637637 -0.013520661 0.20888558
-0.03614502 -0.015800543 0.21269432
-0.036477488 -0.017311003 0.21560784
-0.036815677 -0.018862125 0.21942498
-0.037913568 -0.021348905 0.22278042
-0.037880007 -0.022851296 0.22569242
-0.029174929 0.041542992 0.1774748
-0.02895798 0.039809953 0.17884029
-0.028802037 0.036656685 0.18078896
-0.028765621 0.033451736 0.18239583
-0.028212184 0.030694207 0.18344969
-0.027986513 0.027133578 0.18473713
-0.027717179 0.023414433 0.18624203
-0.027254058 0.020528093 0.18649083
-0.032230735 0.013465436 0.18664724
-0.032756407 0.0061066928 0.18915685
-0.029800059 0.0040938295 0.19117442
-0.029534152 0.00065716146 0.19342402
-0.030001445 -0.0041605132 0.19521934
-0.030071598 -0.0058186622 0.19709748
-0.03014623 -0.0092161838 0.20281875
-0.030206246 -0.01123273 0.20516871
-0.031442799 -0.013121936 0.20965493
-0.032864764 -0.01543164 0.21355127
-0.033006039 -0.01715105 0.21650065
-0.033493023 -0.01824856 0.22111636
-0.033828892 -0.020305131 0.22370583
-0.034597989 -0.022655435 0.22671013
-0.034595896 -0.023838868 0.22961847
-0.026162321 0.041960843 0.17794639
-0.0259941 0.040296614 0.17908314
-0.025416518 0.037759058 0.18055709
-0.025545876 0.03454759 0.18282293
-0.025359411 0.031459734 0.18440905
-0.025183547 0.027888212 0.18588291
-0.024939531 0.024228049 0.18698859
-0.024884859 0.021056471 0.18732187
-0.025949033 0.016371071 0.18801814
-0.028616138 0.0093661891 0.18968511
-0.025408333 0.005973361 0.19341224
-0.025089335 0.0026527126 0.19574951
-0.024624813 -0.00053753873 0.19847161
-0.024867637 -0.004420781 0.20207451
-0.025673486 -0.0075301938 0.20487583
-0.026885888 -0.010100323 0.20754191
-0.027965311 -0.012476766 0.21139066
-0.028507628 -0.0147388 0.21559811
-0.029538509 -0.016776755 0.21880366
-0.030457906 -0.018452173 0.22234736
-0.030962978 -0.02054381 0.22498266
-0.031702645 -0.023055838 0.22761679
-0.031900596 -0.024394274 0.23037413
-0.024096135 0.042665802 0.17803226
-0.022926662 0.040954106 0.17951158
-0.021986265 0.038867399 0.18083303
-0.021905713 0.035859518 0.18312271
-0.0222768 0.032287687 0.18580745
-0.022412892 0.02912966 0.18744603
-0.022399412 0.025132161 0.1881562
-0.022316355 0.021497943 0.18892907
-0.022303585 0.017884474 0.19071898
-0.022525769 0.013592881 0.19271572
-0.021980437 0.0083071776 0.19527584
-0.021412212 0.0040486609 0.19746104
-0.021457369 0.00056576764 0.20029502
-0.022184312 -0.0033309434 0.20414531
-0.022908967 -0.0064409203 0.20740664
-0.023428863 -0.0089094965 0.21071735
-0.024101036 -0.011548999 0.21426341
-0.024640951 -0.014370397 0.21889696
-0.02659752 -0.016973104 0.22166629
-0.028376298 -0.018925678 0.22423096
-0.028233763 -0.021001155 0.22571167
-0.028204672 -0.023308804 0.22797953
-0.028402442 -0.02526951 0.2310248
-0.019055681 0.041280538 0.18038201
-0.019074954 0.038489468 0.18220381
-0.018383397 0.035790872 0.18423314
-0.018823892 0.033046558 0.18663168
-0.019013109 0.030102523 0.18887253
-0.019367311 0.02678578 0.1904375
-0.0194306 0.022076644 0.19122715
-0.01974903 0.01846198 0.19286032
-0.020165185 0.014973332 0.19472638
-0.019827137 0.010929728 0.1964034
-0.018832223 0.0062741609 0.19848025
-0.0186108 0.0017172879 0.20247275
-0.0191385 -0.0022806891 0.20666452
-0.019623803 -0.0055333828 0.21094953
-0.020116394 -0.0084059341 0.21396555
-0.020454807 -0.011373141 0.21789783
-0.021701438 -0.01425101 0.22198777
-0.02356061 -0.016952412 0.22456622
-0.025723785 -0.019188756 0.22665465
-0.025123704 -0.021473035 0.22627325
-0.02490245 -0.023963105 0.22769445
-0.025071865 -0.025929576 0.23114456
-0.015914494 0.038921099 0.18321247
-0.015172453 0.036279179 0.18521446
-0.015320048 0.033634908 0.1874598
-0.015492456 0.030921029 0.18955497
-0.014877986 0.02782554 0.19169095
-0.01472323 0.023805151 0.19444053
-0.017109359 0.019131618 0.19519605
-0.017420286 0.015517385 0.19707526
-0.016816307 0.011521126 0.19851695
-0.015947796 0.0069763814 0.2009555
-0.015794924 0.0029924856 0.2042322
-0.016215425 -0.00079860049 0.20906624
-0.016492521 -0.0049350588 0.21400911
-0.016415043 -0.0082410714 0.21783186
-0.016433021 -0.011275761 0.22145283
-0.018139753 -0.013867541 0.22413212
-0.020399371 -0.016520215 0.22668454
-0.021500753 -0.018657746 0.22786289
-0.021686142 -0.020933509 0.22769503
-0.021332169 -0.023575736 0.2289771
-0.021850957 -0.026479896 0.23295499
-0.012352463 0.036688697 0.18623926
-0.0119871 0.034315865 0.18827361
-0.011793016 0.031731952 0.19041148
-0.011323769 0.028602457 0.19219929
-0.010409365 0.024953483 0.19641349
-0.011206352 0.020016413 0.19987075
-0.013277365 0.015116531 0.20035748
-0.012970406 0.010797806 0.20132223
-0.012880351 0.0072733853 0.20295428
-0.013095991 0.0038175504 0.20533431
-0.013432399 0.00022792735 0.21088305
-0.012910406 -0.0046202312 0.21658267
-0.012647179 -0.0076392363 0.21992938
-0.0126459 -0.01068845 0.22302209
-0.013171582 -0.013489011 0.22528736
-0.015881892 -0.015688542 0.22642767
-0.017045312 -0.018185467 0.22799051
-0.017513361 -0.020987149 0.2287427
-0.018173994 -0.023838347 0.23098636
-0.018202381 -0.026364738 0.23451906
-0.0094033638 0.034615982 0.18912664
-0.0084676668 0.032256704 0.19146813
-0.0075446647 0.029112253 0.19455098
-0.0071467799 0.025086731 0.19918203
-0.0075838515 0.01961547 0.20256311
-0.009195745 0.015132987 0.20310043
-0.0097767077 0.01074271 0.20307004
-0.009893233 0.0074480241 0.20409182
-0.010151601 0.0046292576 0.20606664
-0.010656196 0.0013798283 0.21142326
-0.0093001369 -0.0038350555 0.21786436
-0.0091463886 -0.0069577284 0.22121784
-0.0090883365 -0.010065419 0.22382687
-0.0094352448 -0.012768724 0.22570576
-0.010795034 -0.015051407 0.22638151
-0.012253355 -0.017953968 0.22899728
-0.013039654 -0.020945393 0.23039202
-0.014271759 -0.025133448 0.23455586
-0.0044539706 0.031269751 0.19647332
-0.0040912353 0.027897511 0.19956307
-0.0042600292 0.023145935 0.20240001
-0.0048402352 0.020133084 0.20359485
-0.0057572462 0.014665688 0.20449105
-0.0064574587 0.010859272 0.20424388
-0.0066852402 0.0078025162 0.20520976
-0.0067633283 0.0052163247 0.20815556
-0.0077536562 0.0024023033 0.21178696
-0.0057665315 -0.0029669486 0.2190294
-0.0057397378 -0.0063723535 0.22257821
-0.0056148232 -0.0096939709 0.22385736
-0.0062078475 -0.012568039 0.22607198
-0.0068736183 -0.015245856 0.22732706
-0.0080918008 -0.018226968 0.22995968
-0.0098652476 -0.021362746 0.23167393
-0.011812631 -0.024102291 0.23375984
-0.00080727978 0.025447242 0.20162484
-0.0011405986 0.021926761 0.20253812
-0.00035259433 0.018319076 0.20281351
-0.0015586967 0.014988148 0.20416738
-0.0024515837 0.010831509 0.2054071
-0.0026302803 0.0079386588 0.20771407
-0.0029871331 0.00543109 0.21097323
-0.0025272581 -0.0017415618 0.21960691
-0.0019781673 -0.0058940877 0.22277395
-0.0021519051 -0.0097124008 0.2240613
-0.0026276072 -0.012698741 0.22612408
-0.003746304 -0.015477359 0.22766311
-0.0053872401 -0.017839666 0.23015289
0.0014332813 0.023583574 0.2013538
0.0014651174 0.020987846 0.20151183
0.0019034998 0.017946666 0.20188788
0.0020570033 0.014896718 0.20396903
0.0015192571 0.01130335 0.20680016
0.001069708 0.008267737 0.20953012
0.00070186728 0.0058892304 0.2122746
-0.00022081153 0.0033317411 0.21508418
0.00043177506 -0.00019589272 0.21826142
0.00085719617 -0.0047261859 0.22183438
0.00052414002 -0.0091737751 0.22414248
0.0036510401 0.019985264 0.20073493
0.0053145792 0.017694555 0.20159717
0.0052476875 0.014895629 0.20483214
0.004453925 0.011750967 0.2074752
0.0039585149 0.0089425026 0.20996483
0.0034165983 0.0071649984 0.21239097
0 0 0 1 0 0 0 1 0 0 0 1 0 0 0 0 0 348 1 0 0
