ply
format ascii 1.0
comment PCL generated
element vertex 348
property float x
property float y
property float z
element camera 1
property float view_px
property float view_py
property float view_pz
property float x_axisx
property float x_axisy
property float x_axisz
property float y_axisx
property float y_axisy
property float y_axisz
property float z_axisx
property float z_axisy
property float z_axisz
property float focal
property float scalex
property float scaley
property float centerx
property float centery
property int viewportx
property int viewporty
property float k1
property float k2
end_header
-0.055844869 0.023773964 0.186709
-0.056381367 0.021222122 0.18828702
-0.057017375 0.017787339 0.19021779
-0.057301685 0.014542191 0.19220653
-0.057443224 0.011448278 0.19423023
-0.057326484 0.0086081028 0.19614308
-0.056880943 0.0059707002 0.1979174
-0.052212562 0.025813336 0.18262862
-0.053114034 0.024442893 0.18381555
-0.053355932 0.021678869 0.18552472
-0.053779937 0.018250529 0.18748118
-0.054162756 0.014360002 0.18980291
-0.054544427 0.010971134 0.19212246
-0.054932233 0.0079569677 0.19490975
-0.054402746 0.004713811 0.1973536
-0.051458329 0.00082828652 0.19871485
-0.051789336 -0.0019687929 0.20104691
-0.04912788 0.028716125 0.18021394
-0.049608782 0.026990283 0.1811053
-0.049799073 0.024775738 0.18208896
-0.050207604 0.022326268 0.18340418
-0.050744433 0.018623194 0.18597569
-0.050717935 0.013528413 0.18884438
-0.051051039 0.0099194469 0.19125019
-0.051288035 0.0069063078 0.19422643
-0.050284706 0.0030534181 0.19617863
-0.049188886 -0.0010507185 0.19868822
-0.050290823 -0.0034790896 0.20106463
-0.05139723 -0.0047018002 0.20387192
-0.051465582 -0.0057563591 0.20599289
-0.051362693 -0.0071211113 0.2064198
-0.046710987 0.030127024 0.17960428
-0.046808612 0.027725939 0.18024622
-0.047074541 0.02533005 0.18131827
-0.047564343 0.022939913 0.18290232
-0.048254952 0.019703509 0.1850365
-0.047722083 0.011930273 0.18827564
-0.04798739 0.0083230501 0.19113001
-0.048100095 0.0048501557 0.19379883
-0.047014628 -0.00052218704 0.19612934
-0.047654182 -0.0037344433 0.19808908
-0.0479143 -0.0057367506 0.19997035
-0.048349865 -0.0062820697 0.20225902
-0.048819389 -0.0063328077 0.20561938
-0.049527746 -0.0079311868 0.20749216
-0.050032191 -0.010339173 0.20970218
-0.049769264 -0.013614587 0.21317783
-0.043768916 0.033847835 0.17887764
-0.043935981 0.031435795 0.17961417
-0.044094507 0.028573206 0.18042082
-0.044438656 0.02595588 0.18150525
-0.045029696 0.023264853 0.1830536
-0.045644168 0.019985462 0.18466918
-0.04563088 0.012874251 0.18662906
-0.046072252 0.0066060047 0.19115923
-0.045505662 0.0019912026 0.19373977
-0.045875788 -0.0038197371 0.1963257
-0.047103342 -0.0077777817 0.1972833
-0.046987984 -0.0086300531 0.19886674
-0.045916196 -0.0069849333 0.20090079
-0.045547217 -0.0070744464 0.20532182
-0.045944933 -0.0085283425 0.20835593
-0.046953898 -0.011302081 0.21045221
-0.047889791 -0.014309254 0.21264151
-0.049136952 -0.016311936 0.21587825
-0.041243814 0.035781577 0.17829576
-0.041653764 0.032337073 0.17991319
-0.041239914 0.029598616 0.18084626
-0.041795257 0.026724089 0.18191734
-0.042207133 0.023979282 0.18300377
-0.042568609 0.020703323 0.18431839
-0.043200903 0.015193914 0.18563242
-0.044475049 0.0051966617 0.19098051
-0.043802533 -0.00035872843 0.1933693
-0.044853147 -0.006983676 0.19491732
-0.045297693 -0.010236554 0.19644096
-0.043979634 -0.009582663 0.19895604
-0.042787872 -0.0077139768 0.20071648
-0.042462241 -0.0078233359 0.20495579
-0.04253279 -0.0094851926 0.20840915
-0.043001451 -0.012231395 0.211082
-0.044528149 -0.014817113 0.21307798
-0.046802625 -0.016500356 0.21622671
-0.047390427 -0.018999951 0.21999747
-0.047025248 -0.021196406 0.22255592
-0.037552584 0.039520837 0.17628616
-0.038059354 0.03737168 0.17805554
-0.03704052 0.034601521 0.17990761
-0.038034279 0.031894524 0.1810746
-0.038468663 0.028625779 0.18198138
-0.039023113 0.024722224 0.18309675
-0.03895127 0.021282474 0.18398979
-0.040684026 0.01504064 0.18560253
-0.042569228 0.0045665256 0.19008164
-0.041539099 -0.00051009021 0.19181374
-0.042863343 -0.0088734208 0.19339371
-0.041852769 -0.011035894 0.1962959
-0.04032078 -0.0096460301 0.19892251
-0.039881986 -0.008551118 0.19980954
-0.039114658 -0.0092112347 0.20356324
-0.039528586 -0.011092933 0.20650658
-0.04076447 -0.013260975 0.20882463
-0.042271156 -0.014850383 0.21152379
-0.043042716 -0.016860036 0.21518122
-0.04349586 -0.0195044 0.21896809
-0.044539794 -0.021852667 0.22261062
-0.044204529 -0.023717146 0.22461459
-0.034980655 0.040389046 0.17641594
-0.034781918 0.038706701 0.17827602
-0.034575395 0.035715725 0.17999123
-0.035082482 0.032887537 0.18120274
-0.034838561 0.030211646 0.18235356
-0.034666486 0.026443172 0.18395069
-0.034325123 0.022919228 0.18453333
-0.03793567 0.015211876 0.18556079
-0.040707018 0.0060507916 0.18853617
-0.038606115 0.00058999326 0.18997668
-0.039408404 -0.010307945 0.19241141
-0.038400095 -0.012184629 0.1956936
-0.037394904 -0.01032061 0.19680938
-0.036583751 -0.0094756801 0.19885603
-0.036530729 -0.010616104 0.20176046
-0.036715917 -0.012233145 0.20434931
-0.037862875 -0.013650785 0.20805842
-0.039609134 -0.015673036 0.2113315
-0.039600387 -0.017311718 0.21490303
-0.03993829 -0.019520281 0.21846563
-0.040493514 -0.021817891 0.2219929
-0.040959056 -0.023950048 0.22465941
-0.03193257 0.040989466 0.17696872
-0.031857882 0.039375905 0.17849876
-0.031895168 0.036095042 0.18062592
-0.032052416 0.032879185 0.18204458
-0.031580929 0.030443612 0.1832404
-0.031118279 0.027094897 0.184615
-0.030875124 0.022742065 0.18558581
-0.03176818 0.018750213 0.18573454
-0.038025074 0.0086743832 0.18692072
-0.035717599 0.0030381936 0.18866479
-0.033829108 -0.00018595401 0.18941857
-0.034293607 -0.0085794237 0.19104137
-0.033719514 -0.0091474894 0.19510661
-0.033328395 -0.0082935737 0.19834392
-0.032996479 -0.0099206511 0.20167346
-0.033267755 -0.012057713 0.20446576
-0.034661595 -0.013444072 0.20864251
-0.036267854 -0.015767613 0.21232128
-0.036634315 -0.017341247 0.21510008
-0.036814209 -0.019193554 0.21872817
-0.037638374 -0.021947742 0.22187775
-0.037433367 -0.023523452 0.22462744
-0.029057354 0.041443858 0.17741308
-0.028892752 0.039740767 0.17883982
-0.028803647 0.036607496 0.18090013
-0.028796311 0.033437181 0.18258244
-0.028326217 0.030750072 0.18383031
-0.028244074 0.02726889 0.18525761
-0.028068857 0.023526279 0.18648745
-0.027727921 0.020636465 0.18680745
-0.03226373 0.013673033 0.18647657
-0.032240961 0.0061233812 0.18831603
-0.029221905 0.0038787848 0.19046362
-0.028881626 0.00031073159 0.19251385
-0.029609898 -0.0046638618 0.19455996
-0.029799167 -0.0064366376 0.19659664
-0.029947493 -0.0094563765 0.20250371
-0.030064974 -0.011361477 0.20492758
-0.031496402 -0.012996519 0.20945607
-0.033011131 -0.015375259 0.21321796
-0.0331534 -0.017138381 0.21584755
-0.033430509 -0.018650241 0.22017746
-0.033539664 -0.020905258 0.22256678
-0.034126315 -0.023338186 0.22549345
-0.033948589 -0.024495296 0.22836259
-0.026091391 0.041860957 0.17788237
-0.025941785 0.040203046 0.1790408
-0.025396997 0.037635911 0.18048467
-0.025509605 0.034312941 0.18265371
-0.025322061 0.03124962 0.18431072
-0.025324788 0.027832892 0.18607855
-0.025330771 0.024268782 0.18733764
-0.025395637 0.021096559 0.18773752
-0.026520967 0.016462641 0.18836071
-0.028298831 0.0094072679 0.18917479
-0.024817158 0.0057820096 0.19275877
-0.024477411 0.0023800784 0.19519143
-0.023989845 -0.00089147687 0.19792284
-0.024430713 -0.004769587 0.20162331
-0.025488222 -0.0077025821 0.20458138
-0.02687652 -0.0099408263 0.20731442
-0.028060643 -0.012166404 0.21115939
-0.028767232 -0.014277711 0.21517989
-0.029697718 -0.016684134 0.21785666
-0.030318337 -0.018805929 0.22118296
-0.030619862 -0.021132801 0.22365314
-0.031152673 -0.023670606 0.22621576
-0.0312007 -0.024947466 0.22896937
-0.024037369 0.042572096 0.17796305
-0.022894736 0.040859584 0.17945243
-0.02196941 0.038754761 0.18072453
-0.021802448 0.035510849 0.18268226
-0.022103889 0.031825792 0.185195
-0.022345457 0.028826335 0.18713401
-0.022744454 0.025086923 0.18840709
-0.022898154 0.021530593 0.18936029
-0.022788564 0.017861923 0.19095473
-0.022564812 0.013487455 0.19259517
-0.021789979 0.0082904277 0.19511573
-0.021128921 0.0041028722 0.19739421
-0.021116588 0.00049936073 0.20009607
-0.021862406 -0.0034836591 0.20375748
-0.022775939 -0.0064200168 0.20709154
-0.023431297 -0.0087016271 0.2103669
-0.02426515 -0.011064834 0.21396841
-0.02502046 -0.013727385 0.21821065
-0.026637372 -0.016788449 0.22050358
-0.028115546 -0.01929028 0.22289225
-0.02784577 -0.021472301 0.22416332
-0.027711237 -0.023798956 0.22636078
-0.027740959 -0.025663471 0.22945814
-0.019123049 0.041293025 0.18049507
-0.019146241 0.038461726 0.1822333
-0.01847033 0.035619397 0.18399967
-0.018824371 0.032671813 0.18606275
-0.019030899 0.029803406 0.18838573
-0.019491632 0.026629601 0.19023444
-0.019947892 0.022048377 0.1915489
-0.02000434 0.018394042 0.19285443
-0.020184031 0.01491946 0.19450194
-0.01979899 0.010974567 0.19632472
-0.018919686 0.0065251063 0.19875759
-0.018663224 0.0019480722 0.20270815
-0.01896135 -0.0023235197 0.20641953
-0.019437369 -0.0055482467 0.21054034
-0.020073203 -0.0082177585 0.21353993
-0.020644428 -0.010944068 0.21741678
-0.021970488 -0.013734254 0.22101086
-0.023485458 -0.016791509 0.22317955
-0.025331851 -0.019449944 0.22503808
-0.02469462 -0.021760011 0.2245414
-0.024387805 -0.024243522 0.22594854
-0.024403805 -0.026123898 0.22953905
-0.016176838 0.039027795 0.18355323
-0.015414242 0.036240008 0.1852634
-0.015481921 0.033403803 0.18716356
-0.015625289 0.030685049 0.1891741
-0.015046164 0.027650736 0.19134837
-0.014901003 0.023693034 0.19408599
-0.017213162 0.019088361 0.19492199
-0.017399983 0.015560237 0.19680859
-0.016820122 0.011695811 0.19852953
-0.016149921 0.0075248731 0.20172988
-0.016123442 0.0036322703 0.20505238
-0.016224537 -0.00073710264 0.20905393
-0.016356779 -0.0049066837 0.21354546
-0.016424561 -0.0081011606 0.21715802
-0.016517259 -0.011076147 0.22054483
-0.018301623 -0.013537494 0.22293457
-0.020236129 -0.016323594 0.22504373
-0.021178789 -0.018713346 0.22605504
-0.021246778 -0.020986408 0.2258452
-0.020806538 -0.023656927 0.22721832
-0.021201739 -0.026469965 0.23129368
-0.012659436 0.036673907 0.18637894
-0.012219952 0.034148522 0.18804605
-0.011993269 0.031498656 0.19001831
-0.011541874 0.028422348 0.19172917
-0.010579214 0.024782337 0.19571754
-0.011120384 0.019796234 0.19903173
-0.013245672 0.015256929 0.20020124
-0.013154128 0.011302801 0.20187207
-0.013279344 0.0081165349 0.20410451
-0.013597897 0.0047452166 0.20658475
-0.01360138 0.00042032971 0.21109653
-0.012952444 -0.0044155996 0.2159521
-0.012727832 -0.0073715881 0.21915054
-0.012662509 -0.010400269 0.22218403
-0.013126956 -0.01317014 0.2242291
-0.015730608 -0.015396406 0.22493474
-0.016691016 -0.017961884 0.22615239
-0.016997626 -0.020807078 0.22686452
-0.017609475 -0.023730004 0.22917864
-0.017529415 -0.026219314 0.23277707
-0.0096754832 0.034445975 0.18888651
-0.0087233949 0.032068204 0.1910082
-0.0078053554 0.028972892 0.19390123
-0.007207714 0.024863891 0.19812511
-0.0074305357 0.019644264 0.20161343
-0.0091689359 0.01544718 0.20302112
-0.010041068 0.011489579 0.20410064
-0.010296395 0.0084730852 0.20557898
-0.010626917 0.0056841527 0.20759399
-0.010934193 0.0019206427 0.21207637
-0.0094252806 -0.0034426919 0.21720238
-0.0092191519 -0.0065406635 0.22050099
-0.0091160545 -0.0095675755 0.22307131
-0.0094035091 -0.012178163 0.22496487
-0.010651097 -0.014491219 0.22544047
-0.011981129 -0.017418468 0.22769633
-0.012607341 -0.020461136 0.22889322
-0.013731346 -0.024742475 0.23290677
-0.0047160825 0.031084673 0.19554046
-0.004178856 0.027697293 0.19836697
-0.0041252677 0.023094956 0.20112313
-0.0047289575 0.020291464 0.2026142
-0.0057307365 0.015150136 0.20445253
-0.0066296947 0.011665286 0.20527847
-0.006985188 0.0088661397 0.20670898
-0.0069885002 0.0062580756 0.20959009
-0.0079520317 0.0032563051 0.21290906
-0.0059132576 -0.00243272 0.21835309
-0.00584538 -0.0057981876 0.22193509
-0.0056991433 -0.0090524973 0.22323518
-0.0062374817 -0.011820991 0.22552773
-0.0068521905 -0.01441214 0.22676864
-0.0080170175 -0.017376984 0.22923017
-0.009585402 -0.020643981 0.23059824
-0.011380942 -0.023529548 0.23236606
-0.00076586939 0.025346272 0.20033796
-0.0010494654 0.02194301 0.20153099
-0.00032293695 0.018512966 0.2023928
-0.0015702202 0.015513761 0.20426744
-0.0025260416 0.011656147 0.20616232
-0.0026841417 0.008909977 0.2086212
-0.002885327 0.0063207946 0.21163775
-0.0025061639 -0.0012055122 0.21892376
-0.0021073325 -0.0051880605 0.22224417
-0.0022212171 -0.0088480664 0.22362858
-0.0027211651 -0.011717209 0.22576465
-0.0037739137 -0.014440342 0.22731924
-0.0054037003 -0.016795661 0.22975181
0.001484288 0.023478217 0.20025016
0.0014797832 0.020934822 0.2007239
0.0018342567 0.018060375 0.20155868
0.0019723824 0.015418144 0.20409305
0.0014971138 0.012118197 0.20723376
0.0011362518 0.009141787 0.20995526
0.00089230458 0.0066765789 0.21256043
0.00014432846 0.0039776932 0.21520995
0.00085091911 9.8414246e-05 0.21773426
0.00084801647 -0.0040345406 0.22129758
0.00040153091 -0.0082123308 0.22381184
0.0036005287 0.019887507 0.20007251
0.0051458343 0.017763542 0.20117758
0.0051674671 0.015435745 0.20476776
0.004445496 0.012555286 0.20772798
0.0040266821 0.0097992839 0.21023592
0.0036074594 0.0079181269 0.2124849
0 0 0 1 0 0 0 1 0 0 0 1 0 0 0 0 0 348 1 0 0
