ply
format ascii 1.0
comment PCL generated
element vertex 348
property float x
property float y
property float z
element camera 1
property float view_px
property float view_py
property float view_pz
property float x_axisx
property float x_axisy
property float x_axisz
property float y_axisx
property float y_axisy
property float y_axisz
property float z_axisx
property float z_axisy
property float z_axisz
property float focal
property float scalex
property float scaley
property float centerx
property float centery
property int viewportx
property int viewporty
property float k1
property float k2
end_header
-0.055783417 0.023664612 0.18661921
-0.056347985 0.02115961 0.18819062
-0.056980513 0.017740486 0.19011202
-0.057262477 0.014502158 0.19209012
-0.057399563 0.011423095 0.19410735
-0.057286941 0.0085911276 0.19603296
-0.056845065 0.0059605329 0.19781432
-0.052184153 0.025731159 0.18254039
-0.053088818 0.024371438 0.18371077
-0.053328805 0.021615924 0.18541069
-0.0537568 0.018195283 0.18736668
-0.054136131 0.014313229 0.18966398
-0.054520402 0.010935976 0.191976
-0.054907903 0.0079348627 0.19477466
-0.054347951 0.0047045159 0.19725601
-0.05143569 0.0008153611 0.19862853
-0.051781774 -0.0019799503 0.20094521
-0.049099557 0.028624749 0.18016246
-0.049579479 0.026905738 0.18103616
-0.049775936 0.0246947 0.18199946
-0.050187495 0.022249468 0.18329361
-0.050723501 0.018553849 0.1858428
-0.050703749 0.013481437 0.18866274
-0.05103505 0.009879142 0.19105701
-0.051222652 0.0069088298 0.19409196
-0.050255537 0.003062902 0.19605279
-0.049176842 -0.0010640441 0.19859691
-0.05028969 -0.0034907151 0.20096995
-0.051404245 -0.0047157817 0.20377104
-0.051477991 -0.0057712807 0.20589519
-0.051373266 -0.0071243187 0.20634003
-0.046681475 0.030032543 0.179528
-0.046787217 0.027641846 0.18017499
-0.047057748 0.025252562 0.18122533
-0.047547143 0.022858877 0.18278497
-0.048236325 0.019617807 0.184894
-0.047725923 0.011881922 0.18805432
-0.047981482 0.0082729552 0.19090538
-0.04803903 0.0048467587 0.19362712
-0.047007021 -0.00053300551 0.19600905
-0.047650535 -0.0037472418 0.19799785
-0.047904525 -0.0057567223 0.19986738
-0.048355252 -0.0062967292 0.20216978
-0.048824839 -0.0063420297 0.20553146
-0.049537878 -0.0079274671 0.20742059
-0.050042074 -0.010322729 0.20964848
-0.049752153 -0.01358577 0.21309046
-0.043744266 0.033745408 0.17875902
-0.043909799 0.031340841 0.17951514
-0.04407189 0.02849061 0.18033339
-0.044426881 0.025874071 0.181398
-0.045016699 0.02317944 0.1829174
-0.045629166 0.019898381 0.18450424
-0.045638554 0.012824731 0.18641321
-0.046039198 0.0065942667 0.19096313
-0.045474824 0.001970649 0.1935441
-0.04588943 -0.0038347095 0.19619706
-0.047128893 -0.0078248857 0.19718763
-0.047004063 -0.0086624427 0.19877329
-0.04592612 -0.0070020375 0.20080845
-0.045556027 -0.0070778704 0.20523235
-0.045959298 -0.0085242037 0.20827781
-0.046936359 -0.011289638 0.2103419
-0.047877453 -0.014287205 0.21254748
-0.049120285 -0.016271217 0.21578687
-0.041237269 0.035690311 0.17816974
-0.041631993 0.032247495 0.17979321
-0.041214228 0.029515462 0.18074004
-0.04178232 0.026640911 0.18179157
-0.042195056 0.023899199 0.18284769
-0.0425561 0.020616805 0.18413307
-0.043205604 0.015134982 0.18541463
-0.04446749 0.0051847924 0.19073807
-0.043806639 -0.00038564848 0.19315486
-0.044913299 -0.0070301332 0.19479473
-0.045328815 -0.010274535 0.19634226
-0.043997448 -0.0096055642 0.19884981
-0.042810552 -0.0077236416 0.20060895
-0.042477287 -0.007822006 0.20487092
-0.042547721 -0.0094750999 0.20833048
-0.04297493 -0.012215301 0.21094772
-0.044520203 -0.014798591 0.21295787
-0.046788532 -0.016471993 0.21611191
-0.04735418 -0.018967925 0.21988468
-0.046977032 -0.0211452 0.2224104
-0.037553169 0.039487258 0.17621467
-0.038061317 0.037316378 0.17796077
-0.037040967 0.03454823 0.1798061
-0.038028814 0.031831823 0.18095101
-0.038455058 0.028564282 0.1818371
-0.039007794 0.024649944 0.18291447
-0.038939413 0.021204349 0.18377919
-0.040700145 0.014997737 0.1853676
-0.042602953 0.0045663817 0.18978481
-0.04155612 -0.00054107473 0.1915188
-0.042935062 -0.0089199198 0.19326667
-0.041880291 -0.011060022 0.19618492
-0.040348791 -0.0096479673 0.19880246
-0.039916091 -0.008548528 0.19969146
-0.039141349 -0.0092018023 0.20346032
-0.039555009 -0.011072223 0.20641838
-0.040774606 -0.013251808 0.20866284
-0.042285144 -0.01482502 0.21136877
-0.043046974 -0.016851451 0.2150287
-0.043474566 -0.01949 0.21882245
-0.044494562 -0.021833546 0.22246768
-0.044122297 -0.023697956 0.22445123
-0.034982216 0.040369634 0.17634986
-0.034782887 0.038680624 0.17820449
-0.034580544 0.03568048 0.17990635
-0.035089482 0.032843851 0.18108843
-0.034833118 0.030167621 0.18220642
-0.034640588 0.026390044 0.18375441
-0.034314524 0.022878734 0.18429299
-0.037972398 0.015214281 0.18529038
-0.040781476 0.0060752565 0.18820013
-0.038664185 0.00057781208 0.18957643
-0.039459761 -0.010400072 0.19228125
-0.0384284 -0.012224293 0.19559141
-0.037436165 -0.010343903 0.19667591
-0.036629375 -0.0094657075 0.19871654
-0.036570419 -0.010588609 0.20165755
-0.036760859 -0.0121955 0.20425919
-0.037892032 -0.01366615 0.20786516
-0.039657079 -0.0156704 0.21114911
-0.039627448 -0.017317427 0.21471772
-0.039927531 -0.019515019 0.21828939
-0.040459443 -0.021810511 0.22181812
-0.040898357 -0.023936817 0.22446616
-0.031931292 0.040973112 0.17690338
-0.031857833 0.039352041 0.17843214
-0.031904653 0.036046907 0.18054405
-0.032066461 0.032823376 0.18191591
-0.031577777 0.030394116 0.1830783
-0.031104449 0.027044903 0.18440434
-0.030896701 0.022701098 0.18530169
-0.031817567 0.018738238 0.1854119
-0.038130362 0.0087331915 0.186565
-0.035803299 0.0030703687 0.18819737
-0.033880275 -0.00016458449 0.1889431
-0.034339309 -0.0087042572 0.19084856
-0.033770062 -0.0092094364 0.19495535
-0.033381112 -0.0082946727 0.19818647
-0.033050731 -0.0098717082 0.20156549
-0.033320211 -0.01198853 0.20438398
-0.034686916 -0.013483543 0.20843075
-0.036316231 -0.015799336 0.21211605
-0.03667485 -0.01736993 0.21487282
-0.036810633 -0.019202672 0.21850371
-0.037607979 -0.021940904 0.2216592
-0.03737881 -0.023533821 0.22437951
-0.029067045 0.041420557 0.17734975
-0.028896714 0.039711256 0.17876992
-0.028813021 0.036546547 0.18081887
-0.028805649 0.033365212 0.18244448
-0.028325779 0.030684885 0.18364759
-0.028243737 0.02720084 0.18503165
-0.028088965 0.023476634 0.18620795
-0.027774829 0.020610487 0.18649547
-0.032337163 0.013703275 0.18610467
-0.032298069 0.0061323154 0.18787786
-0.029221041 0.0039332551 0.19003673
-0.028880056 0.00035716617 0.19210823
-0.029648138 -0.0046913442 0.19427733
-0.029857229 -0.0064645731 0.1964093
-0.030029159 -0.0093787992 0.20241325
-0.030147655 -0.011257971 0.20486341
-0.031514205 -0.013062025 0.20923018
-0.033049222 -0.015441155 0.21299249
-0.033180818 -0.017195322 0.21556143
-0.033399139 -0.018683199 0.21987686
-0.033494823 -0.020928489 0.22226955
-0.0340643 -0.023356874 0.22518517
-0.033864174 -0.024508685 0.22805245
-0.026102442 0.041832745 0.17781694
-0.025951479 0.0401689 0.17896579
-0.025407178 0.037588187 0.18040067
-0.02551977 0.034245525 0.18251106
-0.02532338 0.031181829 0.18413021
-0.025329832 0.027756 0.18585946
-0.025359901 0.024214987 0.18706921
-0.025460236 0.021063499 0.18743567
-0.026623065 0.016442655 0.18800475
-0.028334765 0.0093944026 0.18875024
-0.024787942 0.0057081026 0.1923469
-0.02443837 0.0023919609 0.19486655
-0.023971651 -0.00089426991 0.19765075
-0.024468945 -0.0047725337 0.20146887
-0.025579993 -0.0076107536 0.20449695
-0.026869936 -0.010011906 0.20708036
-0.028052857 -0.012237494 0.21094047
-0.028761566 -0.014351061 0.21493182
-0.029693961 -0.01676398 0.21753126
-0.030283373 -0.01886257 0.22083347
-0.030567188 -0.021171072 0.22331078
-0.031087495 -0.023685137 0.22589567
-0.031127991 -0.024922533 0.22865315
-0.024052469 0.042545039 0.17789909
-0.022908438 0.040830757 0.17938115
-0.021979399 0.038722608 0.18064365
-0.021808732 0.035459448 0.18256435
-0.022108976 0.031759329 0.18502641
-0.02235161 0.028752713 0.18695118
-0.022785367 0.025029693 0.18816169
-0.022993501 0.021482816 0.18906644
-0.022884365 0.017806403 0.19062994
-0.022572845 0.013420919 0.19221452
-0.021727828 0.0081965392 0.19470553
-0.021048917 0.0039958274 0.1969987
-0.021028075 0.00036972523 0.19973186
-0.021794399 -0.0036193198 0.2034786
-0.022728819 -0.0065173875 0.20686309
-0.023401113 -0.0087869605 0.21015729
-0.024246028 -0.011142361 0.21377046
-0.025012067 -0.013791217 0.21795824
-0.026623428 -0.016867992 0.22020371
-0.028086513 -0.019355647 0.22254057
-0.027803682 -0.021511482 0.22381115
-0.027663017 -0.023779994 0.22603583
-0.027687738 -0.025602633 0.22916105
-0.019145934 0.041279159 0.18044148
-0.019159278 0.038435768 0.182156
-0.018472238 0.035578314 0.18388277
-0.018822018 0.032625291 0.18591592
-0.019033963 0.029761372 0.18824069
-0.019505024 0.026587555 0.19007334
-0.020051355 0.021975011 0.19129343
-0.020082036 0.018329287 0.1925393
-0.020185659 0.014846455 0.19413963
-0.019746125 0.010885582 0.19590685
-0.018843412 0.0064252419 0.19835261
-0.018585866 0.0018237826 0.20238736
-0.018879632 -0.0024677052 0.20616184
-0.019363943 -0.0056935023 0.21034357
-0.020023486 -0.0083475159 0.21335202
-0.020622479 -0.011048574 0.21722308
-0.021970393 -0.013807941 0.2207648
-0.023487592 -0.016863275 0.22289197
-0.025314653 -0.0195002 0.22469683
-0.024668084 -0.021775285 0.22421299
-0.024359077 -0.024207963 0.22564796
-0.02437046 -0.026044285 0.22927687
-0.016199272 0.039006114 0.1834875
-0.015422817 0.036206577 0.18516114
-0.015482221 0.033365544 0.18703847
-0.015626593 0.030655583 0.18904303
-0.015039263 0.027624069 0.19120893
-0.014876286 0.02364219 0.1938877
-0.017253961 0.019028651 0.19460735
-0.017385451 0.01548632 0.19644755
-0.016749753 0.011598269 0.19812943
-0.016028328 0.0074063553 0.20137067
-0.016037274 0.0035221733 0.20476933
-0.016131492 -0.00087889004 0.20882463
-0.016282354 -0.0050842133 0.21337828
-0.016376 -0.0082849404 0.21697246
-0.016496295 -0.011242739 0.22035813
-0.018323341 -0.013630661 0.22269726
-0.020253094 -0.016380148 0.22476155
-0.021193093 -0.0187415 0.22574505
-0.021245817 -0.020977331 0.22553544
-0.020806724 -0.023602404 0.22694078
-0.021204604 -0.026369875 0.23103864
-0.012670086 0.03663997 0.18628372
-0.012222122 0.034112934 0.1879244
-0.011991623 0.031470511 0.18987769
-0.01152822 0.028398301 0.19158062
-0.010529612 0.024732547 0.19551739
-0.011019194 0.019704295 0.1987423
-0.013147856 0.015153082 0.19984809
-0.013032386 0.011182418 0.20151657
-0.013173211 0.0080220299 0.20379524
-0.013526637 0.0046680253 0.20631362
-0.013528925 0.00028973093 0.21088766
-0.012874284 -0.0046405573 0.2157813
-0.012669575 -0.0075979237 0.21898624
-0.012629643 -0.010609706 0.222032
-0.013121377 -0.013327681 0.2240545
-0.015749631 -0.015464178 0.22467995
-0.016727885 -0.017982688 0.22584991
-0.017037999 -0.020793157 0.22657777
-0.017645009 -0.023667656 0.2289114
-0.017569548 -0.0261232 0.23252645
-0.0096833734 0.034416713 0.18877001
-0.0087263566 0.032047737 0.19087273
-0.0077935401 0.028957691 0.19374815
-0.0071375524 0.024807582 0.19792539
-0.0073230849 0.019575471 0.20137805
-0.0090549989 0.015360377 0.20273934
-0.0099343695 0.011404257 0.2038347
-0.010215952 0.0084161814 0.20534828
-0.010577317 0.0056253308 0.20736898
-0.010886917 0.0018169403 0.21186548
-0.009339002 -0.0036938314 0.21706554
-0.0091605103 -0.0067768288 0.22038841
-0.0090841772 -0.0097699892 0.22297476
-0.0093892841 -0.012330792 0.22486173
-0.010650223 -0.014590236 0.22529788
-0.012014785 -0.017442679 0.22747992
-0.012670199 -0.020463169 0.22867621
-0.013819562 -0.024678383 0.23268472
-0.004714563 0.031071158 0.19539572
-0.0041417726 0.027665518 0.19820745
-0.0040488183 0.023054948 0.20095949
-0.0046533351 0.020247053 0.20243622
-0.0056354986 0.015105562 0.20423721
-0.0065415897 0.011616187 0.20510255
-0.0069314698 0.008835203 0.20657656
-0.0069698128 0.0062224111 0.20946175
-0.0079534482 0.0031795686 0.21273798
-0.0058344263 -0.0026732462 0.21826091
-0.0058035003 -0.0060132383 0.2218675
-0.0056843916 -0.0092384927 0.22319822
-0.0062409481 -0.011962563 0.22547799
-0.0068648802 -0.01450839 0.22672035
-0.0080680093 -0.01742411 0.22913671
-0.0096596833 -0.020654036 0.23045367
-0.011478725 -0.023502761 0.23219925
-0.00071761903 0.025340749 0.2002313
-0.00097648025 0.021941049 0.20144121
-0.00022919702 0.018533716 0.20234798
-0.0014913135 0.015531985 0.20419197
-0.0024730207 0.011676818 0.20611686
-0.0026537809 0.0089042168 0.20857865
-0.0028707259 0.0062668468 0.21154302
-0.0024469323 -0.0013973777 0.21885628
-0.0020777583 -0.0053827022 0.22223419
-0.0022050084 -0.0090120779 0.22364627
-0.0027331761 -0.011844139 0.2257776
-0.0037962084 -0.014522405 0.22731751
-0.005458137 -0.016850766 0.22973095
0.0015532356 0.023499502 0.20020138
0.001571179 0.020963782 0.20069817
0.0019406137 0.018102007 0.20155911
0.0020431341 0.015463994 0.20411149
0.0015318609 0.012151646 0.20725083
0.00116359 0.0091314157 0.20993319
0.00091156008 0.006626111 0.212501
0.00015114553 0.0038928513 0.21511528
0.00087811629 -5.8182282e-05 0.21765214
0.00087796396 -0.0041992827 0.22131167
0.0004096246 -0.0083641754 0.22386374
0.0037097542 0.01993981 0.20009632
0.0052533164 0.017828317 0.20123641
0.0052248985 0.015497936 0.20483465
0.0044759354 0.012596274 0.20777455
0.0040485905 0.0098034535 0.21024755
0.0036189763 0.00788261 0.21246324
0 0 0 1 0 0 0 1 0 0 0 1 0 0 0 0 0 348 1 0 0
