ply
format ascii 1.0
comment PCL generated
element vertex 348
property float x
property float y
property float z
element camera 1
property float view_px
property float view_py
property float view_pz
property float x_axisx
property float x_axisy
property float x_axisz
property float y_axisx
property float y_axisy
property float y_axisz
property float z_axisx
property float z_axisy
property float z_axisz
property float focal
property float scalex
property float scaley
property float centerx
property float centery
property int viewportx
property int viewporty
property float k1
property float k2
end_header
-0.055567171 0.023414889 0.18617439
-0.056233201 0.021001909 0.18791686
-0.056846164 0.017634779 0.18980981
-0.057119656 0.014407247 0.19175307
-0.057244197 0.011362375 0.19374922
-0.057140239 0.0085543934 0.19570354
-0.056706175 0.0059425337 0.19750217
-0.052090693 0.025506008 0.18226893
-0.053005431 0.024181822 0.18339728
-0.053237297 0.021457335 0.18506874
-0.053675011 0.018061476 0.1870286
-0.054039624 0.014196659 0.18924825
-0.054431163 0.010840302 0.19153088
-0.05481454 0.0078706695 0.19435461
-0.054211278 0.0046922225 0.19674857
-0.051516779 0.00069906999 0.1982297
-0.051844429 -0.0020798973 0.20053466
-0.049006339 0.028370537 0.17996997
-0.049485926 0.026666364 0.18080187
-0.049700301 0.024465619 0.18171301
-0.050120469 0.022037329 0.18295567
-0.050650466 0.018379472 0.18543984
-0.050652143 0.01335897 0.18810898
-0.05097793 0.0097598555 0.1904586
-0.051076476 0.006827869 0.19326627
-0.050267112 0.0030561646 0.19542535
-0.049273394 -0.0011586796 0.19816875
-0.050350312 -0.003580403 0.2005596
-0.051423728 -0.0047921683 0.2033803
-0.051458031 -0.0058237487 0.20552731
-0.051343482 -0.0071017542 0.20602366
-0.046590712 0.029758887 0.17925444
-0.046720278 0.027398489 0.17991856
-0.047002364 0.025029993 0.18091427
-0.047489848 0.02262977 0.18241325
-0.048163455 0.019385489 0.18445364
-0.047729358 0.011752114 0.18737289
-0.047959022 0.0081271203 0.19020867
-0.047960896 0.0047488087 0.19274259
-0.047185671 -0.00056973757 0.19549608
-0.04775364 -0.0038280955 0.19756185
-0.047940783 -0.0058459183 0.19940601
-0.048377685 -0.0063622152 0.20177747
-0.048767179 -0.0063606617 0.20514311
-0.049491752 -0.0078544328 0.20710893
-0.050003402 -0.010160617 0.20941524
-0.04973546 -0.013508129 0.21279611
-0.043653391 0.03343939 0.1783375
-0.043829214 0.031061493 0.17916082
-0.044000439 0.028248506 0.18001865
-0.044385552 0.025639554 0.18103381
-0.044969849 0.022941031 0.18247992
-0.0455692 0.019661844 0.18398929
-0.04563937 0.012694686 0.18574253
-0.046047252 0.0064761587 0.1899817
-0.045550298 0.0019371925 0.19274752
-0.046083689 -0.003856166 0.19561876
-0.047278825 -0.0079790512 0.19673388
-0.047087692 -0.0087616025 0.19834927
-0.045969963 -0.0070667006 0.20037682
-0.045506794 -0.0070675858 0.20480466
-0.045880783 -0.0084482301 0.20790209
-0.046907529 -0.011260857 0.20998481
-0.047876693 -0.014234396 0.21223322
-0.049118396 -0.01616898 0.21548845
-0.041200235 0.035404578 0.17772271
-0.041555524 0.031973455 0.17937095
-0.041127425 0.029267559 0.18035366
-0.041736934 0.026401101 0.1813623
-0.042154334 0.02367655 0.18233977
-0.042508174 0.020383382 0.18354304
-0.043196376 0.014985798 0.18472199
-0.044508494 0.005101013 0.18978348
-0.044021774 -0.00038282209 0.19233122
-0.045229256 -0.0071329209 0.19421875
-0.045493633 -0.010356055 0.19586743
-0.044076439 -0.0096563417 0.19835046
-0.042856049 -0.0077498956 0.20008779
-0.042442437 -0.0078065312 0.20441066
-0.042469256 -0.0094096046 0.20790431
-0.042919688 -0.012181834 0.21051224
-0.04453712 -0.014764168 0.21256544
-0.046795957 -0.016409466 0.21574868
-0.047299687 -0.018893063 0.21953109
-0.046887256 -0.021023652 0.22196835
-0.037544873 0.039386429 0.1759797
-0.038054533 0.037143949 0.1776323
-0.037025556 0.03437781 0.17943238
-0.037998788 0.031632695 0.18050487
-0.038400508 0.02837362 0.18132655
-0.038953383 0.024447406 0.18230805
-0.038893826 0.02099921 0.18309645
-0.040722191 0.014896848 0.18461619
-0.042746849 0.0046064099 0.18872504
-0.041793346 -0.00054336264 0.19049291
-0.043297894 -0.0089958776 0.19264629
-0.042051639 -0.01111576 0.19562086
-0.040447388 -0.0096819531 0.19818629
-0.039984461 -0.0085858097 0.19907694
-0.039112668 -0.0092467023 0.20287444
-0.039525878 -0.01105669 0.2058973
-0.040835664 -0.01323047 0.2081397
-0.042367086 -0.014757498 0.21086343
-0.043114204 -0.016850403 0.21454982
-0.043465849 -0.019471765 0.21836834
-0.04441379 -0.021802019 0.22202112
-0.04392672 -0.023672778 0.22393924
-0.034975287 0.040314279 0.17614156
-0.034769062 0.03860246 0.1779675
-0.034574673 0.035563137 0.17957637
-0.035091508 0.032705832 0.18066311
-0.034797244 0.030029651 0.18168522
-0.034545396 0.026230549 0.18308364
-0.034275636 0.022771722 0.18351643
-0.038049523 0.015243095 0.1844434
-0.040970724 0.0061696032 0.18703751
-0.038892973 0.0006116404 0.1882955
-0.039807115 -0.010624625 0.19155161
-0.038657751 -0.012378036 0.19488095
-0.037630618 -0.010509402 0.19586219
-0.036719777 -0.0096111977 0.19790268
-0.036604643 -0.01067818 0.20099746
-0.036795627 -0.012249775 0.20363447
-0.038013797 -0.013709624 0.20725201
-0.039848909 -0.015662087 0.21056417
-0.039763372 -0.017365724 0.21413627
-0.03995413 -0.019531744 0.21773568
-0.040413029 -0.021820005 0.22126874
-0.040773738 -0.023935046 0.22386815
-0.031913772 0.04092104 0.17668349
-0.031838585 0.039278872 0.17820445
-0.0319186 0.035902116 0.18025266
-0.032094032 0.032658443 0.18148066
-0.031557754 0.030251656 0.18254861
-0.031067941 0.026914436 0.18375106
-0.030964578 0.022603681 0.18444739
-0.031934559 0.018708186 0.18443315
-0.03834375 0.0088825198 0.18533756
-0.036001597 0.0031035517 0.186736
-0.034023676 -0.00025409504 0.18735524
-0.034660969 -0.009173302 0.18976367
-0.034001514 -0.0096163573 0.1939472
-0.033424556 -0.0086738849 0.19716935
-0.033044904 -0.010105698 0.20074688
-0.033361029 -0.012115462 0.20367368
-0.034797497 -0.013602999 0.2077699
-0.036513474 -0.015903253 0.21147408
-0.036853056 -0.017482439 0.21417598
-0.036854859 -0.019252365 0.21782704
-0.037572455 -0.021936405 0.22100583
-0.037273195 -0.023584388 0.22361524
-0.029069917 0.041346971 0.17712837
-0.028888216 0.039621018 0.17853327
-0.028832268 0.036377765 0.18056838
-0.028825952 0.033175439 0.18203896
-0.028328149 0.030523833 0.18313649
-0.028258523 0.027034588 0.18439578
-0.028152209 0.023359586 0.18538609
-0.027885944 0.020540336 0.18556847
-0.032498743 0.013797035 0.18497671
-0.032446407 0.0061816345 0.18656406
-0.029154658 0.0037656513 0.18846583
-0.028665002 1.8692934e-05 0.19038044
-0.029598733 -0.0052457107 0.19278847
-0.029902132 -0.0070786257 0.19516908
-0.030006228 -0.0096705835 0.20153955
-0.030148612 -0.011448833 0.20407043
-0.031593643 -0.013258662 0.20852929
-0.033213474 -0.015651349 0.2122962
-0.03332461 -0.017367009 0.21471237
-0.033373542 -0.01876194 0.21901767
-0.033430759 -0.020964297 0.22143374
-0.033947304 -0.023409419 0.22429115
-0.033690408 -0.024566449 0.22713746
-0.026113231 0.04174675 0.17759871
-0.025960781 0.040070262 0.17872755
-0.02542326 0.037458744 0.18016134
-0.025539897 0.034074675 0.1821312
-0.025332315 0.031016724 0.18364948
-0.025361273 0.027568491 0.18526547
-0.025446523 0.024083328 0.18629865
-0.025613474 0.020977275 0.18654707
-0.026841531 0.016379854 0.18692173
-0.028429007 0.0093711512 0.18748279
-0.024729121 0.0054911911 0.19112125
-0.024075406 0.0019521278 0.1933939
-0.023468783 -0.0014326625 0.19625323
-0.024157127 -0.0052755228 0.20042287
-0.025497666 -0.0078851981 0.20363154
-0.02684515 -0.010251005 0.20636664
-0.028040528 -0.012482136 0.21026352
-0.028777413 -0.014589677 0.21418115
-0.029736375 -0.016976846 0.21658802
-0.030243358 -0.018994976 0.21984631
-0.030483564 -0.021248875 0.22233839
-0.030969493 -0.023710141 0.22495848
-0.030977789 -0.024845175 0.2277095
-0.024075869 0.042465579 0.17769574
-0.022930674 0.040752821 0.17917837
-0.021997513 0.038639545 0.18042769
-0.021819966 0.03532904 0.18225488
-0.022124717 0.031593759 0.18458109
-0.022376005 0.028563023 0.18646099
-0.022897135 0.02488195 0.18745598
-0.023225056 0.021355538 0.18819587
-0.023112996 0.017646139 0.18964171
-0.022600202 0.013238983 0.19105689
-0.02157831 0.0079269493 0.19346738
-0.020824233 0.0036713188 0.19580716
-0.020759139 -2.6756967e-05 0.19863985
-0.021558482 -0.0040423824 0.20265558
-0.022548698 -0.0068384241 0.20617923
-0.023277091 -0.0091007743 0.20951127
-0.02418692 -0.011423199 0.21316291
-0.02502632 -0.014003585 0.21715626
-0.026635537 -0.017095115 0.21929471
-0.028057344 -0.019518886 0.22152002
-0.027752245 -0.021597663 0.22277059
-0.027594309 -0.023715129 0.22504981
-0.027592154 -0.025418181 0.22823848
-0.019200943 0.04124774 0.18030308
-0.019192519 0.038372178 0.18195458
-0.018479617 0.035484694 0.18357305
-0.018811416 0.032521758 0.18551867
-0.01902904 0.029657306 0.18782641
-0.019508475 0.026470244 0.18959077
-0.020303465 0.021777175 0.1905279
-0.020288507 0.01814772 0.1915769
-0.020201961 0.014637335 0.19303042
-0.019613955 0.010630699 0.19463214
-0.01863154 0.0061260322 0.19712321
-0.018321417 0.0014234986 0.20141502
-0.018570041 -0.0029500583 0.2053766
-0.019076979 -0.0062084896 0.20973881
-0.019826345 -0.0088186804 0.21276498
-0.020558469 -0.011414438 0.21661137
-0.022008615 -0.01404463 0.21995124
-0.023522018 -0.017060257 0.22197047
-0.025306463 -0.01963171 0.22364788
-0.024653891 -0.021807227 0.22319952
-0.024341842 -0.024098154 0.22470425
-0.024344081 -0.025815897 0.22843762
-0.016260391 0.038948689 0.18331181
-0.015453083 0.036132179 0.18489729
-0.015491674 0.033295162 0.18671745
-0.015626648 0.030602878 0.18868747
-0.015002821 0.027557759 0.19078517
-0.014777783 0.023480959 0.19322613
-0.017374128 0.018852137 0.19363768
-0.01735477 0.015263882 0.19533072
-0.01655014 0.011307808 0.19688533
-0.015666779 0.0070520011 0.20026049
-0.015757103 0.0031764505 0.20392416
-0.015804037 -0.0013625779 0.20814924
-0.016007056 -0.0057023619 0.21287283
-0.016214019 -0.0089085726 0.21639179
-0.016452188 -0.011804084 0.21974707
-0.018410349 -0.013945258 0.22187266
-0.020331988 -0.016529812 0.22383152
-0.021285076 -0.018815534 0.22473723
-0.021301568 -0.020944495 0.22453532
-0.020885134 -0.023450848 0.22602366
-0.021284042 -0.026096102 0.23019518
-0.012710907 0.036562793 0.1860397
-0.012244476 0.034049086 0.18762034
-0.011997671 0.031427633 0.18950418
-0.011489093 0.028350169 0.19113851
-0.010388067 0.024564309 0.19484589
-0.010731294 0.019381152 0.19772951
-0.01283522 0.014801391 0.19867676
-0.012630994 0.010794109 0.2003459
-0.012829247 0.0077321767 0.20280281
-0.013295081 0.004436879 0.20548777
-0.013289507 -0.00014094397 0.21029234
-0.012636779 -0.0053575416 0.21530642
-0.01252465 -0.0083095962 0.21851858
-0.012564541 -0.011269395 0.2215821
-0.013126913 -0.013842894 0.22346002
-0.015822642 -0.015701663 0.22378203
-0.016876312 -0.018053787 0.22478296
-0.017213639 -0.02076415 0.22557293
-0.017825069 -0.023502743 0.22797984
-0.017766278 -0.025877226 0.2316647
-0.0097273774 0.034373872 0.18848537
-0.0087549882 0.032024272 0.19051951
-0.0077833897 0.028916426 0.19328649
-0.0069586327 0.024604278 0.19720364
-0.007028481 0.019314611 0.20045756
-0.0086895544 0.015038452 0.2017151
-0.0095608113 0.011110391 0.20290813
-0.0099412808 0.0082300445 0.20457861
-0.010406824 0.005445498 0.20665932
-0.010742783 0.0014908842 0.21126297
-0.0091164792 -0.0044389758 0.21674699
-0.009033611 -0.0074832416 0.2201194
-0.0090346988 -0.010394446 0.22272415
-0.0093852812 -0.012831628 0.22453801
-0.010678514 -0.014947133 0.22479478
-0.012139362 -0.017570823 0.22666718
-0.012908154 -0.020515585 0.22783938
-0.014161271 -0.024548905 0.23186663
-0.0047724596 0.03103132 0.19496651
-0.0040962384 0.027547838 0.19763932
-0.0038727149 0.022886543 0.20025589
-0.0044669909 0.020071354 0.20168151
-0.0053344592 0.014934775 0.20339942
-0.0062385206 0.01143809 0.20444633
-0.0067479867 0.0087227765 0.20612238
-0.0069049923 0.0061078737 0.20904303
-0.0079617221 0.0029537296 0.21221122
-0.0056555001 -0.0033589362 0.21810572
-0.0057365582 -0.0066486513 0.22176591
-0.0056884107 -0.00980544 0.22314893
-0.006293836 -0.012425602 0.22533697
-0.0069352994 -0.01485681 0.22654115
-0.0082567949 -0.01764478 0.22874884
-0.0099267578 -0.020758037 0.22986475
-0.011834627 -0.02349552 0.2315308
-0.00065176358 0.025326304 0.19978602
-0.00081255072 0.021913912 0.20099814
1.2309482e-05 0.018579058 0.20205991
-0.0012729757 0.015566424 0.20379227
-0.0023177643 0.011722293 0.2058675
-0.0025669714 0.0088941948 0.20839825
-0.0028223472 0.0061344486 0.21123379
-0.0023225311 -0.0019302722 0.21877368
-0.002058557 -0.0059488262 0.22233008
-0.0022097419 -0.0095012384 0.22377829
-0.0028194243 -0.012262544 0.2258469
-0.0039029061 -0.014827524 0.22729795
-0.0056582959 -0.017100889 0.22960725
0.0017008622 0.023587223 0.19994822
0.0018057238 0.021065298 0.20050097
0.0022316182 0.018233687 0.20145327
0.0022266074 0.015588123 0.20405036
0.0016165555 0.012248322 0.20719086
0.0012414772 0.0091248341 0.20978896
0.00097514072 0.0065141399 0.21226414
0.00019367498 0.0036879899 0.21479641
0.00096177083 -0.00047081232 0.21744771
0.00090721506 -0.0046628909 0.22148241
0.00036835423 -0.0088128019 0.22411793
0.0040111248 0.020139212 0.20009193
0.0055495114 0.018065328 0.20136043
0.0053584077 0.01568877 0.20493579
0.0045458032 0.012723876 0.20779143
0.0041091917 0.0098402007 0.21018086
0.003666241 0.0078115105 0.21230797
0 0 0 1 0 0 0 1 0 0 0 1 0 0 0 0 0 348 1 0 0
