ply
format ascii 1.0
comment PCL generated
element vertex 348
property float x
property float y
property float z
element camera 1
property float view_px
property float view_py
property float view_pz
property float x_axisx
property float x_axisy
property float x_axisz
property float y_axisx
property float y_axisy
property float y_axisz
property float z_axisx
property float z_axisy
property float z_axisz
property float focal
property float scalex
property float scaley
property float centerx
property float centery
property int viewportx
property int viewporty
property float k1
property float k2
end_header
-0.055321328 0.023170475 0.18562126
-0.055998035 0.02078527 0.18752018
-0.056561474 0.017501568 0.18935056
-0.056809347 0.014306008 0.1912681
-0.056908805 0.0113069 0.19325143
-0.056816157 0.0085336408 0.19523327
-0.056404408 0.0059363362 0.1970502
-0.051969793 0.025206827 0.18195383
-0.052852772 0.023951756 0.18300082
-0.053045943 0.021260938 0.1845655
-0.053491332 0.017895032 0.18649736
-0.053793684 0.014081514 0.18861312
-0.054193266 0.010745408 0.19088247
-0.054587316 0.0077984342 0.1937439
-0.054032654 0.0045372183 0.19574738
-0.051687114 0.00050752272 0.19719432
-0.051992774 -0.0022532556 0.19949886
-0.048988093 0.028023994 0.17977425
-0.049460761 0.026320348 0.18055671
-0.049659993 0.024132879 0.18137592
-0.050053202 0.02173684 0.1825269
-0.050503913 0.018142436 0.18481337
-0.050476667 0.01325817 0.18731213
-0.050788898 0.009654195 0.18959524
-0.050930414 0.0065465411 0.19188502
-0.050257981 0.0027729168 0.19406442
-0.049435545 -0.0013006313 0.19702761
-0.050489761 -0.0037440998 0.1995202
-0.051515896 -0.0049551423 0.2023903
-0.051502965 -0.0059721661 0.20458218
-0.051381703 -0.0071565001 0.20516285
-0.046592895 0.029352749 0.17897908
-0.046761654 0.02704416 0.17962842
-0.047038492 0.024699923 0.1805394
-0.047498226 0.022284457 0.18192312
-0.0480722 0.019026693 0.18377249
-0.047616221 0.011677311 0.18640867
-0.047829106 0.0079716798 0.18919228
-0.047848396 0.004467723 0.19118023
-0.047415905 -0.00073276443 0.19416632
-0.047921456 -0.004035871 0.19638047
-0.048071325 -0.0059848586 0.19830069
-0.048468359 -0.0065013175 0.20077752
-0.048765428 -0.0064422642 0.20419635
-0.049525239 -0.0078614699 0.20625617
-0.050115086 -0.010120875 0.20861273
-0.049919676 -0.013513846 0.21223067
-0.043592826 0.032942247 0.17787124
-0.04384141 0.030625585 0.1787425
-0.044030998 0.027876146 0.17962889
-0.044440355 0.025308494 0.18056661
-0.04499387 0.022604579 0.18187064
-0.045540437 0.019294024 0.18318382
-0.045551911 0.012565832 0.18469702
-0.046040434 0.0063876468 0.18843699
-0.045549564 0.0018091315 0.19105789
-0.046360072 -0.0039125551 0.19413857
-0.047499336 -0.0081262793 0.19553852
-0.047196623 -0.0088787982 0.1972523
-0.046077523 -0.0071863472 0.19934745
-0.045514159 -0.0070952014 0.20383629
-0.04584254 -0.0084194466 0.20698686
-0.047039192 -0.01130346 0.20937522
-0.048083272 -0.014278783 0.21164389
-0.049357999 -0.016202109 0.21490227
-0.041171737 0.034883235 0.17719087
-0.04151427 0.031478856 0.17883974
-0.041110083 0.028852992 0.17980705
-0.041787524 0.026062844 0.18078691
-0.042202897 0.02337287 0.18162304
-0.042521473 0.020053059 0.18260966
-0.043171525 0.014793369 0.18357119
-0.044488173 0.0050834464 0.18814184
-0.044202603 -0.00048954674 0.19050182
-0.045615409 -0.0073351772 0.19287135
-0.045679536 -0.010410289 0.19470307
-0.044156261 -0.009684612 0.1971817
-0.04292687 -0.0077686119 0.1989335
-0.042455334 -0.0078305556 0.20337804
-0.042426426 -0.0094274804 0.2069045
-0.043029148 -0.012195761 0.2097989
-0.044785522 -0.014832546 0.21187621
-0.047049236 -0.016487394 0.21509017
-0.047464792 -0.019007675 0.21885917
-0.046989106 -0.021125488 0.22116941
-0.037559018 0.039077185 0.17557688
-0.038038276 0.036726337 0.17713444
-0.036966149 0.03394641 0.17877936
-0.037972949 0.031198528 0.17974867
-0.038379829 0.028026344 0.18052107
-0.038964041 0.024170531 0.18142428
-0.038904049 0.020755997 0.18199703
-0.040739935 0.014776696 0.18336311
-0.042877682 0.0049149571 0.18683812
-0.042050857 -0.00043563082 0.1882273
-0.043714739 -0.0090951165 0.19129427
-0.042262994 -0.011146734 0.19434202
-0.040583622 -0.0097155003 0.19685248
-0.040094905 -0.0086183976 0.19776678
-0.039132513 -0.0093211913 0.20159402
-0.039600797 -0.011134029 0.20467637
-0.04113457 -0.01321293 0.20728365
-0.042730454 -0.014709811 0.21000117
-0.04345607 -0.016957676 0.21373875
-0.043685392 -0.019600308 0.2175705
-0.044515662 -0.021985264 0.22118513
-0.043853268 -0.023899624 0.22297779
-0.034994211 0.040091328 0.17573182
-0.034753606 0.038338427 0.17749843
-0.034557037 0.035220727 0.17894202
-0.035080861 0.032355681 0.17983297
-0.034732487 0.029724156 0.18072245
-0.034430332 0.02595303 0.18197928
-0.034288075 0.022618329 0.18233854
-0.038127426 0.015310336 0.18310022
-0.041196074 0.0066114985 0.18506333
-0.039262615 0.0010613985 0.18564115
-0.040313415 -0.010911373 0.18984011
-0.03902055 -0.012571662 0.19314383
-0.037934564 -0.01072702 0.19391206
-0.036912434 -0.0097863544 0.19609369
-0.036751546 -0.010840485 0.19954655
-0.0369763 -0.012390047 0.2022007
-0.038428523 -0.01374328 0.20628251
-0.040406432 -0.015664071 0.20958608
-0.040215075 -0.017523838 0.21318249
-0.040235985 -0.019661278 0.21679936
-0.040564395 -0.022019297 0.22030188
-0.040791214 -0.02417535 0.22277766
-0.031918574 0.040728167 0.17624435
-0.031823553 0.039050359 0.17774704
-0.03192772 0.035548095 0.17967378
-0.032094203 0.032277964 0.1806365
-0.031485252 0.029941456 0.18154879
-0.031028742 0.026686806 0.1826622
-0.031142274 0.022492556 0.18319006
-0.032095339 0.018668443 0.18293168
-0.038588442 0.0094425902 0.18322195
-0.036325537 0.0035469134 0.18402152
-0.034380771 -4.0265149e-06 0.18427406
-0.035259571 -0.0097699231 0.18732201
-0.03441342 -0.010159819 0.19163486
-0.033597734 -0.0091667948 0.19505183
-0.033152301 -0.010505982 0.19907771
-0.033577092 -0.012420468 0.20213108
-0.035223544 -0.013735907 0.20679505
-0.037090544 -0.016068392 0.21046276
-0.037384231 -0.017710989 0.21308391
-0.037139013 -0.019405078 0.21675831
-0.037735548 -0.022029093 0.21996625
-0.037338272 -0.023784017 0.22235769
-0.029097786 0.041155718 0.17668197
-0.028886249 0.039397731 0.17806119
-0.028855689 0.036022697 0.18005674
-0.028807009 0.032805908 0.18127514
-0.028289787 0.030245917 0.18225655
-0.028291242 0.026799925 0.18341769
-0.02829005 0.023232605 0.18418255
-0.028024836 0.020443691 0.18418024
-0.032673176 0.013881653 0.18322434
-0.032711349 0.0061445036 0.18450207
-0.029292155 0.0038135867 0.18571521
-0.028681645 -0.00018939142 0.18740542
-0.02976994 -0.005917096 0.19000068
-0.03008466 -0.0078924065 0.19274393
-0.030029569 -0.010170105 0.19988365
-0.030211357 -0.011820542 0.20245394
-0.031979598 -0.013467598 0.20754622
-0.033748329 -0.015956283 0.21125394
-0.03379802 -0.017624646 0.21347134
-0.033585679 -0.018852999 0.21779822
-0.033584736 -0.02095932 0.2202798
-0.034031864 -0.023469858 0.22302432
-0.033705164 -0.024625933 0.22580573
-0.026169831 0.041578397 0.17717461
-0.025987966 0.039889615 0.17826429
-0.025424333 0.037232045 0.17967211
-0.025518114 0.03377904 0.18146895
-0.025324451 0.030771377 0.18290485
-0.025416018 0.027326025 0.18440063
-0.025587605 0.023920225 0.18516816
-0.02578439 0.0208543 0.18520692
-0.027017362 0.0162622 0.18520047
-0.028639467 0.009238679 0.18545702
-0.024828138 0.0051603769 0.18922521
-0.023901885 0.0013965314 0.19088514
-0.023046523 -0.0021737725 0.19394872
-0.023834338 -0.0059895101 0.19892672
-0.025379336 -0.0084574316 0.2022471
-0.027036954 -0.010553039 0.2054565
-0.028298546 -0.012822307 0.20938224
-0.029107222 -0.014961083 0.21312626
-0.03007362 -0.017230779 0.2153084
-0.030481176 -0.019100023 0.21849632
-0.030647546 -0.021246353 0.22099729
-0.031067759 -0.023629336 0.22361135
-0.030978428 -0.024609232 0.22629674
-0.0241546 0.042346641 0.17732167
-0.022975592 0.040666588 0.17881526
-0.022014828 0.038545813 0.18001904
-0.021798151 0.035164271 0.1817431
-0.022120124 0.03138037 0.18394862
-0.022394724 0.028304407 0.18574406
-0.023035765 0.024685342 0.18638961
-0.02347772 0.021167807 0.18684378
-0.023354832 0.017381106 0.18804088
-0.022704178 0.013006809 0.18923315
-0.021518346 0.0075631165 0.19157138
-0.020680219 0.003211916 0.19403125
-0.020576449 -0.00057498447 0.19711073
-0.021384163 -0.0046252664 0.20161746
-0.022411181 -0.0073184245 0.20532675
-0.023243718 -0.0096488856 0.20867832
-0.024321608 -0.011957652 0.21236017
-0.025333781 -0.014435933 0.21590891
-0.026970975 -0.01743596 0.21795611
-0.028324146 -0.01966846 0.22006495
-0.027984472 -0.021608716 0.22125509
-0.027747475 -0.023475537 0.22352143
-0.027658327 -0.0250243 0.22674142
-0.019291738 0.041287363 0.18010943
-0.019260855 0.038373269 0.18164048
-0.018466977 0.035444934 0.18320875
-0.018751996 0.032449562 0.18500561
-0.018973794 0.02953431 0.18721177
-0.019417427 0.026278339 0.18878035
-0.020546155 0.021473249 0.18928619
-0.020582646 0.017874861 0.19001326
-0.020330148 0.014347019 0.19130014
-0.019588506 0.010294273 0.19268949
-0.018469444 0.0056863995 0.19524741
-0.017985068 0.00075803761 0.19995205
-0.018173847 -0.0037348995 0.20428714
-0.018714029 -0.007109608 0.2089702
-0.01962724 -0.0096846828 0.21203318
-0.02066369 -0.01209103 0.21577859
-0.022360923 -0.014484352 0.21859868
-0.023814822 -0.017315943 0.22046852
-0.025561627 -0.019748492 0.22200245
-0.024914468 -0.021745559 0.22161554
-0.024565529 -0.023815669 0.22317868
-0.024530841 -0.025413489 0.22699919
-0.016355352 0.038935322 0.18316174
-0.015518389 0.036120351 0.18467517
-0.015540889 0.033316534 0.18640073
-0.015631977 0.0306259 0.18825664
-0.014930138 0.027538104 0.19015397
-0.014617241 0.023326153 0.19210301
-0.017613841 0.018581577 0.19209495
-0.017459152 0.014942197 0.1936132
-0.016433937 0.01090171 0.19500017
-0.015259188 0.0064965934 0.19848557
-0.015286141 0.0024854243 0.20251258
-0.015316186 -0.0022778376 0.20715907
-0.015634796 -0.0068212328 0.21221267
-0.01610023 -0.0099922316 0.21562937
-0.016613636 -0.01275076 0.21891387
-0.018789323 -0.014488922 0.22045931
-0.020699481 -0.016710339 0.2222818
-0.021696946 -0.018830365 0.22305368
-0.021695156 -0.020799207 0.22285728
-0.021300757 -0.023129184 0.22443527
-0.021655045 -0.02568852 0.22871201
-0.012811291 0.036544334 0.18586078
-0.012331446 0.034085557 0.18734807
-0.012040849 0.031500466 0.1890792
-0.011453152 0.028401028 0.19052137
-0.010242472 0.024393981 0.19373436
-0.010480494 0.018866966 0.19613236
-0.01253383 0.014225786 0.19687061
-0.0121551 0.010175837 0.19845869
-0.012376096 0.007204907 0.20112443
-0.012897175 0.0038984485 0.20403843
-0.012888791 -0.00098995573 0.20936911
-0.012383916 -0.0065819337 0.21473403
-0.012485398 -0.009496578 0.21798187
-0.012660069 -0.012335127 0.22099575
-0.01335594 -0.014656657 0.22249651
-0.016168883 -0.016066158 0.22224592
-0.017436111 -0.018069003 0.22292118
-0.017849958 -0.020605443 0.22381122
-0.018458193 -0.023164578 0.22630699
-0.018406119 -0.025498411 0.23011827
-0.0098478012 0.034442704 0.1882524
-0.008825602 0.032116797 0.19013442
-0.0078125056 0.028929105 0.19260301
-0.0068282639 0.024339974 0.19603115
-0.00679257 0.018811852 0.19892159
-0.0082843713 0.014426085 0.19999678
-0.0090728616 0.010553802 0.20130634
-0.0095742187 0.0077874232 0.20316601
-0.010128669 0.0049480172 0.20533031
-0.010485091 0.00073317031 0.21025367
-0.0088961758 -0.0056512156 0.21647358
-0.0089924866 -0.0086529609 0.21988629
-0.0091295941 -0.011466194 0.22243026
-0.0095724873 -0.013703964 0.22403534
-0.01097302 -0.015564645 0.22395326
-0.012654984 -0.017724575 0.22523519
-0.013684334 -0.020493245 0.22633392
-0.015116396 -0.024337916 0.23038775
-0.0048928186 0.030986538 0.19430155
-0.0041269483 0.027367482 0.19668713
-0.0038181071 0.022530209 0.1990516
-0.0043961834 0.019656051 0.20036674
-0.0050349128 0.014567297 0.20191185
-0.0058608619 0.011031345 0.20322697
-0.0064905002 0.0083338264 0.20519154
-0.0068112067 0.0056551108 0.20812899
-0.0079535814 0.0023188475 0.21115182
-0.0054993476 -0.0044718934 0.21811996
-0.0057560778 -0.007751462 0.22180679
-0.0058265063 -0.010817406 0.22318101
-0.0065569794 -0.013286064 0.2251246
-0.0072390824 -0.015520391 0.22620592
-0.0087890588 -0.01806494 0.22801238
-0.010698895 -0.020894272 0.22878823
-0.012793077 -0.023461275 0.23030418
-0.00070851936 0.025245545 0.19890465
-0.00078352552 0.021728674 0.20009783
0.00014496433 0.018433394 0.20129959
-0.001128273 0.015393198 0.20280361
-0.0022059937 0.011511272 0.20508264
-0.0024896355 0.00858388 0.2077402
-0.0027641032 0.005703798 0.21045703
-0.0022377644 -0.0028382188 0.21887667
-0.0021658237 -0.0069789267 0.22268531
-0.0023739706 -0.010410372 0.22408271
-0.0031513101 -0.013104022 0.2259647
-0.0042685736 -0.015478996 0.22721456
-0.0061483216 -0.017650478 0.22928897
0.0017210959 0.023620216 0.19932427
0.0019290058 0.021081436 0.1999307
0.0024450722 0.018236257 0.20095608
0.0023205394 0.015469945 0.20350999
0.0016426526 0.012037118 0.20655298
0.0013190343 0.0088022882 0.20906064
0.0010616392 0.0060965521 0.21145819
0.00029346967 0.0031920755 0.2139651
0.0010087196 -0.0011274477 0.21717483
0.00083267159 -0.0055484483 0.2219439
0.00013750812 -0.0096932705 0.224628
0.0042281891 0.020310791 0.19980788
0.0057759802 0.018236645 0.20123571
0.0053729326 0.015648911 0.20462385
0.00455683 0.012544123 0.20722224
0.0041710939 0.0095542753 0.20948774
0.0037621469 0.0074173855 0.21152273
0 0 0 1 0 0 0 1 0 0 0 1 0 0 0 0 0 348 1 0 0
