ply
format ascii 1.0
comment PCL generated
element vertex 348
property float x
property float y
property float z
element camera 1
property float view_px
property float view_py
property float view_pz
property float x_axisx
property float x_axisy
property float x_axisz
property float y_axisx
property float y_axisy
property float y_axisz
property float z_axisx
property float z_axisy
property float z_axisz
property float focal
property float scalex
property float scaley
property float centerx
property float centery
property int viewportx
property int viewporty
property float k1
property float k2
end_header
-0.055271834 0.023106564 0.18563993
-0.055966485 0.020772206 0.18755163
-0.056518208 0.017510703 0.1893758
-0.056762636 0.014331834 0.19130175
-0.056860421 0.011340664 0.19328721
-0.05677012 0.0085700937 0.19526321
-0.056365054 0.0059683071 0.19707662
-0.051987831 0.02518039 0.18208592
-0.052845553 0.023937715 0.183081
-0.053018715 0.021253118 0.18460809
-0.053459182 0.017897818 0.18651666
-0.053746875 0.014113165 0.18862061
-0.054155514 0.010779664 0.19088888
-0.054565787 0.0078261783 0.19374913
-0.053910393 0.0045192414 0.19564632
-0.051668618 0.00048958079 0.197008
-0.051995169 -0.0022713991 0.19930358
-0.049079321 0.027994765 0.17999004
-0.049543865 0.026283836 0.18075174
-0.049718257 0.024101993 0.18153502
-0.050087262 0.021712596 0.18264823
-0.050487611 0.01812651 0.18484512
-0.050443064 0.013304451 0.18731503
-0.050758645 0.0096978042 0.1895712
-0.050779354 0.0065508625 0.19175999
-0.050168615 0.0027339414 0.19387539
-0.049433 -0.0013275804 0.19681439
-0.050499827 -0.0037704329 0.19932763
-0.05153681 -0.0049852692 0.20220111
-0.051531374 -0.0060146013 0.20439784
-0.051426463 -0.007217329 0.2049723
-0.046697155 0.029296877 0.17917493
-0.046868049 0.027008498 0.17981538
-0.047135413 0.024665587 0.18070364
-0.047576085 0.022251202 0.18204692
-0.048103258 0.018986348 0.18382813
-0.047593944 0.011746937 0.18639579
-0.047818586 0.0080014039 0.18913975
-0.047706358 0.0044430434 0.19096188
-0.047420654 -0.00080528448 0.19390264
-0.047939863 -0.0040868213 0.19616328
-0.048092987 -0.0060159317 0.19809954
-0.048496775 -0.0065428293 0.20059092
-0.048807774 -0.0064961831 0.20401528
-0.049588528 -0.0079435343 0.20606041
-0.050214488 -0.010245974 0.20838611
-0.050039131 -0.013560647 0.21211785
-0.043675773 0.032848231 0.17799611
-0.04394554 0.0305635 0.17888978
-0.044138219 0.027831597 0.1797844
-0.044543181 0.025281122 0.18069896
-0.045080315 0.022578189 0.18196027
-0.045603462 0.019252641 0.18321548
-0.045558643 0.012609771 0.18467712
-0.045899689 0.0063775326 0.18822108
-0.045451246 0.0017245726 0.19072072
-0.046419661 -0.0039588832 0.19387206
-0.047537833 -0.0081609078 0.19532585
-0.047217749 -0.0089140292 0.19704151
-0.046108447 -0.0072280751 0.19916411
-0.045561355 -0.0071445415 0.20366268
-0.045910545 -0.0084951995 0.20680401
-0.047151659 -0.011335818 0.20927265
-0.04820339 -0.014325378 0.21152808
-0.049478006 -0.016271103 0.21477707
-0.04125277 0.034759808 0.17725411
-0.041597415 0.031388991 0.17894429
-0.041206621 0.028795434 0.17991175
-0.041891679 0.026033409 0.18088494
-0.042297345 0.023354944 0.18168107
-0.042600982 0.020026976 0.1826058
-0.04322236 0.01478827 0.1835289
-0.044361021 0.0050634751 0.18782414
-0.044166207 -0.00061344216 0.19011667
-0.045669239 -0.0074189794 0.19264965
-0.045696985 -0.010427685 0.19449078
-0.044174571 -0.0097033847 0.19697356
-0.042965733 -0.0077884155 0.19874682
-0.042508058 -0.0078795115 0.2032077
-0.042496823 -0.0095100449 0.20672223
-0.04315475 -0.012213048 0.2096772
-0.04491996 -0.014872395 0.21174489
-0.047167387 -0.016552484 0.21495977
-0.047557279 -0.019108633 0.21870869
-0.047060851 -0.021241192 0.22098254
-0.037631847 0.038973909 0.17555653
-0.038109023 0.036604956 0.17712693
-0.037026629 0.033840246 0.17877182
-0.038051173 0.031111876 0.17974573
-0.038470455 0.027977385 0.18052796
-0.039056439 0.024156297 0.18143392
-0.038986381 0.020756457 0.1819451
-0.040802114 0.014787276 0.18329115
-0.04279254 0.0049103112 0.18645994
-0.042020351 -0.00056709844 0.18772432
-0.043757241 -0.0091396244 0.19107839
-0.042282913 -0.011147485 0.19411983
-0.040624596 -0.0097162575 0.19663572
-0.040150162 -0.0086145233 0.1975583
-0.039204221 -0.0093447175 0.20137824
-0.039697584 -0.011196924 0.20444764
-0.041298162 -0.013197603 0.20713009
-0.042914461 -0.014709036 0.2098271
-0.043591913 -0.016995329 0.21358661
-0.043782126 -0.019665532 0.21740843
-0.044581313 -0.022099176 0.22098979
-0.043879617 -0.024034387 0.22274442
-0.035066109 0.040026564 0.17571686
-0.034819264 0.038263593 0.17747544
-0.03462192 0.03513037 0.17892475
-0.035154428 0.03227143 0.17976758
-0.034798067 0.029663205 0.18062656
-0.034500036 0.025914876 0.18187578
-0.034401122 0.022627246 0.18224686
-0.038218871 0.015367029 0.18301201
-0.041147597 0.0066159344 0.18467559
-0.039262336 0.0010139535 0.18502998
-0.0403926 -0.010954171 0.18950616
-0.03908423 -0.012580944 0.19280925
-0.038013786 -0.010722926 0.19352637
-0.037008494 -0.0097527727 0.19577047
-0.036850996 -0.010860814 0.1992961
-0.037095208 -0.012430931 0.2019397
-0.038624294 -0.01371647 0.20611995
-0.040639509 -0.015653927 0.20939015
-0.040382013 -0.017546592 0.21300636
-0.040341284 -0.019700157 0.21662362
-0.040640522 -0.022112684 0.22010364
-0.040828705 -0.024296999 0.22252122
-0.031989839 0.040687032 0.17624971
-0.031891767 0.038997613 0.17774816
-0.031993631 0.035455383 0.17965135
-0.032152031 0.032179296 0.1805343
-0.031527471 0.029864455 0.18139721
-0.031088552 0.026643617 0.18251127
-0.031298261 0.022515297 0.18307906
-0.032251216 0.018708242 0.18280697
-0.038586345 0.0094690798 0.18280174
-0.036345661 0.0034909749 0.18339488
-0.034432098 -0.00010270592 0.18354878
-0.03538077 -0.0098449085 0.18681192
-0.034528762 -0.010144988 0.19118123
-0.033723779 -0.0090955561 0.19470617
-0.033281919 -0.010508697 0.1988288
-0.033707116 -0.012476402 0.20187421
-0.035441753 -0.013714051 0.20666912
-0.037325993 -0.016067713 0.21028942
-0.03756858 -0.017730411 0.21290286
-0.037232686 -0.019446243 0.21656574
-0.037801608 -0.022091389 0.21975511
-0.037387595 -0.023871103 0.22209287
-0.029176477 0.041126691 0.17669632
-0.028952727 0.039358001 0.17806822
-0.028922005 0.03593383 0.18003093
-0.028848525 0.032710504 0.18116263
-0.028316585 0.030183334 0.18210693
-0.028351482 0.026766388 0.18328425
-0.028423959 0.023247818 0.18408088
-0.028176827 0.020468723 0.18407378
-0.03282588 0.013903031 0.1830855
-0.032883603 0.0060917451 0.18430464
-0.029341923 0.0037200649 0.18506546
-0.02874591 -0.00027715979 0.18678601
-0.029894827 -0.0059104669 0.18951237
-0.030220075 -0.0077798297 0.19238897
-0.030177699 -0.010125334 0.1996938
-0.030353369 -0.011837902 0.20220783
-0.032204259 -0.013435894 0.20746495
-0.033974934 -0.015968524 0.21111678
-0.033953782 -0.017638719 0.21329471
-0.033669099 -0.018878816 0.2176035
-0.033653513 -0.020977201 0.22008221
-0.03409579 -0.023505179 0.22280015
-0.033761043 -0.024659963 0.2255619
-0.026247982 0.041560061 0.17718548
-0.026048558 0.039865546 0.17825799
-0.025468169 0.037193533 0.17963757
-0.025556035 0.033716246 0.18138334
-0.025366968 0.030728633 0.18281107
-0.025483849 0.027294168 0.18430233
-0.025707476 0.023919215 0.18506745
-0.025937034 0.020862585 0.18510157
-0.02720852 0.016277803 0.18505079
-0.028815532 0.009174766 0.18522662
-0.025001533 0.0051216902 0.18901561
-0.023998644 0.0013541899 0.19046497
-0.023190593 -0.0021943762 0.19369011
-0.023972934 -0.0059958431 0.19886003
-0.02552497 -0.0084827533 0.2021576
-0.027254364 -0.010485915 0.20548797
-0.028529981 -0.012806157 0.20938566
-0.029305948 -0.014995964 0.21305604
-0.030198451 -0.017257322 0.21517219
-0.030588627 -0.019109864 0.21830058
-0.030730614 -0.021240974 0.22079454
-0.031134086 -0.023610197 0.22338517
-0.031017967 -0.02457438 0.2260405
-0.024229091 0.042340733 0.17733158
-0.023020225 0.04066522 0.17880185
-0.022047468 0.038537748 0.17997831
-0.021822043 0.035149734 0.18170454
-0.022159841 0.031359632 0.18390949
-0.022448845 0.028275494 0.18568428
-0.023140155 0.024668412 0.18629023
-0.023647193 0.021150637 0.18672678
-0.023550274 0.017352277 0.18789348
-0.022885058 0.013004365 0.18906596
-0.021667786 0.0075505972 0.19139867
-0.02082737 0.0031952853 0.19389747
-0.020731568 -0.00058225915 0.19705366
-0.021553183 -0.0046031573 0.20167173
-0.022575233 -0.0072899335 0.20540242
-0.023426089 -0.0096566714 0.20874387
-0.024522301 -0.012004027 0.2124135
-0.025514876 -0.014509205 0.21582587
-0.027106401 -0.017502056 0.21782619
-0.028442526 -0.019686675 0.21987142
-0.028087497 -0.021588707 0.22103785
-0.027816672 -0.023397753 0.22326367
-0.027704546 -0.024951387 0.22645706
-0.019323962 0.041314021 0.18011066
-0.019299833 0.038410787 0.18162006
-0.018469155 0.035471763 0.18323512
-0.018756211 0.032458279 0.18501195
-0.019001339 0.029531293 0.18719035
-0.019449379 0.026258565 0.1887141
-0.020696444 0.021417482 0.18917391
-0.020784115 0.017843578 0.18986566
-0.020510253 0.014335684 0.1911473
-0.019748861 0.010285174 0.19250932
-0.018600153 0.0056641772 0.19507818
-0.018080033 0.00070858817 0.19986898
-0.018297078 -0.0037718893 0.20431094
-0.018835651 -0.0071954532 0.20905462
-0.019763224 -0.0097835856 0.21212555
-0.020840092 -0.012172246 0.21584103
-0.022548852 -0.014547014 0.21849631
-0.02394296 -0.017344402 0.22030979
-0.025673205 -0.019750437 0.22177812
-0.025014384 -0.021691531 0.221394
-0.024646802 -0.023720877 0.22292982
-0.024599571 -0.02534163 0.22672486
-0.016379353 0.038965691 0.18321697
-0.015553102 0.036157437 0.18474774
-0.015590876 0.033360828 0.18646187
-0.015684258 0.030669602 0.18829222
-0.014981534 0.027590519 0.19015758
-0.014682864 0.023383504 0.19202855
-0.017800199 0.018562287 0.19195025
-0.017633049 0.014928558 0.19345973
-0.016572487 0.010879884 0.19482753
-0.015329599 0.0064405967 0.19830902
-0.015316499 0.0023912168 0.20238312
-0.015399793 -0.0023785995 0.20716053
-0.015731903 -0.0069758231 0.21228358
-0.016236337 -0.010149247 0.2156911
-0.016793329 -0.012882738 0.21897842
-0.018992009 -0.014554747 0.22035626
-0.020856149 -0.01672045 0.22212306
-0.021850664 -0.018793764 0.22284108
-0.021844395 -0.02072897 0.22262177
-0.021433972 -0.02303404 0.22418785
-0.02176827 -0.025624197 0.22844607
-0.012856544 0.036581829 0.18594889
-0.012391037 0.034136754 0.1874177
-0.012102292 0.031564064 0.18911535
-0.011514894 0.028468492 0.19052373
-0.010310486 0.024435587 0.19362827
-0.010645374 0.018790124 0.19596969
-0.012677972 0.014156595 0.19672537
-0.012238956 0.01012258 0.19828555
-0.012441711 0.0071474272 0.20097032
-0.012934906 0.0038174326 0.20389608
-0.012954022 -0.0010967623 0.20935196
-0.012482115 -0.0067742732 0.21480578
-0.012599897 -0.0096850684 0.21807
-0.012775768 -0.012494582 0.2210536
-0.013492543 -0.01476777 0.22245392
-0.016338987 -0.016091539 0.22208342
-0.01765302 -0.018022662 0.2226693
-0.018077455 -0.020517237 0.22355458
-0.018660553 -0.023066325 0.22604139
-0.018599311 -0.025423067 0.22985671
-0.0099131782 0.034493055 0.18832384
-0.0088787172 0.032173108 0.19015954
-0.0078670951 0.028967809 0.19253722
-0.0069124731 0.024327615 0.19585411
-0.0069671092 0.018713234 0.19869079
-0.0084392242 0.014333447 0.19982095
-0.0091673303 0.010503693 0.20119275
-0.0096575757 0.0077470061 0.20305936
-0.010199295 0.0048692646 0.20521145
-0.010550857 0.00060395908 0.21019195
-0.0089630987 -0.0058397562 0.21658109
-0.0090621794 -0.0088452715 0.21999264
-0.0092101246 -0.011649375 0.2224938
-0.0096696457 -0.013845858 0.22404377
-0.011119911 -0.015645236 0.22390386
-0.012863202 -0.017698484 0.22505979
-0.013947758 -0.020424236 0.22613341
-0.015395849 -0.024267375 0.23016451
-0.0049383002 0.030972395 0.19415838
-0.0042086807 0.027332561 0.19647619
-0.0039710673 0.022442708 0.19879942
-0.0045669307 0.019556856 0.20011672
-0.0051872293 0.014534906 0.20171067
-0.0059646582 0.01101312 0.20315059
-0.0065705874 0.0083022518 0.20515969
-0.0068953289 0.0055838586 0.20807834
-0.0080469605 0.0021917496 0.21105334
-0.0055518122 -0.0046477029 0.21826349
-0.0058044121 -0.0079481509 0.22193024
-0.0058904239 -0.011001906 0.22327881
-0.0066536418 -0.013442281 0.22516058
-0.007351568 -0.015630512 0.22621971
-0.0089522284 -0.018110268 0.22795855
-0.010946005 -0.020861076 0.22867887
-0.013078855 -0.023404973 0.2301559
-0.00084854354 0.025196254 0.19864257
-0.00094164419 0.021640802 0.19984202
-1.6811984e-05 0.018340962 0.20105432
-0.0012909621 0.015338855 0.20257573
-0.0023273677 0.011482469 0.20498641
-0.0025739037 0.0085379397 0.20768632
-0.0028187321 0.0056554233 0.21039781
-0.0022724343 -0.0029718825 0.21901996
-0.0022203657 -0.0071761031 0.22283445
-0.0024416649 -0.010590684 0.22419967
-0.0032601648 -0.013276834 0.22603709
-0.0043856781 -0.015603621 0.22725344
-0.0062774858 -0.017742611 0.22928964
0.0015639124 0.023563534 0.19908243
0.0017669749 0.021013008 0.19970062
0.0022885387 0.018169761 0.20073651
0.0021675399 0.015412369 0.20332843
0.0015303058 0.011980612 0.20640832
0.0012496705 0.0087461919 0.20892785
0.0010232403 0.0060487841 0.21133634
0.0002877597 0.0031564631 0.21387638
0.00097188086 -0.0011597675 0.21725787
0.00079049368 -0.0057146717 0.2220958
6.2817606e-05 -0.0098839086 0.22476649
0.004069576 0.020264251 0.19960704
0.0056175534 0.018210782 0.20106594
0.0052084951 0.015609968 0.20446692
0.004445449 0.012489782 0.207057
0.0041031828 0.0095011853 0.20932211
0.0037293441 0.007364566 0.21135804
0 0 0 1 0 0 0 1 0 0 0 1 0 0 0 0 0 348 1 0 0
