ply
format ascii 1.0
comment PCL generated
element vertex 348
property float x
property float y
property float z
element camera 1
property float view_px
property float view_py
property float view_pz
property float x_axisx
property float x_axisy
property float x_axisz
property float y_axisx
property float y_axisy
property float y_axisz
property float z_axisx
property float z_axisy
property float z_axisz
property float focal
property float scalex
property float scaley
property float centerx
property float centery
property int viewportx
property int viewporty
property float k1
property float k2
end_header
-0.055137973 0.02308872 0.18548243
-0.05599625 0.020816635 0.18772072
-0.056541428 0.017567718 0.1895379
-0.056788266 0.014398709 0.19146331
-0.056888115 0.01140723 0.19344358
-0.056795903 0.0086360686 0.19540459
-0.056390811 0.0060288003 0.19721088
-0.05206411 0.025228316 0.18238576
-0.052894879 0.023987109 0.18332012
-0.053048454 0.021307012 0.18481274
-0.053480577 0.017955896 0.18668899
-0.053764258 0.014189793 0.18877195
-0.054185227 0.01085158 0.19102344
-0.05461169 0.0078866091 0.19387048
-0.053849846 0.0045647644 0.19555017
-0.051710814 0.00054788683 0.19694941
-0.052050788 -0.002212509 0.19924715
-0.049233072 0.028043544 0.18038145
-0.049690414 0.026323711 0.18112217
-0.049841054 0.024150021 0.18187401
-0.050187774 0.021766599 0.18295182
-0.050531615 0.018176222 0.18504895
-0.050468747 0.013397345 0.18747167
-0.050786853 0.0097811231 0.18969017
-0.050679836 0.0065918011 0.19160916
-0.050142605 0.0027661545 0.19376732
-0.049496748 -0.0012916088 0.19674791
-0.050564349 -0.0037208369 0.19927239
-0.051604334 -0.0049331477 0.20214872
-0.051603783 -0.0059684548 0.20434853
-0.051515751 -0.0071706888 0.20493159
-0.046862062 0.02931075 0.17953421
-0.047036137 0.027043661 0.18017331
-0.047299311 0.024702558 0.18104713
-0.047726505 0.022295859 0.18235534
-0.048215304 0.01902424 0.18407743
-0.047624346 0.011864383 0.18655147
-0.047860906 0.0080780229 0.18924922
-0.047622256 0.0044629783 0.19079041
-0.047516551 -0.00078922493 0.19380116
-0.04804172 -0.0040585767 0.19610836
-0.04818001 -0.00597871 0.19803874
-0.048577137 -0.0065112445 0.20053551
-0.048900701 -0.0064692902 0.20395276
-0.049693231 -0.0078985766 0.20602079
-0.050334357 -0.010183734 0.20837055
-0.050189655 -0.013599838 0.21206373
-0.043814354 0.032820985 0.17827697
-0.044106252 0.030570483 0.17919669
-0.044309255 0.027851548 0.18010341
-0.044714198 0.025318302 0.18100277
-0.045242485 0.02262109 0.18223219
-0.045755263 0.019287081 0.18344516
-0.045639116 0.012709508 0.18486175
-0.045783751 0.0063562198 0.1880344
-0.045433719 0.0017059892 0.19054873
-0.046567328 -0.00392729 0.19377735
-0.047649443 -0.0081408964 0.19527864
-0.047300551 -0.0088969264 0.19699775
-0.046191964 -0.007205388 0.19911805
-0.045660835 -0.0071158605 0.20361468
-0.046029147 -0.0084584346 0.20675881
-0.047306761 -0.011351843 0.20923018
-0.04835175 -0.014357851 0.21147181
-0.049615361 -0.016336435 0.214717
-0.041385904 0.034695625 0.17746826
-0.041737843 0.031367801 0.17920797
-0.041367229 0.028803306 0.18017581
-0.042063553 0.026059385 0.18114847
-0.042465284 0.023394886 0.18191616
-0.042765547 0.020064946 0.18280055
-0.04336258 0.014828112 0.18371092
-0.044251591 0.0050296835 0.18762572
-0.044215798 -0.00066133076 0.18996163
-0.045808256 -0.0074387258 0.19258966
-0.045769304 -0.010400726 0.19444573
-0.044246435 -0.0096717998 0.19693814
-0.043058697 -0.0077520325 0.19871673
-0.042612515 -0.0078464355 0.20317195
-0.042618949 -0.0094677014 0.20669219
-0.043336887 -0.012208487 0.20961092
-0.045085676 -0.014887389 0.21167699
-0.047300037 -0.016606659 0.21490301
-0.047662355 -0.019212294 0.21862449
-0.047144499 -0.021368749 0.2208592
-0.037745692 0.038922142 0.1756535
-0.03822799 0.036538064 0.1772562
-0.037143767 0.033788934 0.17891663
-0.038187616 0.03108581 0.179903
-0.038627822 0.027982213 0.18069141
-0.039224233 0.024189396 0.18161558
-0.039153539 0.020802043 0.18209738
-0.040948413 0.014835563 0.18344966
-0.042702351 0.0048677302 0.18625633
-0.042014599 -0.00068830297 0.18756461
-0.043862246 -0.0091203609 0.19103
-0.042331167 -0.011090836 0.19408453
-0.040702436 -0.0096587883 0.1966127
-0.040246569 -0.0085546961 0.19753358
-0.039325308 -0.0092728231 0.20134774
-0.039834492 -0.011125022 0.20442975
-0.04151427 -0.013142225 0.20703866
-0.04314778 -0.01467477 0.20971115
-0.043744285 -0.017002638 0.21351719
-0.043886594 -0.019715948 0.21732429
-0.044657029 -0.022215512 0.22085986
-0.043921296 -0.024176989 0.22257352
-0.035177741 0.040013816 0.17581888
-0.034930449 0.038241234 0.17757335
-0.034736447 0.035081748 0.17903779
-0.035282813 0.032233849 0.17985025
-0.034925614 0.029644577 0.1806774
-0.034638599 0.02590931 0.18191215
-0.034585766 0.022664808 0.18231419
-0.03838278 0.0154527 0.18315062
-0.041064616 0.0065438515 0.18445902
-0.039200086 0.000881507 0.18481006
-0.04044361 -0.010865067 0.18944392
-0.039122373 -0.012486015 0.19274417
-0.038086243 -0.010621377 0.19347015
-0.037111644 -0.0096572414 0.19573976
-0.036973946 -0.010779736 0.19928868
-0.037243884 -0.012340224 0.20194523
-0.038878825 -0.013629793 0.20603329
-0.040922243 -0.015588279 0.20926057
-0.040564515 -0.017512711 0.21292143
-0.040446673 -0.019713622 0.21654125
-0.040724687 -0.022198778 0.21998665
-0.040877752 -0.024420176 0.22233807
-0.032101046 0.040696554 0.1763791
-0.032005299 0.038995292 0.17787398
-0.032109693 0.035403077 0.1797553
-0.032261115 0.032120273 0.18057121
-0.0316284 0.029822169 0.18138735
-0.031206705 0.026626758 0.18249831
-0.031514134 0.022565667 0.18313983
-0.032486822 0.018779485 0.18291508
-0.038572319 0.0094148759 0.18253787
-0.036329892 0.00333479 0.18305776
-0.034448151 -0.00028101361 0.18321991
-0.03542237 -0.0097344052 0.18672416
-0.034607913 -0.0099905794 0.19113801
-0.033836212 -0.0089771589 0.19469753
-0.033429224 -0.010400259 0.19885831
-0.033870343 -0.012355937 0.20191801
-0.035728991 -0.013613641 0.2066346
-0.037610598 -0.015984518 0.21020369
-0.037760194 -0.017673234 0.21284232
-0.037320811 -0.019451519 0.21648946
-0.037868183 -0.022149719 0.21962687
-0.037443701 -0.02395842 0.22191009
-0.029296314 0.041145325 0.17683984
-0.029062977 0.039367389 0.17820835
-0.029039331 0.035888057 0.1801341
-0.028944094 0.03265743 0.18118992
-0.028401511 0.03016411 0.18210666
-0.028468471 0.026772361 0.18330254
-0.028618546 0.023294594 0.18415083
-0.028408434 0.020529803 0.18418284
-0.033071715 0.013940717 0.18323077
-0.03315632 0.0060636126 0.18442617
-0.029384809 0.0035338062 0.18458264
-0.028785557 -0.00041746351 0.18641107
-0.029974425 -0.0058274148 0.1893907
-0.03032547 -0.0076318942 0.19241031
-0.030343324 -0.010002492 0.19975384
-0.030541908 -0.011686139 0.20226203
-0.03250936 -0.013309109 0.20750521
-0.034245253 -0.015887069 0.21109913
-0.034107693 -0.017566634 0.21327327
-0.033753477 -0.018874014 0.21755216
-0.033725657 -0.020989902 0.21999796
-0.034168378 -0.023554565 0.22266893
-0.033833396 -0.024730228 0.22540675
-0.026358865 0.041587517 0.17732869
-0.026146078 0.039887711 0.17838927
-0.025556171 0.037204634 0.17974694
-0.025650386 0.033697885 0.18144226
-0.0254691 0.030727113 0.18286861
-0.02561331 0.027302645 0.18435974
-0.025890049 0.023955721 0.18513981
-0.026169468 0.020906303 0.18520895
-0.02751339 0.016335176 0.18517824
-0.029102508 0.0091409879 0.18530513
-0.02529816 0.0051483843 0.18908957
-0.024062157 0.0013138839 0.19012916
-0.02333877 -0.0022002053 0.19351961
-0.024163807 -0.0059493962 0.19890843
-0.025710557 -0.0083887177 0.2022309
-0.027579874 -0.010295679 0.2057009
-0.028862407 -0.012693758 0.20954636
-0.029556761 -0.014952603 0.21316496
-0.030325053 -0.017221766 0.21523562
-0.030699672 -0.019089291 0.21827441
-0.030817194 -0.021233508 0.22073787
-0.031207858 -0.023612764 0.22327632
-0.031073416 -0.024591485 0.22589736
-0.024331681 0.042375423 0.17747113
-0.023091167 0.040702485 0.17892101
-0.022112755 0.038569521 0.18007715
-0.021887558 0.035176039 0.18181473
-0.02224895 0.031378057 0.18402196
-0.022559321 0.028292576 0.18578508
-0.02330358 0.024685306 0.18636136
-0.023895627 0.021165879 0.18681946
-0.023851719 0.017372701 0.18799704
-0.023184201 0.013062747 0.18916775
-0.021935735 0.0076119695 0.1914959
-0.021093311 0.0032658989 0.19402929
-0.021000287 -0.00047698797 0.19725373
-0.021840187 -0.0044582486 0.20194617
-0.022857178 -0.007152786 0.20567362
-0.023722447 -0.0095592355 0.20900056
-0.024811869 -0.011963397 0.21266201
-0.025733294 -0.0145213 0.21597096
-0.027245944 -0.017530253 0.21791604
-0.028562874 -0.019687092 0.21986815
-0.028191656 -0.021563854 0.22099534
-0.027888926 -0.023344623 0.22315741
-0.027762908 -0.024933739 0.22630456
-0.019371487 0.041366968 0.18022171
-0.019356616 0.038480975 0.18171959
-0.018481039 0.035528108 0.18337899
-0.01878407 0.032492068 0.18515912
-0.019066336 0.029563155 0.18732236
-0.019531131 0.026279176 0.18881856
-0.020926056 0.021397496 0.1892605
-0.021081889 0.017864021 0.18995094
-0.020791883 0.014394332 0.19123927
-0.020014482 0.010354289 0.19258685
-0.018839447 0.0057267924 0.19516365
-0.018294027 0.00077595533 0.20003091
-0.018554145 -0.0036891806 0.20455591
-0.019078474 -0.007187672 0.20932552
-0.020001432 -0.0097936038 0.21240288
-0.021082729 -0.012183418 0.2161095
-0.022760693 -0.014561862 0.21863244
-0.024081411 -0.017350312 0.22038694
-0.025789889 -0.019746365 0.2217655
-0.025114812 -0.021637145 0.2213672
-0.024729053 -0.02364883 0.22284617
-0.024673743 -0.025324153 0.22658797
-0.016397212 0.039023712 0.18335064
-0.015585585 0.036223631 0.18491037
-0.015650166 0.033433154 0.18663812
-0.015760144 0.03074312 0.18846303
-0.015067912 0.027685205 0.19032149
-0.014799524 0.023503669 0.19216214
-0.018071597 0.01860702 0.19201781
-0.017895238 0.014993493 0.19353248
-0.016808843 0.010946613 0.19489524
-0.015515869 0.006490123 0.1983898
-0.015490254 0.0024253507 0.20250683
-0.015625903 -0.002353678 0.20737608
-0.015945563 -0.007031796 0.21253115
-0.016459966 -0.010220186 0.21594127
-0.017027594 -0.01294564 0.21925053
-0.019219097 -0.014581536 0.22049488
-0.021022618 -0.016725443 0.22220677
-0.022006812 -0.01876588 0.22285661
-0.021991335 -0.020675246 0.22259544
-0.021557219 -0.022979023 0.22411996
-0.021875838 -0.025621977 0.22832394
-0.012891009 0.036649182 0.18611489
-0.012451968 0.034216151 0.18758997
-0.012177779 0.031657945 0.18927561
-0.011603925 0.028571017 0.19067715
-0.010417716 0.024536105 0.19371615
-0.010928499 0.018779336 0.19602114
-0.012952941 0.014181766 0.196824
-0.012449909 0.010182438 0.19838157
-0.012640024 0.0072036353 0.20108512
-0.013113389 0.0038624508 0.204015
-0.013160749 -0.0010804114 0.20954973
-0.012684717 -0.0068581994 0.21505997
-0.01278648 -0.0097707473 0.21833992
-0.012941808 -0.012560694 0.22129598
-0.013657718 -0.014811472 0.22261384
-0.016529268 -0.01609117 0.22215146
-0.017867822 -0.017985413 0.22265118
-0.018291947 -0.020451933 0.22350152
-0.018841054 -0.023019157 0.2259554
-0.018770257 -0.025416292 0.22975115
-0.0099763861 0.034565475 0.18848798
-0.0089372098 0.032251786 0.19029732
-0.0079331649 0.02903793 0.19261704
-0.0070469026 0.024367899 0.19584517
-0.0072629843 0.018677032 0.19864069
-0.0087446393 0.0143287 0.19989753
-0.0094057191 0.010573558 0.20135741
-0.0098735336 0.0078300731 0.20321773
-0.010404042 0.0049188118 0.20535293
-0.010751181 0.00060220732 0.21035573
-0.0091280658 -0.0059033581 0.21685156
-0.0091956891 -0.0089181717 0.22024639
-0.0093346685 -0.011726478 0.22270295
-0.0097995568 -0.013904518 0.22421221
-0.011301069 -0.015665259 0.22403936
-0.013083025 -0.017658185 0.22509259
-0.014192573 -0.020369045 0.22612673
-0.015636716 -0.024249045 0.23010349
-0.0049924855 0.030978005 0.19412675
-0.0043305727 0.027330382 0.1963874
-0.0042057554 0.022401266 0.19866906
-0.0048310594 0.019513551 0.20000522
-0.0054734433 0.014584095 0.20172094
-0.0062035439 0.011110155 0.20332703
-0.0067707696 0.0083944621 0.20536634
-0.007088318 0.0056400714 0.2082669
-0.00825796 0.0021944731 0.21119089
-0.0056935442 -0.0046944693 0.21853726
-0.0059044706 -0.0080283424 0.22216238
-0.0059911399 -0.011082419 0.22348575
-0.006775442 -0.013512824 0.22532581
-0.0074861203 -0.015674518 0.22637875
-0.0091221128 -0.018112015 0.22807716
-0.011183637 -0.020819236 0.22875506
-0.013334616 -0.023373958 0.23017667
-0.0010551127 0.025164107 0.19845833
-0.0011780079 0.021581089 0.19967003
-0.00027238825 0.018286755 0.20089461
-0.0015586484 0.015347183 0.20248501
-0.0025315615 0.011535963 0.20508358
-0.0027230303 0.0085942801 0.20784536
-0.0029229908 0.0057285186 0.21056989
-0.0023707065 -0.0029782539 0.21927881
-0.0023168821 -0.0072595184 0.22305888
-0.0025431772 -0.010676241 0.22439906
-0.0033908007 -0.013366957 0.22621016
-0.0045211553 -0.015660428 0.22741432
-0.0064135557 -0.017777616 0.22943573
0.0013278573 0.023512848 0.19889161
0.0015137234 0.020959042 0.1995263
0.002030177 0.018137272 0.20057888
0.0019383169 0.015410298 0.20323944
0.0013702156 0.011981674 0.20640376
0.0011372416 0.0087752147 0.20897518
0.00095295423 0.0061084363 0.21141955
0.00026084945 0.0032499114 0.21401526
0.00091040321 -0.0010585936 0.21751703
0.00070780556 -0.0057665617 0.22230648
-4.0255265e-05 -0.0099814096 0.22496969
0.0038088164 0.020224553 0.199433
0.0053586951 0.018215813 0.20091946
0.0049798158 0.015611339 0.20436582
0.0042923414 0.012481377 0.2069985
0.0039993571 0.0095199579 0.20930384
0.0036685131 0.0074042743 0.21136747
0 0 0 1 0 0 0 1 0 0 0 1 0 0 0 0 0 348 1 0 0
