ply
format ascii 1.0
comment PCL generated
element vertex 348
property float x
property float y
property float z
element camera 1
property float view_px
property float view_py
property float view_pz
property float x_axisx
property float x_axisy
property float x_axisz
property float y_axisx
property float y_axisy
property float y_axisz
property float z_axisx
property float z_axisy
property float z_axisz
property float focal
property float scalex
property float scaley
property float centerx
property float centery
property int viewportx
property int viewporty
property float k1
property float k2
end_header
-0.055203684 0.023129834 0.18570639
-0.056093507 0.020906465 0.18806084
-0.056634452 0.017669687 0.18987259
-0.056889161 0.014507097 0.19178882
-0.056996129 0.011509593 0.19375184
-0.056901976 0.0087333899 0.19568196
-0.056494068 0.0061162012 0.1974698
-0.052205037 0.025318917 0.18284763
-0.053009536 0.024075201 0.18372585
-0.053143878 0.02140459 0.1851967
-0.053562906 0.018060671 0.18704753
-0.053849503 0.01431098 0.18910463
-0.054286841 0.010966007 0.19131997
-0.054732494 0.0079830978 0.19413272
-0.053906079 0.004635992 0.19580691
-0.051823296 0.00061907963 0.19712928
-0.052175421 -0.0021555382 0.19939847
-0.049446706 0.028131671 0.18092424
-0.049898207 0.026403509 0.18164721
-0.050030947 0.024241665 0.18237966
-0.050360035 0.021867851 0.18343374
-0.050643303 0.018278312 0.18544507
-0.050554737 0.013541749 0.18782207
-0.050875328 0.0099123036 0.18998942
-0.050724745 0.0066938256 0.19189942
-0.050234646 0.0028196741 0.19398369
-0.049620736 -0.0012424465 0.19691598
-0.050694581 -0.0036692491 0.19941649
-0.051745329 -0.0049071573 0.20227419
-0.051756348 -0.0059700119 0.20445682
-0.051675532 -0.0071703889 0.2050124
-0.047082447 0.029360328 0.1800365
-0.04726202 0.027112644 0.1806806
-0.047527302 0.024776194 0.18155272
-0.047949545 0.022385376 0.18284072
-0.048412152 0.019115571 0.1845253
-0.04770593 0.012041411 0.18691804
-0.047956422 0.00821367 0.18955618
-0.047720369 0.0045229411 0.1910048
-0.047640122 -0.00073816796 0.19396222
-0.048190679 -0.0040084706 0.19628283
-0.048323732 -0.0059276 0.19817421
-0.048721742 -0.0064809215 0.20065394
-0.049064893 -0.006467937 0.20404518
-0.049860489 -0.0079002809 0.20609282
-0.050496161 -0.010196425 0.20842056
-0.050373983 -0.013643431 0.21205987
-0.044004489 0.032827687 0.17870024
-0.044319358 0.030614009 0.17964537
-0.044540934 0.027902724 0.18056718
-0.04495148 0.025386522 0.18146528
-0.045479763 0.022703251 0.18268338
-0.045997661 0.019371388 0.1838802
-0.045792028 0.012866372 0.18528815
-0.045889582 0.0064096847 0.18830474
-0.045588367 0.0017186635 0.19075947
-0.046703376 -0.0038837327 0.19395491
-0.047782611 -0.0080950838 0.19544318
-0.047432538 -0.0088517563 0.19714257
-0.046335351 -0.007165093 0.1992494
-0.0458274 -0.0070997798 0.20372246
-0.046212234 -0.0084635532 0.20684235
-0.047508053 -0.011358372 0.20923884
-0.04853126 -0.014387231 0.21146519
-0.049778357 -0.016416987 0.21471047
-0.041567121 0.034662154 0.17782798
-0.041931294 0.031386476 0.17961699
-0.041586496 0.028848236 0.1805812
-0.042301562 0.026111137 0.18156917
-0.042707149 0.02346639 0.18233265
-0.043015942 0.020143917 0.1832086
-0.043588385 0.014914774 0.18414538
-0.044390865 0.0050501535 0.18792821
-0.044377774 -0.00066539831 0.19022582
-0.045932569 -0.0074046818 0.19277516
-0.045871053 -0.010329587 0.19459416
-0.044371527 -0.0096048554 0.19709572
-0.043214887 -0.0076892143 0.19888391
-0.042780586 -0.0078132469 0.20329285
-0.042804353 -0.0094573945 0.20678894
-0.043574188 -0.012185531 0.20959023
-0.045284942 -0.014890929 0.21166185
-0.047458682 -0.016671462 0.21491079
-0.047802873 -0.019345181 0.21859375
-0.047269993 -0.021535827 0.22078449
-0.0379063 0.038920958 0.17586146
-0.038395241 0.036513019 0.17752431
-0.03731538 0.033781275 0.17922717
-0.038378298 0.031106012 0.1802303
-0.038845181 0.028026786 0.18102528
-0.039464705 0.024252202 0.18198781
-0.039404359 0.020875519 0.18248357
-0.041177511 0.014926787 0.18387355
-0.042859048 0.0048858682 0.18662675
-0.042163849 -0.00074816972 0.18796751
-0.04395679 -0.0090256939 0.19121984
-0.042411622 -0.010961241 0.19424894
-0.040831771 -0.0095397588 0.19680169
-0.040402312 -0.0084418105 0.19772469
-0.039516967 -0.0091834143 0.20150915
-0.040037367 -0.01106898 0.20452677
-0.041784231 -0.013050722 0.20699756
-0.04342895 -0.014618429 0.20964035
-0.043922719 -0.017004175 0.21352501
-0.044017851 -0.019777242 0.21731496
-0.044773135 -0.022362282 0.22078809
-0.044013586 -0.024355594 0.22245951
-0.035334397 0.040055946 0.17601034
-0.035088554 0.038280953 0.1777758
-0.034904681 0.035077877 0.17929821
-0.035465602 0.032242663 0.18010709
-0.035111677 0.029668238 0.18090768
-0.034835782 0.025938917 0.18213044
-0.034830175 0.022728089 0.18257456
-0.038611062 0.015578247 0.18354306
-0.041220479 0.0065052784 0.18490086
-0.039326508 0.00081855583 0.18533416
-0.040487748 -0.010619136 0.18967609
-0.039168723 -0.012259466 0.19295549
-0.038193192 -0.010387003 0.19374201
-0.037273437 -0.0094522703 0.19599947
-0.037158221 -0.01064045 0.19946636
-0.037461556 -0.012242206 0.20207664
-0.039197352 -0.013487378 0.20600629
-0.04125347 -0.015485081 0.2091791
-0.0407665 -0.017454363 0.21291976
-0.040568829 -0.019730186 0.21655445
-0.040844183 -0.022302143 0.21995357
-0.040974438 -0.024570193 0.22223404
-0.032253515 0.040758383 0.17658471
-0.032162346 0.039051097 0.17808796
-0.032274317 0.035396039 0.17998382
-0.032421038 0.032104924 0.1807664
-0.031786039 0.029821306 0.18154569
-0.031377856 0.02664125 0.18265013
-0.03177515 0.022638109 0.18337522
-0.032782245 0.018874569 0.18324906
-0.038766425 0.0093100984 0.18297367
-0.03655846 0.0032140191 0.18359812
-0.034707699 -0.00036899437 0.18382271
-0.035496652 -0.0093661863 0.18713053
-0.034721788 -0.0096053723 0.19149788
-0.034024321 -0.0086705359 0.1950465
-0.033650357 -0.010195979 0.19911267
-0.034109585 -0.012212162 0.20209095
-0.036089916 -0.013442864 0.20667271
-0.037943304 -0.015846515 0.21018329
-0.037954651 -0.017581705 0.21289776
-0.0374205 -0.019455841 0.21654256
-0.037964765 -0.022232587 0.21959516
-0.037541203 -0.024075003 0.22182254
-0.029454838 0.041208811 0.17705354
-0.029211005 0.039426979 0.17843036
-0.029199395 0.035883904 0.18033509
-0.029085128 0.032646526 0.18134312
-0.028531469 0.030186903 0.18224092
-0.02862867 0.026814915 0.18346164
-0.028857345 0.023368143 0.18438093
-0.028695976 0.020619454 0.18448575
-0.033392377 0.014007417 0.18365343
-0.033525314 0.0060915607 0.18484777
-0.029719694 0.0033639702 0.18497035
-0.029153224 -0.00048449819 0.18695216
-0.030229194 -0.0055203489 0.18993028
-0.030521795 -0.0071946778 0.19286644
-0.030599818 -0.0097718555 0.20004494
-0.030807268 -0.011521499 0.20249166
-0.032900304 -0.013108135 0.20764589
-0.034557745 -0.015749158 0.21118239
-0.034257788 -0.017450698 0.21341853
-0.033864103 -0.018868018 0.21767695
-0.033835046 -0.021023909 0.22005995
-0.034287903 -0.023646366 0.22265558
-0.033970673 -0.024862407 0.22536968
-0.026492914 0.041652478 0.17753762
-0.026268471 0.039949622 0.17859815
-0.025674945 0.037255693 0.17994753
-0.025785221 0.033713352 0.18159786
-0.025608605 0.030757973 0.1830354
-0.025781257 0.027343329 0.18453845
-0.026117666 0.024023104 0.18536402
-0.026459264 0.020981336 0.18550678
-0.027893398 0.016427454 0.18555109
-0.02948405 0.0091609741 0.18567662
-0.025713701 0.0052598878 0.18943539
-0.024406184 0.0013671234 0.1905196
-0.023701742 -0.0020954532 0.19394243
-0.02444293 -0.0058354563 0.19927374
-0.025946187 -0.0083113834 0.20251676
-0.028029026 -0.0099887066 0.20610015
-0.029305933 -0.012519657 0.20985612
-0.029871961 -0.01487452 0.21347286
-0.03047893 -0.017157584 0.2155529
-0.030849483 -0.019063598 0.21848036
-0.030949723 -0.02124273 0.22088169
-0.03133383 -0.023652915 0.22333612
-0.031201163 -0.024664257 0.22592552
-0.02444946 0.042437889 0.17766923
-0.023170341 0.040764332 0.17911075
-0.022192057 0.038627453 0.18025981
-0.021974839 0.03522931 0.18202081
-0.022360453 0.031422958 0.18423703
-0.02269578 0.028346272 0.18600257
-0.023509841 0.024734395 0.18658181
-0.024204951 0.021216061 0.18710853
-0.024234988 0.017446179 0.18833736
-0.023576757 0.013191397 0.18952601
-0.022307685 0.007757768 0.19184902
-0.021486158 0.0034435461 0.19442821
-0.021401934 -0.00023055535 0.19772874
-0.022263821 -0.0041663805 0.20247228
-0.023284316 -0.0068811174 0.20618264
-0.024161683 -0.0093454365 0.20949335
-0.025221692 -0.011844015 0.2131594
-0.026036123 -0.014487866 0.21642607
-0.027449988 -0.017538091 0.21831444
-0.028735178 -0.019685263 0.22012946
-0.028344935 -0.021544106 0.22120272
-0.028016996 -0.023316862 0.22328366
-0.027895089 -0.02495751 0.22637297
-0.019414695 0.041430999 0.18039116
-0.019410817 0.038570069 0.18190272
-0.018490531 0.035609219 0.18363675
-0.018825592 0.032554358 0.18545315
-0.019160878 0.029638572 0.18761556
-0.019659704 0.026354155 0.189114
-0.021233264 0.021426953 0.18955724
-0.021470079 0.017950952 0.19028072
-0.021169512 0.014535544 0.19158533
-0.020374862 0.010512332 0.19292198
-0.019185299 0.0058868914 0.19550008
-0.018640233 0.00098012981 0.2004586
-0.018954949 -0.0034740323 0.20505577
-0.019461896 -0.007071645 0.20983891
-0.02037264 -0.0097021936 0.21293348
-0.021432886 -0.012121334 0.21666017
-0.023057232 -0.014536226 0.21910511
-0.024305033 -0.017338995 0.22080296
-0.025979707 -0.019739687 0.22205809
-0.02527526 -0.021584395 0.22163291
-0.024868671 -0.023593642 0.22302739
-0.02481526 -0.025339207 0.22668964
-0.01639751 0.039102051 0.18355352
-0.01560421 0.036313776 0.18516442
-0.015707862 0.033531878 0.18693654
-0.01584921 0.030851284 0.18878344
-0.015176066 0.027826544 0.19066289
-0.014947111 0.023689246 0.19252205
-0.018440556 0.018735463 0.19233681
-0.01825822 0.015152675 0.19386476
-0.017146425 0.011115114 0.19522166
-0.015807491 0.0066500022 0.19871497
-0.015796047 0.0025845105 0.20288777
-0.01597446 -0.0022225985 0.20782275
-0.016281012 -0.0070040012 0.21300997
-0.016790148 -0.010216597 0.21644512
-0.017340759 -0.012955588 0.21979676
-0.019525459 -0.014571384 0.22097598
-0.021280119 -0.016720619 0.22265261
-0.022242548 -0.018740527 0.22321323
-0.022203689 -0.020628741 0.22289032
-0.021736082 -0.022952944 0.22433683
-0.022043619 -0.025655122 0.22844324
-0.012903328 0.036740825 0.18636014
-0.012498945 0.034316156 0.18786608
-0.01224948 0.031774644 0.18956207
-0.011698353 0.0287004 0.19098514
-0.010527377 0.024686122 0.19399787
-0.011288485 0.018846838 0.19631073
-0.01333616 0.014308528 0.19717126
-0.01275693 0.010344648 0.19871457
-0.012932773 0.0073595843 0.20142961
-0.013398433 0.0040177256 0.20436753
-0.013469472 -0.00098287268 0.20996144
-0.012984243 -0.0068802759 0.21553627
-0.013044136 -0.0098030744 0.21882963
-0.013167113 -0.012580466 0.2217686
-0.013883359 -0.014820742 0.22304198
-0.016792543 -0.016073667 0.22254935
-0.018146951 -0.017954068 0.22298305
-0.018560778 -0.020406088 0.22376482
-0.019065173 -0.02301327 0.22615166
-0.018984668 -0.025461853 0.2299013
-0.010019805 0.034650978 0.18874159
-0.0089775603 0.032336481 0.19053517
-0.0079747476 0.029122213 0.1928245
-0.0071727028 0.024447083 0.19599152
-0.0076107681 0.018703723 0.19878517
-0.0091311056 0.01439954 0.200203
-0.0097173871 0.0107288 0.20173536
-0.010162443 0.0080006178 0.20357741
-0.010692903 0.0050660637 0.20570461
-0.011040201 0.00068332214 0.21072079
-0.0093648555 -0.0059237168 0.2172998
-0.0093761655 -0.0089490023 0.22066122
-0.0095039802 -0.011765635 0.22308575
-0.0099767558 -0.013937081 0.22458225
-0.011542444 -0.015668495 0.22441667
-0.013353433 -0.01763124 0.22540848
-0.014473015 -0.020353582 0.22639848
-0.015897702 -0.024294131 0.23028693
-0.0050128605 0.03099161 0.19418809
-0.0044396762 0.027352955 0.19641457
-0.0044534807 0.02240615 0.19867319
-0.0051230844 0.019529473 0.20005216
-0.0058224453 0.014694498 0.20192698
-0.0064992327 0.011274928 0.20368908
-0.0070308498 0.0085646231 0.20574836
-0.0073493207 0.0057878452 0.20864041
-0.0085447198 0.0022873168 0.21151981
-0.0058811414 -0.0047182739 0.21893208
-0.0060293493 -0.0080864886 0.22250207
-0.0061250138 -0.011142087 0.22381662
-0.0069313543 -0.013569509 0.22564916
-0.0076586204 -0.015717028 0.22671655
-0.0093235923 -0.018130589 0.22840576
-0.011447739 -0.02082077 0.22906847
-0.013606555 -0.023404233 0.2304302
-0.0012749528 0.025166446 0.19839628
-0.0014281705 0.021573912 0.19963555
-0.00054992584 0.018310236 0.20089526
-0.0018614031 0.015434597 0.20256434
-0.0027600012 0.011641592 0.2053515
-0.0028938805 0.0087205134 0.20819378
-0.0030498719 0.0058826664 0.21093941
-0.0024848606 -0.0029850516 0.21961154
-0.002427727 -0.0073409206 0.22335093
-0.002673364 -0.010764425 0.22468948
-0.0035465083 -0.013458138 0.22650209
-0.0046877535 -0.015728442 0.22772001
-0.0065706293 -0.0178304 0.22974838
0.0010756108 0.02350972 0.19883612
0.0012423584 0.020967599 0.19949952
0.0017475083 0.018192498 0.20058136
0.0016999863 0.015486924 0.20330386
0.0012113572 0.012031809 0.20655581
0.0010165472 0.0088710049 0.20920834
0.00087304524 0.0062415604 0.21169864
0.00022367602 0.0034201907 0.21435083
0.00084676989 -0.00093806983 0.21788551
0.00061533262 -0.0058354083 0.22254892
-0.00016281198 -0.010092505 0.22523925
0.0035259046 0.020256694 0.19940522
0.0050753038 0.01831146 0.20091614
0.0047510574 0.015667897 0.20438823
0.0041444991 0.012514544 0.20707826
0.0038936355 0.0095971711 0.20945519
0.0036012572 0.0075099664 0.21156344
0 0 0 1 0 0 0 1 0 0 0 1 0 0 0 0 0 348 1 0 0
