ply
format ascii 1.0
comment PCL generated
element vertex 348
property float x
property float y
property float z
element camera 1
property float view_px
property float view_py
property float view_pz
property float x_axisx
property float x_axisy
property float x_axisz
property float y_axisx
property float y_axisy
property float y_axisz
property float z_axisx
property float z_axisy
property float z_axisz
property float focal
property float scalex
property float scaley
property float centerx
property float centery
property int viewportx
property int viewporty
property float k1
property float k2
end_header
-0.055208594 0.023169672 0.18510462
-0.055866916 0.02068923 0.18666618
-0.05645455 0.017437596 0.18840304
-0.056726474 0.014285457 0.19035161
-0.056819353 0.011338507 0.19244294
-0.056712903 0.0086383661 0.19454528
-0.056316424 0.006092703 0.19648723
-0.051953129 0.02509496 0.18157192
-0.052718446 0.023899693 0.1824615
-0.052881014 0.021211213 0.18386467
-0.05336694 0.017836297 0.18561652
-0.053685024 0.014064765 0.18759468
-0.054107055 0.0107442 0.18996911
-0.054527123 0.0078725554 0.19302315
-0.053944714 0.0047803088 0.1954896
-0.051746871 0.00089673401 0.19715124
-0.052159425 -0.001874692 0.19941907
-0.049202058 0.027856331 0.1797282
-0.049673453 0.026171263 0.18047535
-0.049805932 0.024010314 0.18121167
-0.050096791 0.021653183 0.18223478
-0.050407182 0.01803378 0.18405659
-0.050439779 0.013212529 0.18625002
-0.050730135 0.0096698077 0.18860802
-0.050778035 0.0067692641 0.191425
-0.050188709 0.0030133582 0.19380651
-0.049592834 -0.0010325221 0.19694072
-0.050712571 -0.0034211171 0.19943601
-0.051800523 -0.0046538715 0.20228417
-0.051847644 -0.0057369024 0.20446444
-0.051803764 -0.0069909231 0.20505142
-0.046794631 0.02910812 0.17905249
-0.047020987 0.026898114 0.17967214
-0.047299925 0.024577249 0.18054339
-0.047720533 0.022181829 0.18177873
-0.04816258 0.018868458 0.1832799
-0.047635525 0.011675714 0.1853109
-0.047769994 0.0079860687 0.18820322
-0.047682654 0.0046490403 0.1906926
-0.047641154 -0.00059321674 0.19395572
-0.048243586 -0.0038145436 0.19631694
-0.048397873 -0.0057291971 0.19818455
-0.048809946 -0.006283639 0.20066284
-0.049185485 -0.0062761824 0.20404738
-0.050006356 -0.0077344049 0.20615135
-0.050639398 -0.010038296 0.20853306
-0.050374497 -0.013370964 0.2120249
-0.043598983 0.032594029 0.17793658
-0.043978199 0.03036827 0.17877865
-0.044273186 0.027707683 0.17972155
-0.044723921 0.025253195 0.18063411
-0.045271091 0.022554798 0.18176423
-0.045731936 0.019166399 0.18277466
-0.045561366 0.012634484 0.18372315
-0.045861147 0.0064719054 0.18791971
-0.045529172 0.0018603122 0.19059807
-0.046768788 -0.0037426171 0.19394767
-0.047885496 -0.0079578487 0.19547588
-0.047546919 -0.0087140352 0.19716161
-0.04643257 -0.0070084403 0.19926633
-0.045965865 -0.0069491616 0.20375603
-0.046392411 -0.0083082831 0.20689128
-0.047468431 -0.011169321 0.209144
-0.04853994 -0.014153502 0.211447
-0.049795367 -0.016134506 0.21477823
-0.041127734 0.034463089 0.17715304
-0.041539621 0.03108258 0.17878622
-0.0412939 0.028602127 0.17980666
-0.042100366 0.026044847 0.18090656
-0.04248612 0.023401767 0.18157239
-0.042749047 0.02003238 0.18224248
-0.043263558 0.014812808 0.18284367
-0.044322599 0.0051432461 0.18759437
-0.044380769 -0.00056108489 0.19009826
-0.046033781 -0.0073268097 0.19279957
-0.045973271 -0.010238747 0.19462435
-0.044487491 -0.0095067481 0.19712442
-0.043342035 -0.0075779483 0.19891667
-0.042933132 -0.0076762177 0.20335509
-0.042994726 -0.0092907511 0.20687412
-0.043523166 -0.012008712 0.20952547
-0.045288563 -0.014695934 0.21166486
-0.047466766 -0.016423481 0.21495907
-0.047748942 -0.019034727 0.2187258
-0.047171477 -0.02118375 0.22094201
-0.037440255 0.038601212 0.17530979
-0.037928689 0.036214098 0.17684305
-0.036900241 0.033426702 0.17822427
-0.038073983 0.030792801 0.17926738
-0.038647879 0.027871083 0.18031353
-0.039250001 0.024241922 0.18136892
-0.039121784 0.020904612 0.18163487
-0.040846016 0.014926955 0.18259123
-0.042799916 0.0049843439 0.18626931
-0.042185307 -0.00070139248 0.18773726
-0.044043336 -0.0089713354 0.19125599
-0.042489003 -0.010871843 0.19429994
-0.040942751 -0.0094337501 0.19687442
-0.040539283 -0.0083235558 0.197799
-0.039707325 -0.0089713624 0.20162337
-0.040236864 -0.01083549 0.20469926
-0.041748464 -0.012928994 0.20697524
-0.043415282 -0.014452686 0.20965017
-0.043938294 -0.016820835 0.2135265
-0.043997627 -0.019525183 0.21734788
-0.044672571 -0.022040993 0.22090322
-0.043845806 -0.024015596 0.22257619
-0.034907099 0.039703686 0.17561834
-0.03471591 0.037885677 0.17726533
-0.034520406 0.034711178 0.17831385
-0.035206962 0.031990044 0.17926262
-0.034941729 0.029579755 0.18038747
-0.034792494 0.026009094 0.1819426
-0.034770649 0.022882501 0.18225624
-0.038379025 0.015676768 0.18233342
-0.041169196 0.0066428795 0.18449648
-0.039343573 0.00088481087 0.18488279
-0.040498424 -0.010621116 0.18978487
-0.039205331 -0.01217405 0.19312191
-0.038258862 -0.0102834 0.19390412
-0.037391491 -0.009301384 0.19615214
-0.037332904 -0.010392873 0.19968048
-0.037665822 -0.011936778 0.20234267
-0.039150659 -0.013364973 0.20601171
-0.041240972 -0.015345827 0.20923297
-0.040825196 -0.017326051 0.21294059
-0.040606398 -0.019502394 0.21651708
-0.040774856 -0.022034481 0.21998467
-0.040816393 -0.024256809 0.22225185
-0.031906147 0.040457711 0.17643897
-0.031863194 0.038722176 0.17784204
-0.032030519 0.035128698 0.17939562
-0.032274958 0.031989835 0.18039633
-0.031729143 0.029872142 0.18150355
-0.031497952 0.02688349 0.18296041
-0.031828571 0.02286547 0.18309322
-0.032558188 0.019094981 0.18221101
-0.038753789 0.0096257133 0.18267633
-0.036528863 0.0033979898 0.18300334
-0.034709264 -0.00025706165 0.18331149
-0.035462659 -0.0094529204 0.18726744
-0.034744937 -0.0096003022 0.19172101
-0.034128591 -0.0085645011 0.19525132
-0.033867914 -0.0098608471 0.19942644
-0.034345433 -0.011779765 0.20247234
-0.036036734 -0.0132891 0.20667639
-0.037946053 -0.015728053 0.21023831
-0.038117252 -0.017435968 0.21279916
-0.037519235 -0.019250061 0.21640158
-0.037925053 -0.021946961 0.2195482
-0.037400763 -0.023744646 0.22175394
-0.029168364 0.04098013 0.17708614
-0.028999308 0.03918492 0.17842379
-0.02906107 0.035724647 0.18022081
-0.029072907 0.032660689 0.18150474
-0.028620703 0.030340269 0.18266246
-0.028839303 0.027071921 0.18399663
-0.028965196 0.023569185 0.18433043
-0.02855112 0.020765562 0.18383154
-0.032975473 0.014303901 0.18203741
-0.032995597 0.006181512 0.18273355
-0.029709665 0.0036165812 0.18452574
-0.029291207 -0.00017369576 0.18681604
-0.030362135 -0.0053553754 0.19007008
-0.030565035 -0.0071942769 0.19308215
-0.030874677 -0.0093936231 0.20042548
-0.031145969 -0.010988182 0.20296723
-0.032937273 -0.012801417 0.20759906
-0.034627534 -0.015528861 0.21113862
-0.034439676 -0.017332107 0.21312861
-0.03388815 -0.018664995 0.21731389
-0.033758137 -0.020754276 0.21975628
-0.034104805 -0.023244837 0.22246599
-0.033660006 -0.024345899 0.22517531
-0.026377579 0.041522816 0.17779882
-0.02619374 0.039843515 0.17884435
-0.025645712 0.037204701 0.18024181
-0.025826922 0.033820122 0.18207
-0.025729092 0.030952597 0.1835639
-0.025975095 0.027596783 0.18511876
-0.026238091 0.024194811 0.18546945
-0.026325217 0.021099716 0.18495318
-0.027385872 0.016487299 0.18409833
-0.028925965 0.009284813 0.18370172
-0.025097661 0.0051842383 0.18778747
-0.02461757 0.0017657218 0.19051354
-0.024202446 -0.0016023319 0.19422325
-0.025005179 -0.0053518987 0.19969743
-0.02646786 -0.0077461754 0.20297375
-0.027980795 -0.0099579198 0.20568065
-0.029515997 -0.011921114 0.20973845
-0.03018697 -0.014306108 0.21322058
-0.030650165 -0.016935222 0.21499713
-0.030858448 -0.018836908 0.21793123
-0.030835645 -0.020915007 0.22038092
-0.031111179 -0.023220258 0.22292924
-0.030830152 -0.024167813 0.22548392
-0.024424711 0.042409025 0.17810474
-0.023285307 0.040828347 0.17960864
-0.022319257 0.038743485 0.18080805
-0.022103101 0.035370965 0.18251607
-0.022488723 0.031579927 0.18462673
-0.022831874 0.028494788 0.18639141
-0.023575922 0.024868609 0.18662454
-0.024013596 0.021244612 0.18645194
-0.023703078 0.017348483 0.18700838
-0.02285111 0.013082145 0.18791644
-0.021615731 0.0075916774 0.19031766
-0.021077592 0.003303773 0.19318524
-0.021336161 -0.00034639626 0.19676872
-0.022277931 -0.0042754859 0.20176098
-0.023295529 -0.0069139465 0.20557758
-0.024222031 -0.0092471493 0.20893706
-0.025382841 -0.011619275 0.21258378
-0.026192948 -0.014276098 0.21561387
-0.02746368 -0.017325941 0.21751133
-0.028677477 -0.019386908 0.21939291
-0.028236127 -0.021198405 0.22049923
-0.027776433 -0.022868561 0.22260354
-0.027494757 -0.024507932 0.22563858
-0.019646689 0.041636292 0.18109554
-0.019629562 0.038735442 0.1824082
-0.018519973 0.035575528 0.18364741
-0.018783417 0.032457937 0.18517724
-0.019040683 0.029453248 0.1872445
-0.019501433 0.026120504 0.18856683
-0.020921716 0.0213282 0.18876602
-0.020826038 0.017811833 0.18886711
-0.020460688 0.014381579 0.19004034
-0.019752078 0.010342981 0.19142641
-0.01879416 0.005745613 0.19429082
-0.018677758 0.0009323071 0.19960085
-0.019111989 -0.0033987274 0.20438573
-0.019696249 -0.006849491 0.20933807
-0.020557506 -0.009504972 0.21239251
-0.021590609 -0.011969754 0.21596394
-0.023074716 -0.014388642 0.2180832
-0.024120234 -0.017124139 0.21975933
-0.025758792 -0.019445101 0.22114484
-0.025109097 -0.021216113 0.22070009
-0.024640355 -0.023147838 0.22212757
-0.024407625 -0.024926679 0.22579345
-0.016421987 0.039043024 0.18374066
-0.015504519 0.036132455 0.18500948
-0.015562072 0.033320174 0.18655036
-0.015650382 0.030606346 0.18824022
-0.014962357 0.027541295 0.18999222
-0.014713566 0.023378989 0.19168384
-0.01769617 0.018522879 0.1908627
-0.017557438 0.014947345 0.19235253
-0.016606029 0.010893845 0.1938962
-0.015697401 0.0065759914 0.19787921
-0.015900964 0.0025977795 0.20212483
-0.016344691 -0.0020294643 0.20720865
-0.016616972 -0.0065862639 0.21246633
-0.017061334 -0.0098737311 0.21575429
-0.017457297 -0.012689805 0.2189296
-0.019527042 -0.014390374 0.21981321
-0.020998945 -0.016511243 0.22140098
-0.021980625 -0.018422002 0.22205468
-0.022015141 -0.020253906 0.22176374
-0.021488983 -0.022452446 0.2232933
-0.021601388 -0.025236273 0.22747239
-0.012777882 0.036496107 0.18613149
-0.012357661 0.034093007 0.187492
-0.012102185 0.031578392 0.18911029
-0.011552421 0.028550567 0.19050182
-0.010468303 0.024599532 0.19360664
-0.010733221 0.018935589 0.19598421
-0.0127016 0.014115754 0.19613819
-0.012469736 0.010134941 0.19789907
-0.012901925 0.0072752987 0.20075506
-0.013552745 0.0040004649 0.20370577
-0.01389376 -0.00069005135 0.20937093
-0.013325844 -0.0064117215 0.21477565
-0.013221066 -0.0094310911 0.21788321
-0.013109181 -0.012280608 0.22060099
-0.013717903 -0.014487896 0.22170204
-0.01663113 -0.01573942 0.22114606
-0.018006053 -0.017542275 0.2215441
-0.018409787 -0.019896166 0.22250067
-0.01882305 -0.022434065 0.22503914
-0.018573236 -0.024877289 0.22879809
-0.0098965159 0.034464393 0.18842508
-0.0089214621 0.032307334 0.19032302
-0.0080781989 0.029238414 0.19275025
-0.0071718735 0.024643224 0.19626063
-0.0074110259 0.019063562 0.19947726
-0.0088317385 0.014504863 0.20008768
-0.0095658079 0.010581847 0.20124885
-0.010166704 0.007819864 0.20304866
-0.0108395 0.0048980988 0.20511827
-0.011419735 0.00078888878 0.210104
-0.0096394084 -0.0054345923 0.21627584
-0.0094261765 -0.0085988129 0.21947692
-0.0093525779 -0.011462838 0.22173254
-0.0097145028 -0.01356801 0.22312942
-0.011275727 -0.015230627 0.22295134
-0.013111318 -0.017029045 0.22395884
-0.014259038 -0.019588221 0.22509202
-0.015547328 -0.023515083 0.22918597
-0.0050287247 0.031131109 0.19423677
-0.004276834 0.027528083 0.19665839
-0.004216102 0.022749493 0.1996153
-0.0050242324 0.019925646 0.20112801
-0.0058468529 0.014943684 0.20251639
-0.0065120282 0.011193858 0.20366348
-0.0069784196 0.008205452 0.20537004
-0.0073857363 0.0052859946 0.20809467
-0.0088343509 0.0020202254 0.21088403
-0.0060922247 -0.0042215018 0.21774995
-0.0059743566 -0.0076973098 0.22115682
-0.0059258104 -0.010777026 0.22234793
-0.0066150888 -0.013154636 0.22409803
-0.0072670956 -0.015208999 0.22515008
-0.0088875955 -0.017476628 0.22690964
-0.011066461 -0.019966116 0.22774132
-0.0132311 -0.022522921 0.22929078
-0.00081532192 0.025262708 0.19877684
-0.0011734043 0.02181056 0.20060478
-0.00039189268 0.018512296 0.20202228
-0.0019015251 0.015725845 0.2036614
-0.0029445444 0.011619383 0.20563623
-0.0030266473 0.0082432423 0.20783144
-0.0032332491 0.0051540341 0.21027671
-0.0027505609 -0.0025844129 0.21841493
-0.0023411263 -0.0068966798 0.22186346
-0.0024290071 -0.010319246 0.22306511
-0.0031986753 -0.013004431 0.22483377
-0.0042179688 -0.015162561 0.2260222
-0.0060414756 -0.017199758 0.22815511
0.0014880017 0.023516944 0.19943343
0.0015400508 0.021017132 0.20040593
0.001966767 0.018204827 0.20165049
0.0016203447 0.015628774 0.20440768
0.00086307892 0.012122663 0.20721984
0.00075846026 0.008530302 0.20917204
0.00060335256 0.0056231539 0.21126589
-9.9108969e-05 0.0025665257 0.2136405
0.00045203071 -0.001234528 0.21697016
0.00057854975 -0.0053832778 0.22107774
9.2981914e-05 -0.0096136853 0.22350076
0.0038488884 0.020144042 0.20035851
0.0053555556 0.018085461 0.20202278
0.0046194857 0.015812587 0.20567238
0.0037521091 0.012681398 0.20804588
0.0035506964 0.0094044134 0.20977433
0.0032977064 0.0070328615 0.21141621
0 0 0 1 0 0 0 1 0 0 0 1 0 0 0 0 0 348 1 0 0
