ply
format ascii 1.0
comment PCL generated
element vertex 348
property float x
property float y
property float z
element camera 1
property float view_px
property float view_py
property float view_pz
property float x_axisx
property float x_axisy
property float x_axisz
property float y_axisx
property float y_axisy
property float y_axisz
property float z_axisx
property float z_axisy
property float z_axisz
property float focal
property float scalex
property float scaley
property float centerx
property float centery
property int viewportx
property int viewporty
property float k1
property float k2
end_header
-0.056416456 0.023915747 0.18856765
-0.056935024 0.021363113 0.1898673
-0.057445418 0.018230285 0.1916696
-0.057733513 0.015179351 0.19354896
-0.057892695 0.012247181 0.19542848
-0.057843097 0.0095121581 0.19717523
-0.057476744 0.0068515548 0.19881113
-0.053171288 0.025569797 0.18452223
-0.05397531 0.024416558 0.18547638
-0.054044843 0.021811625 0.18698317
-0.054383185 0.018573826 0.18888347
-0.054674845 0.014985516 0.19088615
-0.055182729 0.011742924 0.19294636
-0.055724356 0.0087631578 0.19555244
-0.055386044 0.0057077422 0.19809921
-0.053631227 0.0019424008 0.19892466
-0.053999577 -0.0010956718 0.20079966
-0.050410669 0.028118571 0.18239287
-0.050920215 0.026443092 0.18316476
-0.051098898 0.024404755 0.18402457
-0.051448692 0.022200942 0.18523234
-0.051567256 0.018746484 0.18722719
-0.051384475 0.014325899 0.18960871
-0.051742673 0.010774129 0.19156557
-0.05200072 0.007771662 0.19466375
-0.051786337 0.0040085302 0.19623719
-0.051501326 8.4941224e-05 0.19840078
-0.052519977 -0.0026011481 0.20063962
-0.053554952 -0.0041706273 0.20331442
-0.053556055 -0.0054342225 0.20538035
-0.053450506 -0.0065251566 0.20602576
-0.047974169 0.029186299 0.18131819
-0.048283912 0.027029203 0.18202271
-0.048649505 0.024795767 0.18304349
-0.049113888 0.022565734 0.18444081
-0.04954664 0.019408928 0.18629712
-0.048549406 0.012988919 0.18862233
-0.048863087 0.009152757 0.19101672
-0.049014486 0.005824015 0.19362667
-0.049671736 0.00085781614 0.19523363
-0.050164185 -0.0025955292 0.19740883
-0.050217412 -0.0046797809 0.19909911
-0.050557118 -0.0055396133 0.20149283
-0.050961219 -0.0057358486 0.20481627
-0.051627673 -0.007081415 0.2071211
-0.052044243 -0.0092136404 0.20976877
-0.051240902 -0.012129581 0.21336627
-0.044756752 0.032481827 0.17987622
-0.045150492 0.030394556 0.18078987
-0.045569692 0.027737342 0.18173237
-0.046111021 0.025361113 0.18277176
-0.046698533 0.022819784 0.18412128
-0.047274422 0.019611429 0.18552007
-0.046820916 0.013670441 0.18719682
-0.047174726 0.0078031523 0.19132519
-0.047350261 0.003186425 0.19282207
-0.048877154 -0.0024947852 0.19481443
-0.049731344 -0.0068306918 0.19616385
-0.049268771 -0.0076476079 0.197834
-0.048182331 -0.006019833 0.20002314
-0.047743499 -0.0061513265 0.20451437
-0.048095167 -0.0075162244 0.20764957
-0.048595782 -0.010047865 0.21013798
-0.049417954 -0.012907716 0.21276751
-0.050481975 -0.015063968 0.2164955
-0.042264823 0.034325249 0.17904693
-0.042709354 0.031125095 0.18070917
-0.042519245 0.028674806 0.18157788
-0.043470904 0.026022572 0.1827088
-0.043939099 0.023536887 0.1836241
-0.044306513 0.020359522 0.18470226
-0.044776049 0.015464802 0.18602028
-0.045948915 0.0066496138 0.19084764
-0.046549555 0.00077262759 0.1918205
-0.047956776 -0.0060411221 0.19348231
-0.047603432 -0.0089694131 0.1952002
-0.046189852 -0.0082352078 0.19776995
-0.045218255 -0.0063181631 0.1996728
-0.044729073 -0.0066188029 0.2041101
-0.044705581 -0.0082161706 0.20762631
-0.044816203 -0.010569606 0.21028508
-0.046258178 -0.013232577 0.21288466
-0.048169721 -0.015467133 0.21673709
-0.04846973 -0.018495714 0.22029564
-0.047945354 -0.020916015 0.22226147
-0.038604859 0.039268482 0.17712848
-0.039141808 0.036502574 0.17887756
-0.038071886 0.033666387 0.18049744
-0.039215364 0.031031532 0.18139058
-0.039834369 0.028089639 0.18220305
-0.040661667 0.024355687 0.18323179
-0.040708102 0.02104608 0.18398447
-0.042390656 0.01554051 0.18569684
-0.044618927 0.0064686392 0.18973331
-0.044422526 0.00078820286 0.1899505
-0.045768406 -0.0074201534 0.19192354
-0.043994211 -0.009179553 0.19495913
-0.042703949 -0.0077099986 0.19769181
-0.042466912 -0.0066235554 0.19868223
-0.041808337 -0.0073084077 0.20247974
-0.042277221 -0.009259996 0.20547594
-0.04333229 -0.011291896 0.20776109
-0.044896588 -0.012696745 0.2105446
-0.044839963 -0.01569112 0.21529303
-0.044713151 -0.018815177 0.21901628
-0.045481101 -0.02181471 0.22217716
-0.044713389 -0.024024004 0.22359371
-0.035976317 0.040575866 0.17701273
-0.035726499 0.038813613 0.1788355
-0.035685685 0.035059046 0.18041061
-0.036318645 0.032315806 0.18136732
-0.03601367 0.02989669 0.18229388
-0.035812832 0.026252422 0.1836827
-0.036016192 0.023117613 0.18415777
-0.039775856 0.01638045 0.18534355
-0.043069042 0.0078724632 0.18846469
-0.041559797 0.0022679321 0.1879852
-0.041785419 -0.0084338412 0.19080314
-0.04045881 -0.009902793 0.19418682
-0.039951541 -0.0079158051 0.1952337
-0.039466329 -0.0068957033 0.19754004
-0.039529212 -0.0081191398 0.20076227
-0.040124018 -0.0097639859 0.20325957
-0.041198004 -0.011595143 0.20674782
-0.043054212 -0.013346544 0.21010026
-0.041812908 -0.015973616 0.21444614
-0.041239809 -0.018864807 0.21815053
-0.041588236 -0.021801764 0.22131495
-0.041716054 -0.02430189 0.22330077
-0.032838743 0.041296683 0.17746069
-0.032773312 0.039611183 0.17906566
-0.033097275 0.035467401 0.18113676
-0.033280961 0.032204483 0.18220574
-0.032723267 0.030139243 0.18314536
-0.0324587 0.027093651 0.18433848
-0.033065092 0.023098873 0.1848761
-0.034126732 0.019456329 0.18492596
-0.040848367 0.010436681 0.18706428
-0.038974762 0.0044376915 0.18717456
-0.037370376 0.000978656 0.18717527
-0.036911722 -0.0065010386 0.18941544
-0.03655839 -0.0063919285 0.19366802
-0.036516424 -0.0054658582 0.19726589
-0.036434226 -0.0070009329 0.2011497
-0.037084766 -0.0092231082 0.2039187
-0.038255196 -0.011597156 0.20749013
-0.039811108 -0.013822895 0.21120268
-0.038906164 -0.016235569 0.21450979
-0.037999902 -0.018842746 0.21822245
-0.038650226 -0.021910999 0.22086138
-0.03825362 -0.023937643 0.22277774
-0.03003291 0.041685693 0.17797193
-0.029795323 0.039934006 0.17951261
-0.030037194 0.036031004 0.1816044
-0.030001134 0.032886919 0.18285649
-0.029477026 0.030685453 0.18388273
-0.029773327 0.027442927 0.18521015
-0.030144852 0.02393252 0.18588743
-0.030059235 0.021241015 0.18609625
-0.034741946 0.01470634 0.18544909
-0.035301592 0.0067308946 0.18610181
-0.032644589 0.0044484334 0.18874893
-0.032295343 0.0010200712 0.19096784
-0.032916632 -0.0025672775 0.19335191
-0.03322104 -0.0034863297 0.19570068
-0.033593263 -0.0064572538 0.20289551
-0.034074385 -0.008333968 0.20528965
-0.035231255 -0.011448857 0.20869917
-0.03631733 -0.014148954 0.21239175
-0.034978859 -0.016355325 0.21538486
-0.0345142 -0.018369388 0.21973079
-0.03453292 -0.020726269 0.2217079
-0.035036292 -0.023682335 0.22380911
-0.034762025 -0.025188806 0.22636631
-0.026953783 0.042075928 0.17856988
-0.026724799 0.040405884 0.17979625
-0.026232095 0.037676331 0.18139078
-0.026644001 0.0340009 0.18300314
-0.026516002 0.03116853 0.18453221
-0.026863078 0.027885878 0.18618721
-0.027407082 0.024636658 0.18696837
-0.027860653 0.021592293 0.18712731
-0.0294172 0.017033366 0.1872125
-0.031114735 0.0097182058 0.18716031
-0.027441066 0.0060138502 0.19100353
-0.027399931 0.0032472857 0.19477679
-0.026862651 0.0005191465 0.19877292
-0.027545171 -0.0028274797 0.20382105
-0.029350847 -0.0052689859 0.20669945
-0.030519808 -0.0084173232 0.20819378
-0.031947833 -0.011365999 0.2116373
-0.031686813 -0.014218856 0.21581694
-0.031445228 -0.016627494 0.21844813
-0.031780757 -0.018676767 0.22099485
-0.031804178 -0.021017475 0.22294766
-0.03211287 -0.023579147 0.22489026
-0.031965181 -0.024729887 0.22734979
-0.024824021 0.042783305 0.17871211
-0.023442434 0.041112293 0.18032336
-0.022484388 0.038966928 0.18160525
-0.022457795 0.035533436 0.18341191
-0.022997992 0.031737268 0.18556404
-0.023440599 0.028787587 0.1874714
-0.024660861 0.025254333 0.18809189
-0.025646161 0.021718768 0.1886351
-0.025788499 0.018035609 0.18986493
-0.025043514 0.014129349 0.19112353
-0.023805615 0.0088005159 0.19368654
-0.023295557 0.004727826 0.19670492
-0.023393644 0.0013884854 0.20040961
-0.02438001 -0.0026083922 0.20529968
-0.025611795 -0.005450441 0.20898367
-0.026675208 -0.0081788898 0.212337
-0.027600093 -0.011224343 0.21620747
-0.027866334 -0.014361322 0.21972674
-0.028801275 -0.017507976 0.22162096
-0.029811848 -0.019476915 0.2227909
-0.02931991 -0.021267025 0.22356091
-0.028844129 -0.02302235 0.22527237
-0.028714128 -0.024817711 0.22806083
-0.019463053 0.04166884 0.18150482
-0.019520665 0.038923409 0.18313451
-0.018441761 0.035913356 0.18498746
-0.018950082 0.0327328 0.18688844
-0.019494023 0.029874803 0.18904112
-0.020214882 0.026650134 0.1906154
-0.022700159 0.02187901 0.19106503
-0.023100901 0.0186926 0.19184974
-0.022747818 0.015673356 0.19326329
-0.021937884 0.011750975 0.19474509
-0.020966334 0.0072589633 0.19766863
-0.020718347 0.0026174025 0.20326003
-0.02116896 -0.0021343939 0.20802744
-0.021812165 -0.0061405818 0.21305786
-0.02269377 -0.0089417957 0.21630986
-0.023487296 -0.011819314 0.2200477
-0.024700483 -0.014584412 0.22231583
-0.025651671 -0.017349655 0.22397241
-0.02713858 -0.019619834 0.22478969
-0.02636032 -0.021303399 0.22419092
-0.025812993 -0.023237163 0.22518331
-0.025658157 -0.025147077 0.2284034
-0.016213609 0.039392337 0.18457291
-0.01543318 0.036620568 0.18633512
-0.01567016 0.033772424 0.18825753
-0.015913622 0.031079492 0.1901903
-0.015246239 0.028178094 0.19224097
-0.015098479 0.02435166 0.19445814
-0.020085955 0.019790651 0.19398029
-0.019954598 0.016464969 0.19567494
-0.018826662 0.012549294 0.19726005
-0.017713916 0.0084002484 0.20131086
-0.017876547 0.0041801431 0.20577416
-0.018018791 -0.0012947082 0.21057586
-0.018494248 -0.0063851196 0.21617605
-0.018881453 -0.0098208776 0.21965729
-0.019000717 -0.012963143 0.22293724
-0.021047805 -0.014753469 0.22403198
-0.022610018 -0.016855724 0.22580233
-0.023506371 -0.018699545 0.22604088
-0.023412647 -0.020440979 0.22544824
-0.022765536 -0.022780547 0.22644742
-0.022923881 -0.025593393 0.23003007
-0.012665519 0.037106749 0.18746227
-0.012327257 0.034580413 0.18911706
-0.012156202 0.032031942 0.19092022
-0.011604798 0.028997511 0.19262795
-0.010400477 0.025274718 0.19626732
-0.012166843 0.019742632 0.19885801
-0.015034967 0.015643571 0.19938138
-0.014519472 0.011969436 0.20127527
-0.014822319 0.0090915868 0.20418736
-0.015307586 0.0056426656 0.20711361
-0.015279393 -0.00028709986 0.21249227
-0.015013814 -0.0065620714 0.21841857
-0.014667531 -0.0097039528 0.22141044
-0.014417376 -0.012602469 0.22409026
-0.015058172 -0.014880258 0.22528389
-0.018165333 -0.016139198 0.22514917
-0.019567121 -0.017997233 0.22549365
-0.019928535 -0.020331612 0.22598734
-0.020160336 -0.022992991 0.2280046
-0.019894153 -0.025570538 0.23144245
-0.0098196752 0.034878846 0.18994966
-0.0087103341 0.032485668 0.19189897
-0.0075974972 0.029333672 0.19460969
-0.0070690829 0.025094111 0.19845417
-0.0082976697 0.019578151 0.20154668
-0.01043197 0.015422636 0.20288925
-0.011222138 0.012230859 0.2046207
-0.011778993 0.0095550437 0.2063335
-0.012376213 0.0064703445 0.20834489
-0.012743236 0.0014085681 0.21300527
-0.011048342 -0.005754197 0.21946938
-0.010581053 -0.0089364257 0.22231606
-0.010528603 -0.011899454 0.22451428
-0.010911478 -0.014144374 0.22598919
-0.01272336 -0.015790403 0.2261347
-0.014571964 -0.017720189 0.2271831
-0.015744876 -0.020543825 0.22817178
-0.016879607 -0.024599396 0.23173365
-0.0045035249 0.03111707 0.19565937
-0.0041867997 0.027783599 0.19834521
-0.0047521344 0.023277726 0.20129912
-0.0056924527 0.020488037 0.20282982
-0.007013828 0.015777281 0.20475772
-0.0077897361 0.012525364 0.20667447
-0.0082551185 0.0096749719 0.20844582
-0.0086414432 0.0066543291 0.21109988
-0.010109883 0.0029773966 0.21358556
-0.0072152596 -0.0046906024 0.22033252
-0.0068869311 -0.0082944026 0.22340199
-0.0069758091 -0.011442539 0.2246152
-0.0077169528 -0.013949967 0.22646445
-0.0084228273 -0.016100558 0.22764476
-0.010049677 -0.018484401 0.22947039
-0.012404794 -0.021147693 0.23046613
-0.01456804 -0.023782881 0.23186639
-0.0013136215 0.025757113 0.20029157
-0.0017037846 0.022387147 0.20210524
-0.00099922775 0.019308586 0.20356885
-0.0026408809 0.016560737 0.20533958
-0.0035200671 0.012329357 0.20794272
-0.0034514938 0.0092164231 0.21069169
-0.0035410055 0.0063415626 0.2133068
-0.0033789603 -0.0030922284 0.22051798
-0.0031849211 -0.0077547934 0.22371416
-0.0035088479 -0.011330634 0.22496939
-0.0042746747 -0.014054867 0.22678287
-0.0053789392 -0.016303169 0.22815527
-0.0070098783 -0.018376904 0.23029453
0.00090898131 0.024109947 0.20084412
0.00093492295 0.021718048 0.20183815
0.0012963166 0.019111911 0.20302768
0.0013459629 0.016168695 0.20552643
0.00093575509 0.012333895 0.20867763
0.00072127709 0.0091747912 0.21143621
0.0006073282 0.0065300469 0.21389014
5.9826211e-06 0.0036882074 0.21651807
0.00035063497 -0.00097438379 0.2194573
-0.00012457164 -0.0062838821 0.22260927
-0.00088973844 -0.010785194 0.22516881
0.0031536291 0.020926667 0.20160688
0.0046786596 0.018920381 0.2029158
0.0044849971 0.015867213 0.20613971
0.0039283638 0.012623936 0.20893018
0.003685449 0.0097608259 0.2114305
0.0034229655 0.0076699997 0.21361946
0 0 0 1 0 0 0 1 0 0 0 1 0 0 0 0 0 348 1 0 0
