ply
format ascii 1.0
comment PCL generated
element vertex 348
property float x
property float y
property float z
element camera 1
property float view_px
property float view_py
property float view_pz
property float x_axisx
property float x_axisy
property float x_axisz
property float y_axisx
property float y_axisy
property float y_axisz
property float z_axisx
property float z_axisy
property float z_axisz
property float focal
property float scalex
property float scaley
property float centerx
property float centery
property int viewportx
property int viewporty
property float k1
property float k2
end_header
-0.056955665 0.023547625 0.18864925
-0.05753395 0.021151599 0.19035564
-0.058051754 0.018054098 0.19212984
-0.058350284 0.015079675 0.19399583
-0.058520094 0.012229946 0.19587034
-0.058479235 0.0095678661 0.19759093
-0.058128584 0.0069269058 0.19919725
-0.053806446 0.025204044 0.18464905
-0.054613955 0.024148431 0.1857864
-0.054653883 0.021564785 0.1873329
-0.054946825 0.018409826 0.18939506
-0.055246256 0.014901731 0.19138032
-0.055769004 0.011760497 0.19341825
-0.056330476 0.0088478047 0.19599792
-0.056001585 0.0056595751 0.19793099
-0.0544107 0.0019338242 0.19865763
-0.054670461 -0.0010445549 0.20063193
-0.050973225 0.027733397 0.18252409
-0.05150269 0.02600096 0.18313438
-0.051706776 0.023957508 0.18393919
-0.052089881 0.021817107 0.18519264
-0.052145366 0.018520128 0.18756805
-0.051955193 0.014333579 0.19011538
-0.052333347 0.010866228 0.19204524
-0.052594155 0.0077183805 0.19446366
-0.052550927 0.0039478322 0.1959527
-0.052284025 0.00011159045 0.1981456
-0.053148579 -0.0025119707 0.20050775
-0.054125067 -0.0040328 0.20323054
-0.054086797 -0.0052441251 0.20534106
-0.053931583 -0.0062941201 0.20615371
-0.048504345 0.028898282 0.18161333
-0.048815344 0.026640432 0.1820665
-0.049213402 0.024346799 0.1829399
-0.049717244 0.022125857 0.18429329
-0.050175019 0.019031979 0.18633786
-0.049140695 0.013048573 0.18911301
-0.049440406 0.0092931362 0.19147223
-0.049705215 0.0058418135 0.19328558
-0.050682608 0.00079866318 0.19486082
-0.050902758 -0.0025603105 0.19720283
-0.050814997 -0.0045768283 0.19899763
-0.051086389 -0.0053631752 0.20143309
-0.051486302 -0.0054834988 0.20476717
-0.052104507 -0.0067700953 0.20729135
-0.052437525 -0.0087587927 0.21016277
-0.051862001 -0.011838982 0.21386656
-0.045333572 0.032345433 0.18049987
-0.045702424 0.03024504 0.18134744
-0.046121269 0.027442988 0.18196441
-0.046687998 0.024982477 0.18276453
-0.047306314 0.022424458 0.18408184
-0.047916107 0.019270562 0.18556567
-0.047380917 0.013674022 0.18780397
-0.047749892 0.0078843264 0.19098042
-0.048231941 0.003349564 0.19233923
-0.049837332 -0.0024954623 0.19448221
-0.05030838 -0.0067924699 0.19602254
-0.049783919 -0.0075545916 0.1976935
-0.048708703 -0.0058190357 0.19994305
-0.048262909 -0.0057920208 0.20451197
-0.048605975 -0.0070489468 0.2077561
-0.049278613 -0.009699353 0.21056251
-0.050003264 -0.012571321 0.21330303
-0.051020339 -0.014847795 0.21724665
-0.042864915 0.034270443 0.17974487
-0.0433104 0.031082833 0.18143198
-0.043088436 0.028558103 0.18212356
-0.044071477 0.02571645 0.18284565
-0.044547029 0.023239534 0.18373355
-0.044906251 0.020127028 0.18493462
-0.045317832 0.015392197 0.18669949
-0.046554424 0.0068828347 0.19042544
-0.047590591 0.00093138707 0.19124691
-0.048663128 -0.005972079 0.19325957
-0.048059307 -0.0088128783 0.19504766
-0.046685047 -0.0080168676 0.19762754
-0.045762844 -0.0060285325 0.19958726
-0.045241591 -0.0061527174 0.20416021
-0.045197826 -0.0076144314 0.2078165
-0.045588113 -0.010043541 0.21076193
-0.046894696 -0.01285331 0.21353002
-0.04869153 -0.015262947 0.21759804
-0.049038187 -0.018492753 0.2210899
-0.048556197 -0.021038698 0.22294255
-0.038978647 0.03920044 0.17755848
-0.039773747 0.036603156 0.17966981
-0.038788147 0.034010015 0.18188995
-0.039892029 0.031311974 0.18265249
-0.040437866 0.028233614 0.18314084
-0.041266948 0.024255106 0.18362395
-0.041290466 0.020951506 0.18456019
-0.042918429 0.015610578 0.1865546
-0.045215018 0.0067046471 0.18931794
-0.045427643 0.0011030369 0.18925373
-0.046350632 -0.0072396956 0.19172888
-0.044428654 -0.0088974619 0.19484977
-0.043192212 -0.0073719849 0.19764239
-0.042977814 -0.00624537 0.19867742
-0.042354442 -0.0067487974 0.20260751
-0.042786665 -0.0086495057 0.20576501
-0.044073313 -0.010618769 0.20831113
-0.045648322 -0.012147852 0.21106531
-0.045367781 -0.015462756 0.21629724
-0.045239784 -0.018706296 0.21994898
-0.046096072 -0.021955153 0.22291175
-0.045362655 -0.024276467 0.22419868
-0.036196269 0.040345553 0.17704342
-0.035980385 0.038851835 0.1791355
-0.036215939 0.0353899 0.18167935
-0.03695954 0.032795999 0.18300298
-0.036603164 0.030369943 0.18385664
-0.036243603 0.026542019 0.18478002
-0.036409076 0.023344055 0.18504684
-0.040204294 0.016630262 0.18632917
-0.043504812 0.0080726631 0.18812217
-0.042357903 0.0025272756 0.18725264
-0.042198949 -0.0083525246 0.19079463
-0.040886898 -0.0096912514 0.19430229
-0.040413309 -0.0076906849 0.19530717
-0.039930142 -0.0064786845 0.19766684
-0.040050078 -0.0074905069 0.20102987
-0.040698186 -0.0091134468 0.20357147
-0.04203146 -0.010740217 0.20739818
-0.043863915 -0.012642936 0.2106615
-0.042319164 -0.015621509 0.2153538
-0.041697383 -0.01877838 0.21916813
-0.042170178 -0.021924434 0.22218415
-0.042365767 -0.024565877 0.22400546
-0.032977991 0.040978357 0.17725581
-0.032954492 0.039554738 0.17915352
-0.033511817 0.035749275 0.18218289
-0.033795919 0.032638505 0.18371822
-0.033266325 0.030634778 0.18470766
-0.032923721 0.027446285 0.18558867
-0.033426393 0.023353681 0.18577419
-0.034500062 0.019773776 0.18587726
-0.041110732 0.010688981 0.18699192
-0.039380971 0.0045661149 0.18662973
-0.037777975 0.00092656736 0.18654829
-0.03725066 -0.0067356345 0.18943527
-0.036951322 -0.006347666 0.19379547
-0.03696882 -0.0051024812 0.1974362
-0.037027553 -0.0062673623 0.20151483
-0.037702661 -0.0084997313 0.20437102
-0.039172806 -0.010561975 0.20832862
-0.040626679 -0.012991613 0.21189754
-0.039284837 -0.015888203 0.21560276
-0.038414259 -0.018819196 0.21948884
-0.03919081 -0.022021655 0.22189932
-0.038857359 -0.024189753 0.22363056
-0.030163961 0.041431148 0.17784685
-0.029954394 0.039907172 0.17968388
-0.030355059 0.036198877 0.18239506
-0.030390441 0.033182796 0.18391256
-0.02984082 0.031074833 0.18497644
-0.030217906 0.027916161 0.18645532
-0.030521801 0.024282947 0.18680686
-0.030434877 0.021617174 0.18700093
-0.035168167 0.014991158 0.18648078
-0.035772558 0.0067522349 0.18686466
-0.03262696 0.004226381 0.1883895
-0.032301575 0.00077543082 0.19072013
-0.033102706 -0.0026013374 0.19332629
-0.033591829 -0.0032841514 0.19581306
-0.034288764 -0.0056839813 0.20351505
-0.034795687 -0.007638644 0.20588408
-0.036331639 -0.010289332 0.20974098
-0.037160296 -0.013242002 0.213396
-0.035340045 -0.016000785 0.2169389
-0.035083633 -0.018318556 0.22149223
-0.035179727 -0.020776 0.22328088
-0.035719268 -0.024003826 0.22495106
-0.035560202 -0.025846016 0.22733203
-0.027064618 0.041970227 0.17867082
-0.026854439 0.040478099 0.18020447
-0.026384735 0.037864428 0.18212403
-0.026881596 0.03410833 0.18363139
-0.026795125 0.031439487 0.18537445
-0.02726108 0.028387409 0.1873855
-0.027835118 0.025113206 0.18809566
-0.028269012 0.022012275 0.18811567
-0.029813536 0.017394165 0.18805896
-0.031538483 0.0097481692 0.18796821
-0.027510222 0.0058666854 0.19156159
-0.027175613 0.0030540198 0.19482064
-0.027000535 0.00065270613 0.19924036
-0.02812474 -0.0022857338 0.20465267
-0.030122496 -0.004665025 0.20758361
-0.031851776 -0.0073099216 0.20968254
-0.033372909 -0.010439812 0.21296923
-0.032662552 -0.013937881 0.21755312
-0.032104917 -0.016617531 0.22068475
-0.032535817 -0.018739393 0.22315654
-0.032581814 -0.021193055 0.22488369
-0.032880686 -0.023944359 0.2264279
-0.032821193 -0.025336832 0.22875109
-0.024923792 0.042750213 0.17893314
-0.023552928 0.041285876 0.18092418
-0.022567816 0.039190914 0.18234904
-0.022525569 0.035654958 0.18399528
-0.023107862 0.03193051 0.18621153
-0.023638155 0.029232087 0.18848366
-0.025053788 0.025756456 0.18924154
-0.026073677 0.022123788 0.18958421
-0.026200728 0.018328873 0.19065115
-0.025412381 0.014348478 0.19185419
-0.024009086 0.0089319954 0.19447465
-0.023733526 0.0050900537 0.19782121
-0.024246428 0.0021242481 0.20192108
-0.025429428 -0.001779294 0.20698202
-0.026809132 -0.0046646078 0.21070096
-0.027983278 -0.0075667766 0.21408868
-0.028836561 -0.01106024 0.21807037
-0.028865764 -0.014725188 0.22191741
-0.02973992 -0.017844019 0.22416107
-0.030693835 -0.019678386 0.22511886
-0.030160986 -0.021476364 0.22576539
-0.029661546 -0.023317575 0.2272567
-0.029590286 -0.025299793 0.22979812
-0.019384548 0.041798923 0.18199633
-0.019387808 0.039057974 0.18362981
-0.018078197 0.035851192 0.18526645
-0.018648447 0.032651942 0.18726109
-0.019240685 0.029948182 0.18960395
-0.020095987 0.026848653 0.19140995
-0.023144335 0.022212867 0.191989
-0.023511298 0.018917209 0.19258855
-0.023135312 0.01597376 0.1939916
-0.022364514 0.012054438 0.19560954
-0.021525027 0.0077283774 0.19882405
-0.021739628 0.0034741396 0.20492949
-0.02231776 -0.0014378522 0.20984572
-0.022984952 -0.0059069162 0.21486501
-0.023817858 -0.0089667756 0.21816124
-0.024494251 -0.012180636 0.22198381
-0.025679503 -0.015025873 0.22462013
-0.026663141 -0.017679866 0.22659141
-0.0281252 -0.019900214 0.22728069
-0.02726643 -0.021534843 0.22660504
-0.026646692 -0.023471557 0.22736436
-0.026483176 -0.025580242 0.23020779
-0.015715554 0.039312899 0.18463951
-0.014831845 0.036477048 0.18639748
-0.015057873 0.033598762 0.18842155
-0.015295408 0.030942662 0.19048861
-0.014527174 0.028078075 0.19270521
-0.014289309 0.024350373 0.19515628
-0.020423058 0.020032821 0.19462547
-0.020391008 0.016818436 0.19641881
-0.019385636 0.013004354 0.1982664
-0.018524762 0.0092728185 0.20273761
-0.018885462 0.0050763017 0.2074995
-0.019177945 -0.00078003143 0.21236092
-0.0196124 -0.0064569595 0.21795708
-0.019950863 -0.01010065 0.22145879
-0.019928306 -0.013413209 0.2248638
-0.021992141 -0.01519858 0.22635502
-0.023632003 -0.017154174 0.22850217
-0.024511574 -0.018957634 0.22868583
-0.024368536 -0.020666698 0.22799037
-0.023630138 -0.023044711 0.22870897
-0.023750909 -0.026020983 0.23185557
-0.01199466 0.036993552 0.18747148
-0.011578584 0.034402065 0.18926282
-0.011360162 0.031855755 0.19122316
-0.010681222 0.028829973 0.19318801
-0.0091694444 0.025162283 0.19721045
-0.01141336 0.019951088 0.19981256
-0.015308467 0.016113931 0.20023188
-0.015093728 0.012676547 0.20242465
-0.015466614 0.0099517796 0.20549788
-0.016028021 0.0064535169 0.20850638
-0.016309148 6.0359875e-05 0.21415035
-0.016114092 -0.0067913444 0.22014344
-0.015646387 -0.01004167 0.2230465
-0.015239709 -0.013022145 0.22561719
-0.015835255 -0.01526195 0.22688217
-0.01903023 -0.016437875 0.22723737
-0.020515854 -0.018214248 0.22782692
-0.020879295 -0.020511966 0.22835919
-0.021041978 -0.023228217 0.2301776
-0.02072129 -0.025937332 0.23338562
-0.009033951 0.034715518 0.19014682
-0.0077877175 0.032330841 0.19241072
-0.0064635635 0.029250409 0.19556776
-0.0057793469 0.025223 0.19986245
-0.0072939601 0.019842589 0.20288211
-0.010070533 0.015762499 0.20385648
-0.011279655 0.012735449 0.20559818
-0.012010962 0.010111559 0.20728105
-0.012753806 0.0069744964 0.20931493
-0.013543447 0.0016620293 0.21431752
-0.012073984 -0.0060168658 0.22097903
-0.011445265 -0.009309005 0.2235949
-0.01130146 -0.01237935 0.22564054
-0.011609232 -0.014661579 0.22709784
-0.013485009 -0.016212681 0.22747765
-0.015354969 -0.017968671 0.22884752
-0.016600806 -0.020686153 0.23014206
-0.017655363 -0.024864219 0.23369165
-0.0034583209 0.031274892 0.19688475
-0.0031374395 0.028157676 0.20003985
-0.0038524924 0.023868456 0.20338909
-0.0049235998 0.020966155 0.20469022
-0.0065920977 0.016074529 0.20609587
-0.0075996602 0.012739389 0.20770778
-0.0081571639 0.0097800307 0.20922257
-0.0087198839 0.0066415197 0.21175647
-0.010637973 0.0030735943 0.21447426
-0.0081402613 -0.0049874629 0.22164904
-0.0076520271 -0.0087607615 0.22444086
-0.00769524 -0.012003656 0.22548172
-0.0083558122 -0.014585155 0.22726586
-0.0090237418 -0.016733859 0.22849208
-0.010589212 -0.019019343 0.23052108
-0.013058254 -0.021432724 0.23205277
-0.015281181 -0.024028225 0.23373286
-0.00042639006 0.026513204 0.20252502
-0.00091282115 0.023287363 0.2047928
-0.00022179486 0.020297488 0.2065004
-0.0021077853 0.017229062 0.20764263
-0.0032008747 0.012466726 0.20933296
-0.0032127693 0.0091502387 0.21185552
-0.0034571975 0.0062277624 0.21438606
-0.0041451533 -0.003351493 0.22178254
-0.003902718 -0.0083127413 0.22455209
-0.0042318008 -0.012013935 0.22556598
-0.0048783193 -0.014822548 0.22728129
-0.005925532 -0.017079679 0.2286859
-0.0074159605 -0.019137731 0.23089382
0.0017921033 0.025018623 0.20343414
0.0018304178 0.022709256 0.20474565
0.0021897547 0.020059964 0.20599115
0.0020905039 0.01668926 0.20786768
0.0013681741 0.012540694 0.21045421
0.00095386483 0.0092451219 0.21305338
0.00066369679 0.0065395352 0.2154313
-0.00010417953 0.0036460445 0.21795176
-0.00014416745 -0.0010622311 0.2209678
-0.00083751226 -0.0067521841 0.22344343
-0.0015441264 -0.011556109 0.22560154
0.0041137449 0.021897506 0.2046027
0.0056379605 0.019586911 0.20566325
0.0052139848 0.016118705 0.20835467
0.0043546096 0.01283568 0.21092565
0.0039233915 0.0098851901 0.21329966
0.0034820631 0.0077543519 0.21547242
0 0 0 1 0 0 0 1 0 0 0 1 0 0 0 0 0 348 1 0 0
