ply
format ascii 1.0
comment PCL generated
element vertex 348
property float x
property float y
property float z
element camera 1
property float view_px
property float view_py
property float view_pz
property float x_axisx
property float x_axisy
property float x_axisz
property float y_axisx
property float y_axisy
property float y_axisz
property float z_axisx
property float z_axisy
property float z_axisz
property float focal
property float scalex
property float scaley
property float centerx
property float centery
property int viewportx
property int viewporty
property float k1
property float k2
end_header
-0.056670409 0.02384449 0.18864414
-0.057191771 0.021321476 0.1900367
-0.057657361 0.018203327 0.19179507
-0.057939351 0.015197854 0.19362503
-0.058115028 0.01231777 0.19546601
-0.05809591 0.0096269799 0.19717632
-0.05775274 0.0069720424 0.19877841
-0.053451352 0.025534101 0.1846737
-0.054285105 0.02441046 0.18563393
-0.05432038 0.021797156 0.18712066
-0.054623682 0.018571828 0.18898299
-0.054904234 0.015038008 0.19093247
-0.055426739 0.011841414 0.19293708
-0.056005139 0.0088962112 0.19549808
-0.055848949 0.0058063804 0.19774093
-0.054405872 0.0019259769 0.19839308
-0.054594345 -0.00099588337 0.20044993
-0.050656609 0.028007908 0.18245155
-0.051169861 0.02635243 0.18325457
-0.051333632 0.024347177 0.18412538
-0.051680088 0.0221786 0.18534729
-0.051792093 0.018744413 0.18728057
-0.051626641 0.014434284 0.18958765
-0.052010085 0.010941992 0.19147697
-0.052417807 0.0078806523 0.19422008
-0.052554369 0.0039744121 0.19560671
-0.052320004 8.2498351e-05 0.1978467
-0.053076897 -0.0024649161 0.20031114
-0.053971905 -0.0039258827 0.20309642
-0.053884886 -0.0050956937 0.20523311
-0.053722363 -0.0059882919 0.20616436
-0.04820516 0.029061593 0.18136364
-0.048533004 0.026935177 0.18205994
-0.04888906 0.024729865 0.18308845
-0.049318496 0.022506455 0.18447843
-0.049685631 0.019326182 0.18634221
-0.048808284 0.013169856 0.18851571
-0.0491644 0.0093771778 0.19083557
-0.049615707 0.0059837163 0.19294596
-0.050874125 0.00072823942 0.1944913
-0.050972376 -0.0026041681 0.19691181
-0.050798271 -0.0045688651 0.19876632
-0.050981201 -0.0052980068 0.2012497
-0.051275544 -0.0053307326 0.20462413
-0.051854458 -0.0063594528 0.20730643
-0.052179042 -0.0081561487 0.21032754
-0.051066209 -0.010826768 0.2140848
-0.044996448 0.032338884 0.1799776
-0.04538488 0.030262411 0.18082429
-0.045828089 0.027642163 0.1817324
-0.04636316 0.02530608 0.18275958
-0.046910532 0.022761559 0.18409094
-0.047416858 0.019541459 0.18547362
-0.04699599 0.013825534 0.18710847
-0.047623288 0.0081105093 0.19061799
-0.048310813 0.0034924659 0.19189456
-0.050024901 -0.0025396023 0.19413567
-0.050369527 -0.0067914608 0.19574794
-0.049802281 -0.0075375168 0.19743064
-0.048644625 -0.0058015883 0.19969365
-0.048055809 -0.0056764833 0.20430031
-0.048320044 -0.0067270002 0.20763297
-0.048565965 -0.00905196 0.21054326
-0.049301267 -0.011713066 0.21346265
-0.050289791 -0.013992657 0.21734767
-0.042498045 0.034225173 0.17922226
-0.042945497 0.031020951 0.18079649
-0.042772688 0.028575923 0.18158922
-0.043732706 0.025967622 0.18264376
-0.044162594 0.023497129 0.18352915
-0.044481315 0.02033535 0.18456736
-0.04489255 0.015590177 0.18586329
-0.046492212 0.0071582454 0.18995513
-0.047808882 0.0011209201 0.19073625
-0.048811276 -0.0059591956 0.19292225
-0.048163783 -0.0087939147 0.19472834
-0.046719044 -0.0080228914 0.1972753
-0.045696158 -0.0060448539 0.19923918
-0.045049917 -0.0061140032 0.20387051
-0.044929419 -0.0073972428 0.20760982
-0.044757035 -0.0095002474 0.21057346
-0.046111289 -0.012040684 0.21337672
-0.048043787 -0.014670382 0.21745794
-0.048374038 -0.01795256 0.22079296
-0.047896005 -0.020528588 0.22258654
-0.038839035 0.039301168 0.17730689
-0.039368849 0.036474481 0.17909165
-0.038259372 0.033577226 0.18063551
-0.039408721 0.030946251 0.1814875
-0.040017795 0.028049141 0.18220434
-0.040863547 0.024352631 0.18310119
-0.040907267 0.021042846 0.18377788
-0.042524971 0.015742889 0.18547013
-0.045213342 0.0070119058 0.18872127
-0.045772437 0.0014526994 0.18851414
-0.04653769 -0.0072178384 0.19134252
-0.044565983 -0.008938225 0.19442667
-0.043220162 -0.0074649067 0.19720425
-0.042935874 -0.0063647791 0.19825853
-0.042206526 -0.0068971035 0.20220652
-0.042643078 -0.0086214039 0.20550898
-0.04348921 -0.010351806 0.20807257
-0.044930775 -0.01153512 0.21100727
-0.044828843 -0.014994397 0.21583112
-0.044702906 -0.018353762 0.21938191
-0.04548474 -0.02153638 0.22236726
-0.044736907 -0.023839479 0.22364809
-0.036197186 0.040653978 0.17707163
-0.035893902 0.038884975 0.17887911
-0.03586204 0.034937914 0.1804454
-0.036511388 0.032255981 0.1814646
-0.036173694 0.029883021 0.18237026
-0.035923917 0.026253598 0.18367468
-0.036147669 0.023149895 0.18405674
-0.039918493 0.016596174 0.18513496
-0.043508567 0.0083995555 0.18741867
-0.042766523 0.0029585399 0.18626656
-0.042458232 -0.0083218971 0.19023058
-0.041056547 -0.0097430628 0.19366214
-0.040524483 -0.0077608968 0.194665
-0.039928675 -0.006687168 0.19710048
-0.039986134 -0.0078150919 0.20054944
-0.040661573 -0.0093272347 0.20317504
-0.041570209 -0.010807023 0.20688285
-0.043232657 -0.012294097 0.21047765
-0.041894682 -0.015419994 0.21472143
-0.041278657 -0.018606894 0.21826452
-0.041626398 -0.02163629 0.22134398
-0.041740693 -0.024191942 0.22324476
-0.033041157 0.041402373 0.17745033
-0.032934166 0.039707389 0.17906001
-0.033283394 0.035362355 0.18116802
-0.033481978 0.032144718 0.18236569
-0.032912765 0.030155079 0.18332569
-0.032620955 0.027162122 0.18441457
-0.03323428 0.023139823 0.18476881
-0.034259465 0.019538708 0.1847432
-0.041024573 0.010953443 0.18612859
-0.039589938 0.0048636436 0.18561234
-0.03811219 0.0012205096 0.18546756
-0.037574116 -0.006591131 0.18859325
-0.037112575 -0.0063796127 0.19303429
-0.036933534 -0.0053667352 0.19676144
-0.036852248 -0.006822844 0.20086525
-0.037589911 -0.0089698313 0.20381011
-0.038648788 -0.011087825 0.20740128
-0.040064212 -0.013185916 0.21133025
-0.039031647 -0.015950678 0.21455818
-0.038012084 -0.018838884 0.21818715
-0.038661547 -0.021912508 0.22077356
-0.038261473 -0.023922054 0.22263217
-0.030211193 0.041774571 0.1779547
-0.029948017 0.040013481 0.17952915
-0.030216675 0.03595569 0.18167093
-0.030228978 0.032860253 0.1830523
-0.029689347 0.030724138 0.18409893
-0.029994687 0.027536627 0.1853493
-0.03033448 0.024027845 0.18581527
-0.030215843 0.021348137 0.18597825
-0.034821644 0.0149338 0.18512703
-0.035622604 0.0070200441 0.18528645
-0.032721378 0.0044599483 0.18760538
-0.032459732 0.00099259417 0.18999049
-0.033260021 -0.0025767514 0.19255641
-0.033621099 -0.0034904289 0.19505136
-0.033969291 -0.0064719827 0.20269452
-0.034519315 -0.0083156852 0.20515911
-0.035616949 -0.011297592 0.20844515
-0.036580909 -0.013964872 0.21220878
-0.035045389 -0.016314324 0.21533392
-0.034500618 -0.018430391 0.21965292
-0.034505852 -0.020802967 0.22155537
-0.035019882 -0.023749422 0.22362822
-0.034713678 -0.02522701 0.22616903
-0.027093522 0.042131893 0.17858338
-0.026836017 0.040449489 0.17985334
-0.026344348 0.037668191 0.18151163
-0.026859974 0.033986803 0.18314284
-0.026730342 0.031198746 0.18467538
-0.027078681 0.027952706 0.18631235
-0.027627921 0.024754578 0.18697342
-0.028048661 0.021715505 0.1870473
-0.029511193 0.017124446 0.18699244
-0.031231845 0.0099218981 0.18661024
-0.027493447 0.006088906 0.19048189
-0.02737033 0.0031913079 0.1943517
-0.026811596 0.00043948827 0.19852246
-0.027691543 -0.0029062221 0.20373051
-0.029629013 -0.0053843581 0.20663342
-0.030783977 -0.0085094124 0.20804594
-0.03229434 -0.011495559 0.21144685
-0.031897243 -0.01432309 0.21577592
-0.031521607 -0.016703241 0.21845621
-0.031802222 -0.018804368 0.22093681
-0.031797674 -0.021139087 0.2227914
-0.032078132 -0.023636606 0.22470146
-0.031885687 -0.02470479 0.22714616
-0.024932176 0.042803563 0.17872642
-0.023494592 0.041092969 0.18037048
-0.022520151 0.038916919 0.18167949
-0.022579663 0.035503402 0.18349978
-0.023158375 0.03179634 0.1856533
-0.023594946 0.028860211 0.18757136
-0.024874246 0.025360353 0.18811546
-0.02585924 0.021831324 0.18855807
-0.025903085 0.018147456 0.18968029
-0.025013095 0.014331396 0.19086494
-0.023733281 0.0089470921 0.19339854
-0.023274165 0.0048453491 0.1964571
-0.023430634 0.0014961831 0.20024793
-0.024458179 -0.0025752215 0.20527516
-0.025758089 -0.0054796734 0.20899764
-0.026871502 -0.0083222957 0.2123581
-0.02780393 -0.011468958 0.21627803
-0.028062228 -0.014587987 0.21985558
-0.028914263 -0.017717022 0.22164273
-0.029845228 -0.019627703 0.22266367
-0.029326208 -0.021381168 0.22338009
-0.028810525 -0.023052594 0.22506361
-0.028675895 -0.024779491 0.227845
-0.019453557 0.041626297 0.18160298
-0.019521495 0.038909379 0.18325724
-0.018431643 0.035973921 0.18517108
-0.018989854 0.032807335 0.18704654
-0.019569127 0.02994014 0.1891468
-0.020328574 0.026726922 0.19070797
-0.022947811 0.022005051 0.19103266
-0.023237603 0.018850623 0.19172175
-0.022806687 0.015910573 0.19309078
-0.021960456 0.011982721 0.19454941
-0.020999484 0.0074417898 0.19748506
-0.020756958 0.002699127 0.2031633
-0.021252861 -0.002129714 0.20806533
-0.022006869 -0.0061674831 0.21335389
-0.022905437 -0.0090518631 0.21659759
-0.023685478 -0.012037314 0.22025332
-0.024849184 -0.014864157 0.22233967
-0.025727509 -0.017597459 0.22388284
-0.027144883 -0.019783575 0.22460435
-0.026385609 -0.021432929 0.22397925
-0.025822045 -0.023275385 0.22497632
-0.025674261 -0.025080204 0.22819322
-0.016158259 0.039419468 0.18473788
-0.015354368 0.036644243 0.18646578
-0.015602364 0.033775724 0.18833071
-0.015851287 0.031077838 0.19022687
-0.015147659 0.028171111 0.19225834
-0.014986491 0.024396529 0.19452214
-0.020235876 0.020011324 0.19391724
-0.020076768 0.016714666 0.19559644
-0.018919494 0.012813329 0.19718851
-0.017828939 0.0086824959 0.20134856
-0.01790408 0.0042739343 0.20575243
-0.018085651 -0.0013260688 0.21064994
-0.018716328 -0.0064102863 0.21657124
-0.01910913 -0.0099000949 0.2199741
-0.019188879 -0.013113612 0.22316654
-0.021192875 -0.015039893 0.22406746
-0.022675062 -0.017137842 0.22568789
-0.023568405 -0.018896874 0.2258279
-0.023473375 -0.020571949 0.2252024
-0.022825362 -0.022814717 0.2261996
-0.022998044 -0.025532054 0.22979775
-0.012535411 0.037118215 0.18756393
-0.012176391 0.034532212 0.18912168
-0.011993736 0.031952668 0.19086576
-0.011412104 0.028900338 0.19258924
-0.010143621 0.025157757 0.19634907
-0.012066421 0.019808775 0.19903079
-0.015213446 0.015929997 0.19949488
-0.014725272 0.012330209 0.20148133
-0.015014881 0.0093920687 0.2043636
-0.015396197 0.0058224918 0.20717652
-0.01533081 -0.00032845064 0.21257329
-0.015222804 -0.0066271042 0.2187418
-0.01482441 -0.0097923754 0.22161181
-0.014548633 -0.012703293 0.22425538
-0.015222124 -0.015020772 0.22542146
-0.018360002 -0.01634993 0.22520743
-0.019739501 -0.018211482 0.22540784
-0.020106234 -0.020473886 0.22583368
-0.02029562 -0.023043903 0.22780713
-0.0200286 -0.025548574 0.23123963
-0.0096330242 0.034788284 0.18990381
-0.0084543731 0.032311901 0.19177851
-0.0072805407 0.02910001 0.19456573
-0.0067686718 0.024927946 0.1985144
-0.0081338519 0.019649023 0.20180732
-0.010539295 0.01566851 0.2032432
-0.011439344 0.012597579 0.20504183
-0.011985788 0.0098890485 0.20667204
-0.012522275 0.0067010499 0.20855346
-0.012828005 0.0014239147 0.21304519
-0.011204362 -0.0058472818 0.21964779
-0.010675738 -0.0090273647 0.22239637
-0.010625917 -0.012001451 0.22458585
-0.01102951 -0.014268878 0.22606389
-0.012890753 -0.015926534 0.22623873
-0.014806654 -0.017891856 0.22722115
-0.016040677 -0.020751251 0.22818311
-0.017136583 -0.024678882 0.231609
-0.0041134623 0.030836182 0.1954997
-0.0038169178 0.027558463 0.19827105
-0.0044827084 0.023238251 0.20135096
-0.0055191373 0.020564668 0.20302087
-0.0070751328 0.016003795 0.20516305
-0.0079604937 0.012838334 0.20715711
-0.008415075 0.0099262251 0.20884851
-0.0087771658 0.006793465 0.21139765
-0.01023344 0.0030201634 0.21363856
-0.0073135113 -0.0048097679 0.2203626
-0.0069216299 -0.0084159989 0.22339083
-0.0070506125 -0.011574107 0.22463043
-0.0078091281 -0.014094952 0.22649425
-0.0085366974 -0.016250836 0.22770506
-0.010211947 -0.018640906 0.229507
-0.012674866 -0.021341985 0.23049556
-0.014859064 -0.023935709 0.23181419
-0.00097272306 0.02563573 0.20018572
-0.0014445973 0.022353115 0.20217806
-0.00083569821 0.019374343 0.20380475
-0.0025958738 0.016732546 0.20570596
-0.0035523095 0.012442896 0.20827989
-0.0034631814 0.0092454646 0.21096757
-0.0035489632 0.0063447794 0.21351285
-0.0034084215 -0.0032255864 0.22047536
-0.0032198054 -0.0079202307 0.22365485
-0.0035897754 -0.011528353 0.22495775
-0.0043585789 -0.014233925 0.22678186
-0.0054781241 -0.016472755 0.22818373
-0.0071034669 -0.018541934 0.23030543
0.0012100964 0.023988348 0.20079356
0.001164247 0.021648649 0.20192474
0.0014255795 0.019123988 0.20324829
0.0014383745 0.016217235 0.20580958
0.0010142842 0.012298068 0.2089199
0.00075957063 0.0091072852 0.21166274
0.00064591749 0.0064498917 0.21406487
3.7385256e-05 0.0035934509 0.21665925
0.0003497531 -0.0011141789 0.21952787
-0.00015712132 -0.0064553986 0.22253188
-0.00094449712 -0.010990092 0.22511767
0.0033408292 0.02081459 0.20170601
0.0047955182 0.018843325 0.20306984
0.0045912969 0.015802694 0.20634566
0.0040163314 0.012529243 0.20914198
0.0037517587 0.009647415 0.21162033
0.0034870554 0.0075371428 0.21379809
0 0 0 1 0 0 0 1 0 0 0 1 0 0 0 0 0 348 1 0 0
