ply
format ascii 1.0
comment PCL generated
element vertex 348
property float x
property float y
property float z
element camera 1
property float view_px
property float view_py
property float view_pz
property float x_axisx
property float x_axisy
property float x_axisz
property float y_axisx
property float y_axisy
property float y_axisz
property float z_axisx
property float z_axisy
property float z_axisz
property float focal
property float scalex
property float scaley
property float centerx
property float centery
property int viewportx
property int viewporty
property float k1
property float k2
end_header
-0.057026532 0.023661105 0.1884131
-0.057289194 0.021218337 0.19007249
-0.057698734 0.018102873 0.19178215
-0.057970628 0.015126711 0.19353673
-0.05816051 0.012297003 0.19532141
-0.058172919 0.00966164 0.1969963
-0.057852518 0.0070353029 0.19858028
-0.05361988 0.025460342 0.18463205
-0.054476287 0.024374349 0.18561003
-0.054458685 0.021746611 0.18710156
-0.054720115 0.018505851 0.1889341
-0.054982595 0.015022475 0.19080238
-0.055512682 0.011848073 0.19273928
-0.056116231 0.0089485906 0.19525528
-0.056253694 0.0057102568 0.19712579
-0.055109773 0.0016571897 0.19768704
-0.054978829 -0.0010617005 0.20003119
-0.050786898 0.02783012 0.18223521
-0.051297706 0.026204774 0.18313564
-0.051436245 0.024243388 0.18405809
-0.051756281 0.022112323 0.18532066
-0.051860232 0.01871508 0.18718459
-0.051738147 0.014475969 0.18934913
-0.052149065 0.01102952 0.19115068
-0.052733909 0.0079425955 0.19363202
-0.053306777 0.0037650915 0.19475415
-0.053022683 -0.00013648924 0.19712408
-0.053388298 -0.0024553016 0.19991767
-0.054031294 -0.0037270051 0.20288484
-0.053774811 -0.0047268495 0.20512584
-0.053438343 -0.0051068077 0.2064594
-0.048324168 0.028858077 0.181154
-0.048661295 0.026775766 0.18188892
-0.048987474 0.024620799 0.18297783
-0.04936241 0.022410458 0.18440722
-0.049607422 0.019216472 0.18629816
-0.048960082 0.013268065 0.18812676
-0.04936038 0.009513421 0.19034126
-0.050079193 0.006060441 0.19216399
-0.051970292 0.00033252154 0.19356132
-0.051593769 -0.0028173116 0.19629756
-0.051110305 -0.0045793653 0.19837454
-0.051072154 -0.0050896332 0.20099382
-0.051155549 -0.0048202458 0.20449169
-0.051416516 -0.0051356186 0.20765413
-0.051491957 -0.0064507821 0.21099544
-0.050773762 -0.009455367 0.21467166
-0.045117375 0.032110523 0.17979147
-0.045501765 0.030050296 0.18059118
-0.045965806 0.027486037 0.18153089
-0.046469275 0.025216855 0.18259607
-0.046957616 0.022688605 0.18395372
-0.047330771 0.019459009 0.18534808
-0.046996024 0.013921429 0.18676485
-0.047871705 0.0083760386 0.18990634
-0.049100466 0.0036000772 0.19084463
-0.050934929 -0.0028450342 0.19334556
-0.050744526 -0.0069166473 0.19529133
-0.050059598 -0.0075163092 0.19701883
-0.048810422 -0.0056119957 0.19930622
-0.047930218 -0.0050466107 0.20407848
-0.047890756 -0.0055717849 0.20765661
-0.048393082 -0.007948624 0.21086645
-0.049067933 -0.010454745 0.21402945
-0.049999125 -0.013052458 0.21791641
-0.042636205 0.034031179 0.17913398
-0.04307596 0.030843966 0.18063943
-0.0429153 0.028421411 0.18140104
-0.043861393 0.02588525 0.18242924
-0.044226665 0.023444856 0.18331689
-0.044443261 0.020309733 0.18431173
-0.044788383 0.015692469 0.18547775
-0.046829641 0.0076402351 0.18902853
-0.048905652 0.0011763611 0.18955183
-0.049419384 -0.0061108964 0.19228983
-0.048514307 -0.0087890411 0.19424231
-0.046990123 -0.0078812754 0.19669466
-0.045880165 -0.0057542142 0.19864999
-0.044945922 -0.0054711206 0.20351054
-0.044499841 -0.0062846798 0.20746136
-0.044455629 -0.0082766162 0.21080896
-0.045799956 -0.010846186 0.21375735
-0.04783437 -0.014070015 0.21782741
-0.048183277 -0.017705662 0.22076832
-0.047734473 -0.020469306 0.22231491
-0.039021436 0.039283231 0.1773044
-0.039510392 0.036360044 0.1790785
-0.03835658 0.033417147 0.18059757
-0.039498806 0.030798698 0.18141243
-0.040066596 0.027969318 0.18206599
-0.040911827 0.024352696 0.1828416
-0.040916644 0.021061301 0.18339069
-0.04246974 0.015935676 0.18493442
-0.045608222 0.0075946823 0.18760933
-0.046977393 0.0020855372 0.18689485
-0.047128882 -0.007287364 0.19066502
-0.044964854 -0.0088761812 0.19376901
-0.043494619 -0.0072682761 0.19650361
-0.043144744 -0.0060975202 0.19760855
-0.04222608 -0.0063859215 0.20170708
-0.042468816 -0.0077574849 0.2053277
-0.043383665 -0.0091974288 0.20828865
-0.044722933 -0.01028886 0.21141739
-0.044717375 -0.014441937 0.21594034
-0.044633046 -0.018166788 0.21918942
-0.045372579 -0.021565771 0.22193097
-0.044658925 -0.023946766 0.22305851
-0.036396321 0.04071809 0.17696518
-0.036026284 0.038946938 0.17877454
-0.035960492 0.034772746 0.1803803
-0.036598045 0.032124743 0.1814038
-0.036199048 0.02977776 0.18227093
-0.035912786 0.026164023 0.1834919
-0.036168154 0.0230981 0.1837441
-0.039896067 0.016774984 0.18456055
-0.043802451 0.0090338085 0.18625531
-0.043947484 0.0038910846 0.18430023
-0.04301386 -0.0084179705 0.18933995
-0.041437324 -0.0097051188 0.19277395
-0.040862944 -0.0076819621 0.19364616
-0.040147312 -0.0064942613 0.19624528
-0.040123038 -0.0074530914 0.19999489
-0.040798094 -0.008737158 0.20276819
-0.041707613 -0.0097852061 0.2069266
-0.043143164 -0.011169572 0.21072128
-0.041858293 -0.015028814 0.21452935
-0.041242328 -0.018604852 0.21776986
-0.041547786 -0.021739848 0.22074476
-0.041624803 -0.024349391 0.22253057
-0.033233237 0.041517414 0.17727064
-0.033066489 0.039817974 0.17890234
-0.033392224 0.035217583 0.18110469
-0.033558052 0.032018144 0.18234681
-0.03295419 0.03006985 0.18327126
-0.032634877 0.027112626 0.18421726
-0.033308603 0.02304397 0.18437891
-0.034250185 0.01951078 0.18416353
-0.04103465 0.011558502 0.18495421
-0.040190209 0.0055211112 0.18370874
-0.038936954 0.0017984322 0.18323527
-0.038176771 -0.0066139614 0.18714705
-0.03750249 -0.0063532749 0.19179595
-0.037101008 -0.005300459 0.19567823
-0.036883891 -0.0067619695 0.2000284
-0.037676979 -0.0087370547 0.20318474
-0.038853206 -0.010420309 0.20712705
-0.040107768 -0.012608854 0.21111956
-0.039063413 -0.015915919 0.21406841
-0.037903793 -0.019162435 0.2175094
-0.038513716 -0.02222744 0.2200615
-0.038096502 -0.024146346 0.22190771
-0.030377865 0.0418902 0.17779174
-0.030069681 0.040115219 0.17941494
-0.030322198 0.035849411 0.1816462
-0.030358009 0.032750696 0.18307139
-0.029784895 0.030633084 0.18404867
-0.030061981 0.027456982 0.18513298
-0.030400602 0.023960751 0.18541056
-0.030206945 0.021286629 0.18542843
-0.034750961 0.015088192 0.18416415
-0.035829667 0.0073116408 0.1835952
-0.032773908 0.0049159601 0.18586929
-0.032514483 0.0013120555 0.1881225
-0.033454373 -0.0025255776 0.19088304
-0.033824198 -0.0035142191 0.19365494
-0.03384503 -0.0067311311 0.20173085
-0.034397829 -0.0085892277 0.20423914
-0.035835251 -0.01123023 0.20778111
-0.036710836 -0.01400211 0.21149006
-0.035007644 -0.016620375 0.21459731
-0.034316603 -0.018878678 0.21880062
-0.034287479 -0.021216633 0.22068492
-0.03481539 -0.023996638 0.222903
-0.034468058 -0.025259385 0.22552215
-0.027224971 0.042223338 0.17848448
-0.02692759 0.040510871 0.17981632
-0.026416065 0.037628587 0.18153127
-0.027032148 0.033909105 0.18312842
-0.026854223 0.031111358 0.18456769
-0.027149331 0.027832331 0.18606734
-0.027683457 0.024678988 0.18656692
-0.028030034 0.02164948 0.18648882
-0.029354414 0.017046012 0.18614027
-0.031122776 0.010077828 0.18508996
-0.027226744 0.0061151967 0.18899849
-0.026872169 0.0031446156 0.19281912
-0.026208537 0.00029951122 0.19715166
-0.027108129 -0.0033263022 0.20267667
-0.029088529 -0.0060570328 0.2055534
-0.03080472 -0.0089872824 0.20730333
-0.032420501 -0.012044655 0.21061592
-0.031928714 -0.014831691 0.21496251
-0.031403482 -0.017184386 0.21760695
-0.031610928 -0.019335629 0.22006597
-0.031593617 -0.021565488 0.22191669
-0.031848583 -0.023845257 0.22395311
-0.031611986 -0.024686404 0.22642705
-0.02503646 0.042865526 0.17865549
-0.023522807 0.041078404 0.18035159
-0.022519996 0.038840361 0.1816542
-0.022666147 0.035425168 0.18344815
-0.023239957 0.031771168 0.18551369
-0.023624169 0.028783947 0.18733257
-0.02492244 0.025266005 0.18771161
-0.025844611 0.021726938 0.1879501
-0.025704285 0.018088084 0.18879899
-0.024562309 0.014469629 0.18972228
-0.023120217 0.0089914156 0.19206309
-0.022835068 0.0047921753 0.19521829
-0.023141373 0.0013992429 0.199213
-0.024243413 -0.002913597 0.20453854
-0.025622098 -0.0059934659 0.20829515
-0.026768299 -0.0090463916 0.21159035
-0.027704986 -0.01228526 0.21547626
-0.027966857 -0.015276155 0.21905963
-0.028771106 -0.018288231 0.22078268
-0.029663855 -0.020100025 0.22172903
-0.029114602 -0.021762302 0.2225021
-0.028597701 -0.023247417 0.22427198
-0.028455576 -0.024785876 0.22709821
-0.019380363 0.041532632 0.18164329
-0.019433785 0.038818695 0.18325518
-0.018283995 0.03595037 0.18515587
-0.018896203 0.03284036 0.18692279
-0.019509641 0.029941525 0.18890958
-0.020284722 0.026701996 0.19039027
-0.022924829 0.021910302 0.19037022
-0.023016026 0.018902639 0.19083452
-0.022434257 0.016067829 0.19202621
-0.021433182 0.012147688 0.19331662
-0.020467071 0.0074246381 0.1962126
-0.020367129 0.0024698379 0.20213941
-0.021025311 -0.0024873028 0.20735134
-0.021937782 -0.0066887676 0.21291232
-0.02285016 -0.0096889129 0.21605946
-0.023624919 -0.012697463 0.21960588
-0.024777589 -0.015470103 0.22150037
-0.025608767 -0.018094681 0.22296427
-0.02691867 -0.02015575 0.22366522
-0.026198434 -0.02179045 0.22310372
-0.025636924 -0.02349733 0.22424389
-0.025530798 -0.025071615 0.22748765
-0.01593058 0.039283983 0.18476692
-0.015082118 0.03650593 0.18639693
-0.015347076 0.033677142 0.1881285
-0.015599097 0.031013854 0.18993522
-0.014866179 0.028125251 0.19192906
-0.01468858 0.024409285 0.19421534
-0.020022625 0.020154605 0.19308853
-0.019744916 0.016883938 0.19462009
-0.018460454 0.012979461 0.1960931
-0.017361863 0.0086649796 0.20028326
-0.017458402 0.0040178536 0.20472816
-0.017882155 -0.0016284845 0.21001929
-0.018704128 -0.0068729972 0.21627219
-0.019117123 -0.010384937 0.21953893
-0.019215995 -0.013545608 0.22265986
-0.021157978 -0.015547096 0.22334485
-0.022595247 -0.017551472 0.2248178
-0.023448803 -0.019215306 0.22489244
-0.023344925 -0.020857072 0.22429882
-0.02272558 -0.022929346 0.22538523
-0.022950444 -0.025471317 0.22909801
-0.012172271 0.03693245 0.18745762
-0.011825225 0.034363307 0.18887976
-0.011635988 0.031820785 0.19052975
-0.011040527 0.028804285 0.19226409
-0.0097135426 0.025029326 0.19610605
-0.011766076 0.019838475 0.19858985
-0.015001939 0.016089059 0.19880572
-0.014454337 0.012444142 0.20073511
-0.014717642 0.0093634827 0.2034996
-0.015066127 0.0056754332 0.20624845
-0.015172115 -0.00057663396 0.21199943
-0.015202778 -0.0070345509 0.21848013
-0.01479209 -0.010121032 0.2213034
-0.014551583 -0.01294595 0.22397766
-0.015270656 -0.015270798 0.22514281
-0.018383102 -0.016667513 0.22471087
-0.019748574 -0.018503252 0.22476517
-0.020124162 -0.020685067 0.22516231
-0.020315131 -0.023113361 0.22715881
-0.020101007 -0.02547117 0.23064345
-0.0092388699 0.034580816 0.18962367
-0.0080092382 0.032121178 0.19143222
-0.00680704 0.028891951 0.19429567
-0.0062779384 0.024683543 0.19808759
-0.007818575 0.019607067 0.20140916
-0.010445938 0.015769834 0.20294094
-0.01134978 0.012715449 0.20464748
-0.011870247 0.00996284 0.20614377
-0.012383754 0.0066897273 0.20790726
-0.012723937 0.0012410216 0.21243492
-0.011143921 -0.0061655594 0.21946096
-0.010599792 -0.0092401719 0.22224285
-0.010602265 -0.012160833 0.22450589
-0.011056925 -0.014438143 0.22601873
-0.012932952 -0.016120465 0.2261277
-0.014966532 -0.018089039 0.22694379
-0.016286051 -0.020940529 0.22788832
-0.017432399 -0.024697283 0.23117079
-0.0035634344 0.030549644 0.19500989
-0.0032580292 0.027228273 0.19769835
-0.0040074387 0.023036711 0.20069322
-0.0051650703 0.020469317 0.20248768
-0.00692392 0.016026698 0.20484668
-0.0079032993 0.012917115 0.20688601
-0.0084142042 0.010009999 0.20855112
-0.0088155651 0.0068090842 0.21103413
-0.010249971 0.0029442073 0.21305767
-0.0072105294 -0.0050760787 0.22018541
-0.0068085878 -0.0085923579 0.22331487
-0.0070123971 -0.01173799 0.22468355
-0.0078292452 -0.01425826 0.22660241
-0.0086150486 -0.016415646 0.22786577
-0.01039034 -0.018787261 0.2295876
-0.01298918 -0.02148819 0.23042351
-0.015209894 -0.02399792 0.23153633
-0.00042445114 0.025387039 0.19947955
-0.0010015956 0.022177134 0.20162517
-0.00053063489 0.019306121 0.20348699
-0.0023934022 0.016715191 0.20542236
-0.0034640371 0.012376807 0.20794058
-0.0034197315 0.0091015017 0.21057098
-0.0035219679 0.0061709913 0.21301726
-0.0032741299 -0.0034614471 0.22024737
-0.0031246461 -0.0081213247 0.22366644
-0.0035570911 -0.011738515 0.22514418
-0.0043901131 -0.014411727 0.2270374
-0.0055608391 -0.016627867 0.22848587
-0.007256581 -0.018679015 0.23057556
0.0017110251 0.023764009 0.20021465
0.0015686227 0.021485481 0.2015131
0.0016890336 0.019057738 0.2030347
0.0016226569 0.016168816 0.20564881
0.0011558128 0.012080405 0.20855755
0.00084424304 0.0088179894 0.21120581
0.00072537264 0.0061638374 0.21354213
8.1685321e-05 0.0033201112 0.21610722
0.00041293024 -0.0013523591 0.21916418
-6.0720802e-05 -0.0066673183 0.22253843
-0.00090245542 -0.011196489 0.22536145
0.0036979748 0.020663572 0.20140649
0.0050303144 0.01877879 0.2029241
0.0047727372 0.015666818 0.20615834
0.0041683833 0.012251768 0.20878418
0.0038728153 0.0093145585 0.21116363
0.0035969396 0.0071945754 0.21331461
0 0 0 1 0 0 0 1 0 0 0 1 0 0 0 0 0 348 1 0 0
