ply
format ascii 1.0
comment PCL generated
element vertex 348
property float x
property float y
property float z
element camera 1
property float view_px
property float view_py
property float view_pz
property float x_axisx
property float x_axisy
property float x_axisz
property float y_axisx
property float y_axisy
property float y_axisz
property float z_axisx
property float z_axisy
property float z_axisz
property float focal
property float scalex
property float scaley
property float centerx
property float centery
property int viewportx
property int viewporty
property float k1
property float k2
end_header
-0.057303917 0.023228718 0.18752147
-0.057789765 0.020861343 0.18931857
-0.058139492 0.017855305 0.19117971
-0.058395077 0.014979966 0.19306368
-0.05859277 0.012234855 0.19494119
-0.058623333 0.0096455719 0.19665998
-0.058299094 0.0070379972 0.19827576
-0.054039162 0.024929605 0.18354826
-0.054871518 0.023922004 0.18469411
-0.054837719 0.021366283 0.18637143
-0.055047065 0.018262222 0.18841989
-0.055277251 0.014952346 0.19048722
-0.055810235 0.011871516 0.1925035
-0.056501396 0.0090044616 0.19501488
-0.056415714 0.0056774048 0.19684689
-0.055276986 0.001647183 0.1976129
-0.055060342 -0.0010164268 0.20002818
-0.051178776 0.027361069 0.18115485
-0.051671285 0.025651798 0.18202589
-0.051740449 0.023700867 0.18298402
-0.052013006 0.021632625 0.18442313
-0.052049603 0.018455412 0.18673882
-0.05192994 0.014601269 0.18931834
-0.052362919 0.011249306 0.19120519
-0.052844968 0.0080111017 0.19345209
-0.053478967 0.003789779 0.19458677
-0.053157046 -0.00010373191 0.19707015
-0.053432576 -0.0023689268 0.19993265
-0.054007247 -0.0035785625 0.2029514
-0.053685419 -0.0044895764 0.20524457
-0.053213913 -0.0045777834 0.20680062
-0.048664447 0.028587276 0.1805384
-0.048985828 0.0263598 0.18098471
-0.04924624 0.024149939 0.18200941
-0.049557369 0.021945549 0.1835482
-0.049603287 0.018911861 0.18586211
-0.049016848 0.013610291 0.18846507
-0.049504895 0.0098924786 0.19064632
-0.050146952 0.0061910795 0.1920637
-0.052162647 0.00032878385 0.19345699
-0.051671334 -0.0027625829 0.19627921
-0.051115789 -0.0044688261 0.19840786
-0.051035699 -0.0049096327 0.20107731
-0.051056605 -0.0044755889 0.20465259
-0.051076837 -0.0044110729 0.20805044
-0.050969034 -0.0055234646 0.21145825
-0.049953289 -0.0077602095 0.21564372
-0.045417979 0.032156836 0.18009484
-0.045844052 0.029984245 0.18048894
-0.046305101 0.027246952 0.18096308
-0.046741374 0.024899373 0.1818193
-0.047129437 0.022350622 0.18325081
-0.04726265 0.01921034 0.18494785
-0.046804205 0.014254928 0.18725029
-0.047822792 0.0086647756 0.18999
-0.049196195 0.0037583367 0.19073811
-0.051070515 -0.0028297924 0.19328018
-0.050760429 -0.0068528829 0.19530766
-0.050054502 -0.0074048825 0.19704378
-0.048800074 -0.0054201772 0.19935942
-0.04782572 -0.0045985379 0.20422304
-0.047587942 -0.0048571434 0.20790732
-0.047862224 -0.0066989795 0.2114936
-0.048329853 -0.0089259706 0.21494649
-0.048983455 -0.011667243 0.21898302
-0.042844325 0.034122691 0.17969131
-0.043375969 0.030862313 0.18092625
-0.043275569 0.028344415 0.18129894
-0.044164293 0.025701078 0.18185537
-0.044381853 0.0232601 0.18276866
-0.044385668 0.020217327 0.18397136
-0.04448152 0.015963336 0.18568325
-0.046774752 0.0080845095 0.18913022
-0.049090985 0.0012922244 0.18942556
-0.049496636 -0.0060680737 0.1922626
-0.048518207 -0.0086850058 0.19425708
-0.046994518 -0.0076949974 0.19667757
-0.045905191 -0.0054792818 0.19864006
-0.044849183 -0.0049728192 0.20359527
-0.044178691 -0.0055248309 0.20760466
-0.043896105 -0.0070867217 0.2112373
-0.045026474 -0.009478149 0.21427882
-0.046961162 -0.013119575 0.21854085
-0.047372859 -0.017046442 0.22114368
-0.047053132 -0.020029899 0.22244841
-0.039145317 0.039398868 0.17761183
-0.039588571 0.036383118 0.17945059
-0.038473185 0.033327002 0.18081783
-0.039690252 0.030755462 0.18168145
-0.040319011 0.027967034 0.1821159
-0.04108572 0.024383804 0.18250707
-0.040840931 0.021179866 0.18319595
-0.042208597 0.016346458 0.18512459
-0.045548636 0.0081048775 0.18772216
-0.047170177 0.0025133642 0.18672231
-0.047211442 -0.0072131506 0.19062659
-0.044986416 -0.0086944858 0.19373617
-0.043523621 -0.0069867186 0.19645602
-0.043190017 -0.0057586264 0.19758123
-0.042198393 -0.0058450247 0.20174
-0.042236093 -0.0070072226 0.2054747
-0.043108508 -0.0081969043 0.20874996
-0.044188969 -0.0090367841 0.21193334
-0.044159554 -0.013780585 0.21616465
-0.044106375 -0.017777013 0.2191557
-0.044835769 -0.021339407 0.22175954
-0.044224344 -0.023811162 0.22272572
-0.036511827 0.040826298 0.17710899
-0.036095116 0.039004728 0.17883345
-0.036046628 0.034608517 0.18039143
-0.036776103 0.032081317 0.18166007
-0.036413889 0.029813508 0.18261257
-0.036131684 0.026194133 0.183732
-0.0363377 0.023170792 0.18381734
-0.039764509 0.017180882 0.18471816
-0.043748196 0.0095931645 0.18639123
-0.044159926 0.0045775529 0.18420431
-0.043104645 -0.0082472721 0.18923567
-0.041447762 -0.0094258385 0.19267018
-0.040931657 -0.0073588183 0.19349056
-0.040239256 -0.0060860096 0.19612648
-0.040162634 -0.0069242292 0.19998829
-0.040755689 -0.0080327438 0.20286494
-0.041635111 -0.008966418 0.20709194
-0.042807687 -0.010174434 0.21113087
-0.041512791 -0.014703129 0.21432239
-0.040899407 -0.018589603 0.21722901
-0.041128241 -0.021758692 0.22019932
-0.041180603 -0.024391532 0.22191541
-0.033336148 0.041609932 0.17733665
-0.033142202 0.039870415 0.17892204
-0.033534367 0.035107668 0.18118836
-0.033800017 0.032026429 0.18275812
-0.033207361 0.030141342 0.18377757
-0.032914389 0.027220655 0.18466812
-0.03355315 0.023086485 0.18453799
-0.034275968 0.019599903 0.18408756
-0.040912155 0.012004322 0.1848222
-0.040455721 0.0060957763 0.18361281
-0.039392263 0.0024272848 0.18297391
-0.038418107 -0.0061932439 0.18688847
-0.037674349 -0.0059199692 0.19155307
-0.037247222 -0.004858641 0.19542602
-0.036925666 -0.0063321246 0.19980028
-0.037650485 -0.0081646424 0.20306173
-0.038847767 -0.0099001564 0.2070563
-0.039869167 -0.012139593 0.21108298
-0.038792077 -0.016056258 0.21345091
-0.037485383 -0.019632956 0.21663612
-0.038074248 -0.022563839 0.21932082
-0.037622858 -0.024379982 0.22119148
-0.030455738 0.041934296 0.17780362
-0.03014577 0.040150117 0.17943811
-0.030489638 0.035829775 0.1818974
-0.030610537 0.032810774 0.18357211
-0.029965138 0.030679023 0.18446454
-0.030270493 0.027537094 0.18551649
-0.030655352 0.024079693 0.18566714
-0.03033947 0.021381833 0.18551691
-0.034676503 0.015308057 0.18399453
-0.036264449 0.0079478119 0.18387859
-0.033207037 0.0055580717 0.18550415
-0.033013336 0.0020084337 0.18772265
-0.03380619 -0.0019677724 0.19047844
-0.03405264 -0.0030149072 0.19328433
-0.033782296 -0.0065451893 0.20122318
-0.034251116 -0.0084985346 0.20367576
-0.035738938 -0.011212305 0.2072878
-0.036466576 -0.01417844 0.2108406
-0.034639087 -0.017335372 0.21345459
-0.033753786 -0.019609986 0.21756245
-0.033727236 -0.021816056 0.21956012
-0.034258954 -0.024303703 0.22210033
-0.033795606 -0.025242057 0.2248677
-0.027280059 0.042249732 0.17850555
-0.026974868 0.040561434 0.17988783
-0.026495762 0.037710659 0.18177819
-0.027231708 0.033951622 0.18350163
-0.02698108 0.031090302 0.18474983
-0.027272841 0.02780864 0.18622452
-0.027902711 0.024771947 0.18677856
-0.02817886 0.021762589 0.1866421
-0.029317593 0.017121308 0.18610649
-0.031456664 0.010665487 0.18528993
-0.027669515 0.0067150737 0.18906213
-0.026978467 0.0035208715 0.19203079
-0.026202828 0.00055563822 0.19630601
-0.026705349 -0.0037305688 0.20161815
-0.028560782 -0.0067509343 0.20438251
-0.030415887 -0.0095221214 0.20650147
-0.03203385 -0.012761879 0.20969033
-0.031358477 -0.015793083 0.21361895
-0.030807599 -0.018178063 0.21606214
-0.030945428 -0.020255208 0.21865295
-0.030920524 -0.02226463 0.22066003
-0.031179121 -0.024183311 0.22300923
-0.030808177 -0.024658075 0.22557841
-0.02507019 0.042887174 0.17867818
-0.023530174 0.041143332 0.18045276
-0.022524454 0.038925823 0.18184708
-0.022732222 0.035443522 0.1835718
-0.023275353 0.031703766 0.18542267
-0.023609487 0.028702652 0.18724503
-0.025092177 0.025308432 0.1878105
-0.026033888 0.021873958 0.18816759
-0.02568575 0.018320877 0.18886158
-0.024355436 0.014895372 0.18946368
-0.022910101 0.0093126046 0.19153231
-0.022793533 0.0050523747 0.19479355
-0.023093188 0.0016198969 0.19885667
-0.023916002 -0.0030728148 0.20395991
-0.02499222 -0.0066377069 0.20734221
-0.025963113 -0.01015484 0.2103059
-0.026849499 -0.013590789 0.21394514
-0.027122186 -0.016571578 0.21730697
-0.027984831 -0.019354526 0.21913989
-0.028924933 -0.020959647 0.22022285
-0.028381353 -0.022501491 0.2211595
-0.02785879 -0.023677155 0.22310184
-0.027657572 -0.024853716 0.22613809
-0.01939008 0.041626655 0.18187158
-0.019413646 0.038866993 0.18336204
-0.018170303 0.035775773 0.18483251
-0.018804997 0.032636575 0.18646626
-0.019440973 0.029839482 0.18855016
-0.020310685 0.02671483 0.19025858
-0.023079224 0.022157613 0.19058058
-0.022777973 0.019264884 0.19065893
-0.022007247 0.016466618 0.19153859
-0.020946238 0.01249839 0.19260232
-0.020162256 0.0076407553 0.19556953
-0.020240868 0.0025855154 0.20170969
-0.02073941 -0.002644124 0.20678198
-0.021275073 -0.007552403 0.21188855
-0.021980153 -0.010944877 0.21461378
-0.022676408 -0.014038646 0.21791425
-0.023912771 -0.016650096 0.21966282
-0.024747809 -0.019035798 0.22124442
-0.02606299 -0.020909021 0.22210139
-0.025423849 -0.022555964 0.22169837
-0.024824822 -0.024045097 0.22312275
-0.024780113 -0.025147783 0.22651803
-0.015780713 0.039163969 0.18457232
-0.014831505 0.036169644 0.18573849
-0.015080758 0.03324461 0.18722996
-0.015355223 0.030659987 0.18909702
-0.014699738 0.027854897 0.19119406
-0.014601598 0.024259983 0.19365121
-0.019512272 0.020472948 0.19254558
-0.01906197 0.01719931 0.19388364
-0.017796328 0.01322475 0.19524056
-0.016995344 0.0087834457 0.19960187
-0.017405193 0.0041759 0.20427705
-0.01784307 -0.0015950352 0.20966616
-0.018298453 -0.0075238883 0.21543764
-0.018489413 -0.011288697 0.21825832
-0.018632527 -0.014314486 0.22131641
-0.020391202 -0.016506938 0.22168387
-0.021749631 -0.018318515 0.22312011
-0.022615483 -0.019900464 0.2232486
-0.022529004 -0.02154265 0.22279184
-0.02196358 -0.023365958 0.22407584
-0.022220781 -0.025504855 0.22811705
-0.011836329 0.036547065 0.1867063
-0.011487577 0.033836067 0.18781877
-0.01133791 0.031296793 0.18941981
-0.010855351 0.02836648 0.19130783
-0.0095904749 0.024576776 0.1951979
-0.011485337 0.019683471 0.19785407
-0.014475788 0.016210899 0.19813803
-0.014038791 0.012520996 0.2000833
-0.014410183 0.0094775362 0.20288353
-0.014997093 0.0058631198 0.20578128
-0.01534231 -0.00037054642 0.21181172
-0.01493788 -0.0073895338 0.2176954
-0.014454002 -0.010391754 0.22036234
-0.014221686 -0.013073221 0.22316493
-0.014882863 -0.01542879 0.22443052
-0.017816667 -0.017116584 0.22367622
-0.019079832 -0.01903321 0.22357774
-0.019416586 -0.021178743 0.22393054
-0.019598031 -0.02345128 0.22603798
-0.019381579 -0.025508955 0.2296612
-0.0088666286 0.034001548 0.18846989
-0.0076838238 0.031527352 0.19023949
-0.0066202506 0.028350798 0.19325456
-0.0060938718 0.024027582 0.19686404
-0.0077336729 0.019352568 0.2005623
-0.010364454 0.015837293 0.20258966
-0.011156728 0.012860259 0.20429955
-0.011709932 0.010142196 0.20573579
-0.012346685 0.0068983613 0.2075088
-0.012889627 0.0015216129 0.21217901
-0.011002693 -0.0061399597 0.21879742
-0.010349872 -0.0091328295 0.22154725
-0.01030257 -0.011984943 0.22392248
-0.010729314 -0.014281958 0.22556834
-0.012518973 -0.016098619 0.22563887
-0.014542355 -0.018246491 0.22632101
-0.01577941 -0.02121586 0.22714853
-0.0168091 -0.024798695 0.23024225
-0.0033935644 0.029939784 0.1937629
-0.0030724788 0.02653175 0.19636318
-0.0038272778 0.022456668 0.19924797
-0.0050324006 0.020112144 0.20129411
-0.0068249614 0.016048959 0.20433757
-0.0078158984 0.013113486 0.20659935
-0.0083851842 0.010241508 0.20827538
-0.0088402918 0.0070132706 0.21073087
-0.01041571 0.003204115 0.21274722
-0.0071065081 -0.0048503294 0.21948238
-0.0065568257 -0.0082915043 0.22267292
-0.0067229387 -0.011412767 0.22424151
-0.0075166551 -0.013939075 0.22632781
-0.008283468 -0.016150912 0.22768605
-0.010034482 -0.018650828 0.22933979
-0.012557085 -0.0215904 0.22992393
-0.014683607 -0.024149632 0.23076878
-0.00027273223 0.024846619 0.19805065
-0.00083820918 0.021694822 0.20024176
-0.0004123704 0.018948553 0.20232826
-0.0022796774 0.016550573 0.20455636
-0.0033994673 0.012557575 0.20758204
-0.0033900875 0.0092838602 0.21021967
-0.0034965181 0.0063045709 0.2125053
-0.0031570119 -0.003242352 0.21933463
-0.0029079292 -0.0077049597 0.22311532
-0.0032785726 -0.011293535 0.22489469
-0.0040796641 -0.013939865 0.22696199
-0.0052355621 -0.0161939 0.22848687
-0.0069431784 -0.018326828 0.23057851
0.0018866214 0.02330971 0.19888563
0.0017214884 0.02104749 0.20027106
0.0017729526 0.018722022 0.20198484
0.0016783441 0.016074825 0.20491102
0.0012379796 0.012179935 0.20809941
0.0008940617 0.008910004 0.21070994
0.0007831871 0.0062178262 0.21289971
0.00013362066 0.003336401 0.21536474
0.00047123086 -0.0013292299 0.21820557
0.00011867182 -0.0062605138 0.22191547
-0.00063964224 -0.010640877 0.22519168
0.0038363561 0.020267863 0.20027341
0.0051015671 0.018527681 0.20198667
0.0048487787 0.015618783 0.20548332
0.0042598331 0.012299859 0.20826095
0.0039518112 0.0093655316 0.21060295
0.0036740252 0.0072041145 0.21264085
0 0 0 1 0 0 0 1 0 0 0 1 0 0 0 0 0 348 1 0 0
