ply
format ascii 1.0
comment PCL generated
element vertex 348
property float x
property float y
property float z
element camera 1
property float view_px
property float view_py
property float view_pz
property float x_axisx
property float x_axisy
property float x_axisz
property float y_axisx
property float y_axisy
property float y_axisz
property float z_axisx
property float z_axisy
property float z_axisz
property float focal
property float scalex
property float scaley
property float centerx
property float centery
property int viewportx
property int viewporty
property float k1
property float k2
end_header
-0.055204924 0.030957444 0.18533389
-0.056070019 0.028350085 0.18671224
-0.056747459 0.025294013 0.1887102
-0.057348322 0.021962909 0.19103858
-0.058131743 0.018555265 0.1932891
-0.058402676 0.01535033 0.19480166
-0.058449678 0.012066482 0.19583616
-0.051140118 0.032704938 0.18104254
-0.052191231 0.031178001 0.1826614
-0.052620988 0.028545449 0.18425651
-0.053228654 0.025324186 0.18611813
-0.0538489 0.02182107 0.18879099
-0.054598697 0.018224109 0.19107892
-0.055401497 0.014907742 0.19293724
-0.056288652 0.012022893 0.19548632
-0.056833584 0.007965452 0.19698463
-0.05664983 0.0043636947 0.19870889
-0.047586717 0.035403326 0.17819716
-0.048235383 0.033518311 0.17925225
-0.048410617 0.031198388 0.18067516
-0.048857167 0.028583514 0.18232018
-0.049882654 0.025523063 0.18527921
-0.050362553 0.021285947 0.18891305
-0.05120701 0.017716143 0.19078933
-0.052238531 0.01518376 0.19330952
-0.053093549 0.011743576 0.19520818
-0.053789914 0.0075713145 0.19651513
-0.054101553 0.0036511482 0.19849594
-0.054679189 0.00078742567 0.20112276
-0.054760609 -0.0014005249 0.20354918
-0.054497033 -0.0022406452 0.20691057
-0.045055613 0.036422715 0.17746846
-0.045116179 0.033908688 0.17854318
-0.045353629 0.03144972 0.18015981
-0.045810703 0.029179551 0.18237689
-0.046485066 0.026171766 0.18490635
-0.047347084 0.020463225 0.18945876
-0.048350312 0.016791075 0.19169626
-0.049444117 0.014517871 0.19402394
-0.050516933 0.010523499 0.19493213
-0.050873604 0.0063844896 0.19532667
-0.050997753 0.0030392201 0.19789709
-0.051210791 0.00082203496 0.20063761
-0.051849637 -0.0010186888 0.20451008
-0.052430462 -0.0026200607 0.20838247
-0.052668709 -0.0045322971 0.21189104
-0.05197284 -0.0074442853 0.21514922
-0.041821193 0.03975594 0.17669819
-0.042296723 0.037219658 0.17763753
-0.042328779 0.03451471 0.1789915
-0.042463735 0.032076992 0.18064184
-0.043128397 0.029624052 0.18322295
-0.043612074 0.026726255 0.18556131
-0.044300821 0.021354411 0.18893334
-0.046043072 0.017201984 0.19284196
-0.046972811 0.013469791 0.19432235
-0.04778732 0.009048677 0.19429012
-0.047926586 0.0045626061 0.19432066
-0.04808471 0.0019627952 0.19673511
-0.048087806 0.0010525997 0.2009569
-0.048597693 -0.00065484986 0.20551078
-0.049045514 -0.0025272283 0.20940837
-0.049414873 -0.0053333309 0.21206494
-0.049829379 -0.0081869178 0.21477403
-0.050104558 -0.010690517 0.21945173
-0.039059632 0.041089185 0.17691392
-0.039975595 0.03782722 0.17828999
-0.039515495 0.035254896 0.1796751
-0.039838441 0.032768592 0.18141651
-0.040265176 0.030269109 0.18358769
-0.040627107 0.027370412 0.18581036
-0.041322496 0.023012744 0.18855877
-0.043788619 0.016332749 0.19341896
-0.044272028 0.012362165 0.19462325
-0.04446999 0.0079836594 0.19423023
-0.044518523 0.0038144568 0.19448696
-0.044604618 0.0019614652 0.19791143
-0.044681769 0.0012430371 0.20240295
-0.045271616 -0.00032031356 0.2066365
-0.045628335 -0.0025046959 0.21076553
-0.045768645 -0.0057754857 0.21311682
-0.046293728 -0.0084547317 0.21594158
-0.047097325 -0.011309519 0.21968569
-0.047450144 -0.01498797 0.22275974
-0.047076058 -0.018455321 0.22466336
-0.035512805 0.043534502 0.17596839
-0.036048774 0.041666292 0.17747416
-0.035436548 0.038798749 0.17891571
-0.036631081 0.036148977 0.18004659
-0.037115674 0.033576645 0.18199582
-0.037519883 0.0307188 0.18429159
-0.037453942 0.027802948 0.18645422
-0.038932089 0.022814166 0.18930157
-0.040818192 0.016177101 0.19380412
-0.04095728 0.012054215 0.19522873
-0.041010525 0.0077090263 0.19507925
-0.040899072 0.0041639251 0.19624066
-0.040738374 0.0022074576 0.20002946
-0.040986333 0.0015071032 0.20404254
-0.041925672 0.0001550039 0.20821367
-0.042354293 -0.0024460596 0.21132682
-0.042726278 -0.0056708902 0.21306522
-0.043577053 -0.0082079843 0.21567325
-0.043463707 -0.011609775 0.21826105
-0.043825272 -0.015326441 0.2210041
-0.044540036 -0.019104142 0.22400142
-0.044286475 -0.021768292 0.22564283
-0.033060826 0.043750841 0.17617673
-0.033068147 0.042006992 0.17781813
-0.033216964 0.03933797 0.17916889
-0.033611577 0.036549762 0.18038651
-0.033927362 0.033996359 0.18249789
-0.034449041 0.031129589 0.1854541
-0.034403902 0.027996754 0.18755832
-0.036172949 0.022672296 0.19012223
-0.037738889 0.016937107 0.19411905
-0.037329577 0.012158523 0.19621213
-0.037180442 0.0081857992 0.19641149
-0.036789928 0.0045914347 0.19779423
-0.036814842 0.0030937635 0.2016556
-0.037534706 0.0020460312 0.20554911
-0.038487785 0.00037518429 0.20911486
-0.039083835 -0.0020110416 0.21173191
-0.039756365 -0.0053529358 0.21350567
-0.040474195 -0.00844103 0.21588001
-0.040013887 -0.0120266 0.21789093
-0.040107477 -0.015630484 0.22002095
-0.040599827 -0.019288087 0.2227098
-0.040786274 -0.022282392 0.22526737
-0.030089941 0.043910973 0.17681426
-0.030151483 0.042215984 0.17793103
-0.03042092 0.03955875 0.17967947
-0.030801581 0.036595985 0.18164185
-0.030925233 0.034020308 0.18352093
-0.031272665 0.031128461 0.18625678
-0.03127753 0.027795753 0.18888089
-0.031885065 0.02400988 0.19093208
-0.034341723 0.018566648 0.19436006
-0.034031115 0.01314854 0.19703011
-0.032709505 0.0091140354 0.19893821
-0.032649845 0.0063128471 0.2011693
-0.033549551 0.0044436264 0.20369317
-0.034262244 0.0024875272 0.20665042
-0.034913957 0.00058026135 0.20993707
-0.035769314 -0.001711819 0.21247949
-0.036359482 -0.0054964242 0.21412952
-0.036959939 -0.0086221434 0.21641307
-0.03665464 -0.011796781 0.21827403
-0.036458857 -0.014959243 0.22082452
-0.037262153 -0.019557836 0.22257702
-0.03679359 -0.02227051 0.22530724
-0.027060481 0.044071123 0.17711234
-0.027154738 0.042293958 0.17840549
-0.027358001 0.039551619 0.18003154
-0.027679963 0.036801841 0.18243171
-0.027795278 0.034024619 0.18426141
-0.028225126 0.031261191 0.18698505
-0.028372915 0.028072959 0.18964599
-0.028462321 0.02473015 0.19150324
-0.030667346 0.019578584 0.19394135
-0.030854944 0.01335196 0.19679125
-0.029281285 0.010488597 0.20099702
-0.029470468 0.0073088584 0.20353998
-0.029946867 0.0048211184 0.20536326
-0.030294526 0.0038016068 0.20655812
-0.031945445 0.00016714483 0.21095476
-0.032219313 -0.0018126068 0.21297204
-0.033053014 -0.0054206145 0.21473667
-0.033603799 -0.0085731093 0.21710178
-0.033002954 -0.011396176 0.21929947
-0.032930311 -0.014845828 0.22267739
-0.032776151 -0.018478751 0.22445804
-0.03332274 -0.022251707 0.22669874
-0.033314846 -0.024211666 0.22984785
-0.024008477 0.044232294 0.17813012
-0.024243619 0.042484917 0.17928861
-0.024265813 0.039719675 0.18038774
-0.024450835 0.036845539 0.18248107
-0.024775904 0.034194861 0.18485102
-0.025198983 0.03144221 0.18754472
-0.025320198 0.02845276 0.19058529
-0.02564376 0.024866464 0.1927717
-0.026849594 0.020928515 0.19542891
-0.027381741 0.015007508 0.1981349
-0.025929522 0.010947888 0.20171353
-0.026406135 0.0086136684 0.20527291
-0.026646266 0.0058553182 0.20763539
-0.027066631 0.0036394657 0.20970383
-0.027736608 0.0010865976 0.2122947
-0.028882947 -0.0022482434 0.21354029
-0.029685792 -0.0053263726 0.21612242
-0.029783105 -0.0083056297 0.21892497
-0.029267566 -0.011582515 0.22087309
-0.029337818 -0.015121459 0.22387235
-0.029552897 -0.01882573 0.22609554
-0.029938838 -0.022542495 0.22810094
-0.030197285 -0.024807956 0.23086458
-0.021855654 0.044637363 0.17848058
-0.021444205 0.042532802 0.18039516
-0.021132434 0.040168107 0.18165611
-0.021206541 0.037254091 0.18304911
-0.021440197 0.034463838 0.18571685
-0.02201852 0.031815335 0.18801942
-0.022379119 0.028575813 0.19133359
-0.022620751 0.025101153 0.19431262
-0.023171242 0.021536645 0.19694181
-0.023499317 0.016891709 0.20049563
-0.023248395 0.01252279 0.20325756
-0.02310477 0.0091470452 0.20563045
-0.02340585 0.0064678141 0.20820668
-0.02404605 0.0037458898 0.21087699
-0.024707897 0.00089758326 0.21315442
-0.02508169 -0.0018873136 0.21510826
-0.025663083 -0.0046851453 0.21801147
-0.025940556 -0.0079599926 0.22111076
-0.025828864 -0.011785481 0.22202109
-0.02620814 -0.015747912 0.22524489
-0.026151968 -0.019156188 0.22708566
-0.026520349 -0.022967039 0.22875053
-0.026770288 -0.025767094 0.23178528
-0.018086897 0.042630766 0.18194872
-0.018717526 0.039917957 0.1834774
-0.018171199 0.037617255 0.18480517
-0.018340774 0.034894641 0.18659523
-0.018805418 0.032148711 0.18887319
-0.019300874 0.029131679 0.19155009
-0.019409295 0.025329109 0.1958378
-0.019822663 0.02144436 0.19855466
-0.020362891 0.017640719 0.20132136
-0.020293618 0.014061404 0.20397557
-0.020089496 0.010508209 0.20652732
-0.020368367 0.0075205066 0.209437
-0.020850372 0.0044115344 0.21231842
-0.021227159 0.0016516035 0.21486194
-0.02155205 -0.0013673514 0.21727616
-0.02206466 -0.0042875228 0.22068253
-0.022382699 -0.0077961907 0.22300881
-0.022269093 -0.011867726 0.2238659
-0.022729674 -0.016196521 0.22672795
-0.022571271 -0.019519221 0.22711778
-0.022786532 -0.023200601 0.22804816
-0.023243731 -0.026054652 0.23182727
-0.015691273 0.040775545 0.18479164
-0.015312346 0.037920333 0.18618195
-0.015533224 0.035120275 0.18760975
-0.015747789 0.032408237 0.18959041
-0.015932901 0.029291725 0.1919806
-0.01615021 0.025867367 0.19663045
-0.016875861 0.021313041 0.20018154
-0.017018367 0.018077228 0.20260388
-0.016915565 0.014772972 0.2046089
-0.016977601 0.011660641 0.20750141
-0.016906265 0.0085791247 0.21015266
-0.017238718 0.0050933301 0.21319333
-0.017596982 0.0019084967 0.21630241
-0.017861923 -0.0011306682 0.2195131
-0.018302733 -0.0041917586 0.22246796
-0.018697603 -0.0076822406 0.22450976
-0.018675232 -0.011607295 0.22536919
-0.0189151 -0.015451006 0.22665668
-0.019131009 -0.018947013 0.2277329
-0.019199252 -0.022793414 0.22945499
-0.019686781 -0.026230419 0.23341662
-0.012777341 0.038017232 0.18730594
-0.012497227 0.035502747 0.18866158
-0.012651915 0.032689709 0.19064556
-0.012778716 0.02953623 0.19221969
-0.012682033 0.026110305 0.19648814
-0.013151277 0.022155184 0.20078717
-0.013747895 0.01844025 0.20419067
-0.013810189 0.0154617 0.20636657
-0.013769406 0.012446727 0.20887229
-0.013671916 0.0092781996 0.21132286
-0.013842474 0.0056080469 0.2144058
-0.014087734 0.0022218006 0.21736662
-0.014319339 -0.00083691604 0.22028418
-0.014443197 -0.0041864449 0.22322072
-0.014674013 -0.0076991566 0.22489908
-0.014911036 -0.011503222 0.22555166
-0.015132098 -0.015214238 0.22702236
-0.015404207 -0.018926863 0.22838441
-0.015923126 -0.022868657 0.23145169
-0.015754784 -0.025878724 0.23506601
-0.010063951 0.035309184 0.18939003
-0.0095054368 0.032877095 0.19128665
-0.0093369763 0.0296227 0.19346876
-0.0093265036 0.026230294 0.19696905
-0.0099093867 0.022509407 0.20134936
-0.010201411 0.019000281 0.20501998
-0.010432659 0.015994247 0.20729765
-0.010419756 0.013022733 0.20946984
-0.010291019 0.0099365329 0.21145733
-0.01025173 0.0065330588 0.21486542
-0.010334607 0.0026236952 0.21768457
-0.010488663 -0.00070663413 0.22065854
-0.010617908 -0.0041836831 0.22299847
-0.010788572 -0.007737021 0.22501485
-0.010922774 -0.011346194 0.22486506
-0.01107669 -0.015248772 0.2277039
-0.011115831 -0.018597675 0.22929461
-0.011380112 -0.023587113 0.23389037
-0.0063145156 0.03209693 0.19346134
-0.0060860235 0.029351784 0.1957666
-0.0062989611 0.025696089 0.19885829
-0.006929154 0.023288049 0.20103873
-0.006638519 0.018909534 0.20522246
-0.0067346646 0.016255008 0.20740607
-0.0067092059 0.013405754 0.20952529
-0.0063561187 0.010324372 0.21169506
-0.0066554197 0.0070903813 0.2149438
-0.0066671227 0.0029761526 0.21797751
-0.006826432 -0.00053358322 0.22166738
-0.0068372013 -0.0041478784 0.22270627
-0.0069617801 -0.00762772 0.22485426
-0.0070145568 -0.01124534 0.22542222
-0.0071141347 -0.015112731 0.22781563
-0.0079550948 -0.018803423 0.22990346
-0.0090771802 -0.021962283 0.23190655
-0.0027650637 0.028761048 0.19773674
-0.0030192276 0.025406998 0.19937961
-0.0021768664 0.021982115 0.20105349
-0.0028286376 0.019247081 0.20397644
-0.0027526324 0.016098335 0.20663778
-0.0026508842 0.013429182 0.20926717
-0.0024771288 0.010499479 0.21198355
-0.0028872271 0.003167954 0.21792673
-0.0029687432 -0.00052773423 0.22157511
-0.0031132994 -0.0041682138 0.22256824
-0.003209874 -0.007700454 0.22417577
-0.0038371319 -0.01120335 0.22518036
-0.0046025533 -0.014317912 0.22748823
3.045188e-05 0.027689725 0.19835351
7.6665703e-05 0.024994673 0.1992114
0.00026672168 0.021962257 0.20054203
0.00070664327 0.019146321 0.20307748
0.00098516012 0.016114367 0.2060812
0.0010322933 0.013357882 0.208949
0.0011499277 0.010695325 0.21167976
0.00080413313 0.0078166733 0.21438812
0.00082561688 0.0040255045 0.21652631
0.00015642286 -0.00025173585 0.22001702
-0.00044458694 -0.0037188292 0.2223513
0.00260101 0.024347199 0.19898541
0.0034945095 0.021883227 0.19977832
0.0039278939 0.019064881 0.20224415
0.003948852 0.016288055 0.20545129
0.0038298545 0.01368432 0.2083216
0.0037374592 0.011843709 0.2106238
0 0 0 1 0 0 0 1 0 0 0 1 0 0 0 0 0 348 1 0 0
