ply
format ascii 1.0
comment PCL generated
element vertex 348
property float x
property float y
property float z
element camera 1
property float view_px
property float view_py
property float view_pz
property float x_axisx
property float x_axisy
property float x_axisz
property float y_axisx
property float y_axisy
property float y_axisz
property float z_axisx
property float z_axisy
property float z_axisz
property float focal
property float scalex
property float scaley
property float centerx
property float centery
property int viewportx
property int viewporty
property float k1
property float k2
end_header
-0.056801129 0.023598297 0.188435
-0.057268728 0.021097083 0.19023688
-0.057635371 0.017965376 0.19180727
-0.057901856 0.015011419 0.19340685
-0.058118608 0.012229773 0.19506542
-0.058175012 0.0096595921 0.19666772
-0.057891186 0.0070828004 0.19823246
-0.053769965 0.025374353 0.18469882
-0.054690257 0.024353826 0.18571909
-0.054568868 0.021689501 0.18712458
-0.054787632 0.018406127 0.18888776
-0.055005088 0.014967175 0.19059257
-0.055552997 0.011816774 0.19241358
-0.056159977 0.008968181 0.19484964
-0.056097392 0.0056685889 0.19651519
-0.055216581 0.0017061302 0.19697212
-0.05503368 -0.00093399204 0.19944176
-0.050866317 0.027567478 0.18196264
-0.051387541 0.025989959 0.18295659
-0.051529806 0.024073802 0.18393865
-0.051816456 0.021997178 0.18524428
-0.05191775 0.018656844 0.18699741
-0.051856749 0.014491116 0.18890794
-0.052330989 0.011076405 0.19054167
-0.052697498 0.0077620004 0.19265319
-0.053392492 0.0036830683 0.19381759
-0.053082027 -1.6002507e-05 0.19646345
-0.053386834 -0.0022638862 0.19939826
-0.053998202 -0.0034468721 0.2024596
-0.053692114 -0.0043409388 0.20479615
-0.053421803 -0.00472392 0.2061713
-0.048377331 0.028535832 0.18076383
-0.048757736 0.026517563 0.18155651
-0.049073808 0.024429411 0.18271327
-0.049393259 0.022234578 0.18417686
-0.049471978 0.019064842 0.18602915
-0.049205441 0.013325972 0.18729441
-0.049692668 0.009594379 0.18934754
-0.050304927 0.0058873198 0.19073716
-0.052116375 0.00035691913 0.19279458
-0.051568575 -0.002658179 0.19573584
-0.051015664 -0.0043312507 0.19792783
-0.050980065 -0.0047095767 0.20066133
-0.05105871 -0.0042302408 0.20427935
-0.05144269 -0.0045923837 0.20748757
-0.051635303 -0.0060576969 0.21076462
-0.051031847 -0.0087185623 0.21485057
-0.045111071 0.031693775 0.17934403
-0.045523692 0.029679367 0.18008634
-0.04606821 0.027189877 0.18106148
-0.046552721 0.025008537 0.18219151
-0.046992462 0.022536527 0.1835489
-0.047206841 0.019321663 0.18494041
-0.047074076 0.013958634 0.18591137
-0.048088346 0.0083174659 0.18814091
-0.049506668 0.0034953265 0.18935673
-0.051035993 -0.0027772221 0.19272089
-0.050713606 -0.006713253 0.19492897
-0.049978726 -0.0071830577 0.19673331
-0.048728175 -0.0051407069 0.19899394
-0.047834959 -0.0042446898 0.20393436
-0.047818471 -0.0047846059 0.20758669
-0.048608728 -0.0071915342 0.21094945
-0.049301397 -0.0097416276 0.21426903
-0.050131865 -0.01287388 0.21808751
-0.042628571 0.03360033 0.17874481
-0.043073576 0.030421881 0.18010524
-0.042974297 0.028073721 0.18084154
-0.043991312 0.025660889 0.1818749
-0.044311162 0.023296816 0.18273066
-0.044402543 0.020221472 0.18366481
-0.044724941 0.015726782 0.18463272
-0.047132127 0.0077163214 0.18702467
-0.049370058 0.0011504201 0.18819872
-0.049495101 -0.0060333237 0.19183925
-0.048469394 -0.0085534817 0.19398291
-0.046921972 -0.0074358028 0.19636941
-0.045848724 -0.0051235212 0.19829163
-0.044847161 -0.0044818739 0.20340647
-0.044375699 -0.0053350776 0.20743062
-0.044438068 -0.0072225863 0.21094713
-0.045972362 -0.010233774 0.21416132
-0.047916476 -0.01409412 0.2179666
-0.04806181 -0.017963048 0.2206466
-0.047485027 -0.020795822 0.22203137
-0.039161172 0.039122641 0.17726268
-0.039504301 0.035975099 0.17883196
-0.038233336 0.032972507 0.18009584
-0.039370619 0.030390283 0.18081464
-0.039955683 0.02770998 0.18144707
-0.040944815 0.024252243 0.1821105
-0.040975254 0.021004956 0.18248163
-0.042506624 0.016034197 0.18387526
-0.045992255 0.0077372431 0.18539473
-0.047778938 0.0022526407 0.18490914
-0.047229104 -0.0072361352 0.19024618
-0.044938128 -0.0085491957 0.19344008
-0.043454003 -0.0066546076 0.19609784
-0.043142609 -0.0053124833 0.19724591
-0.04218008 -0.0051132245 0.20156325
-0.042277578 -0.0063733878 0.20533167
-0.043353122 -0.008014827 0.20845833
-0.044813916 -0.0094102351 0.21183766
-0.044780798 -0.014256816 0.21593982
-0.044591211 -0.018342372 0.2190064
-0.045108791 -0.021850493 0.22153473
-0.044356667 -0.024246909 0.22252038
-0.036653351 0.040734895 0.17689984
-0.036175169 0.038891204 0.17862345
-0.035888061 0.034395266 0.17997475
-0.036434531 0.031745184 0.18086345
-0.035986092 0.029448962 0.18172121
-0.035768367 0.0258964 0.18292587
-0.036124539 0.022893036 0.18295199
-0.039927326 0.016861834 0.18339399
-0.044161599 0.0092064049 0.18389307
-0.044948388 0.0042268145 0.18159363
-0.043145847 -0.0084780995 0.18879639
-0.041469473 -0.0093860393 0.19228145
-0.040949356 -0.0072847055 0.1928854
-0.040274192 -0.0056574247 0.19563334
-0.04017419 -0.0060858643 0.19982518
-0.040718049 -0.0070880386 0.20274757
-0.041781697 -0.0085097151 0.20708027
-0.043132048 -0.010121846 0.21087499
-0.041846633 -0.014816586 0.2143126
-0.041100476 -0.018797247 0.21737751
-0.04129966 -0.021968503 0.22021256
-0.041286543 -0.024619568 0.22184604
-0.033514719 0.041649166 0.17715161
-0.033242919 0.039895125 0.1787422
-0.033388972 0.034871083 0.18077333
-0.033428021 0.031636592 0.18190022
-0.032784358 0.029726807 0.18279624
-0.032535706 0.026878199 0.18366902
-0.033325866 0.022817429 0.1834745
-0.034189451 0.019388987 0.18290247
-0.041141871 0.01185123 0.18262699
-0.040779788 0.0058147428 0.18036084
-0.039597273 0.0018889246 0.17971651
-0.038497213 -0.0068530678 0.18583418
-0.037748318 -0.006186848 0.19074692
-0.037297416 -0.0048013977 0.194638
-0.037000533 -0.0056765531 0.19942161
-0.03773145 -0.0073784092 0.2028598
-0.03900151 -0.0093896966 0.20699812
-0.040188201 -0.011923782 0.21084502
-0.039044403 -0.015973197 0.21367317
-0.037670482 -0.019541124 0.21697287
-0.038192682 -0.022555519 0.2194865
-0.037718453 -0.024325021 0.22128467
-0.030623447 0.042064834 0.17771353
-0.03022676 0.040227387 0.17934389
-0.030393131 0.035603061 0.18145892
-0.030401597 0.032403823 0.18276377
-0.02984464 0.030339042 0.18368515
-0.030108465 0.027166681 0.18457209
-0.030408518 0.023699233 0.18446988
-0.030125447 0.021039439 0.18415362
-0.034741282 0.015160572 0.18235588
-0.036191534 0.0075138374 0.18075623
-0.032432426 0.0046472973 0.18192959
-0.032238234 0.0011719454 0.18474619
-0.033572566 -0.0024870164 0.18872602
-0.034015242 -0.0034071789 0.19212249
-0.033933524 -0.0062111118 0.20086159
-0.034537818 -0.0082179466 0.20329627
-0.036088992 -0.010855981 0.20724072
-0.036907915 -0.013882075 0.21087652
-0.034916647 -0.016942192 0.21399285
-0.034016833 -0.019296676 0.21807466
-0.033905987 -0.021506367 0.21996416
-0.034414511 -0.024066206 0.22233365
-0.033964325 -0.025061943 0.22501953
-0.027433185 0.042402226 0.17850688
-0.027079729 0.040628068 0.17988709
-0.026545566 0.037587725 0.18163182
-0.027267506 0.033722661 0.18298019
-0.02702258 0.030872706 0.1843157
-0.027242409 0.02750078 0.18557705
-0.027700108 0.024365924 0.18568942
-0.027948936 0.021366354 0.18525358
-0.029174181 0.016770234 0.18436106
-0.031011324 0.010030805 0.18244001
-0.026968829 0.0060660145 0.18685228
-0.026221769 0.0030151848 0.18978547
-0.025781056 0.00011315428 0.19460061
-0.026835447 -0.0042120842 0.20097376
-0.028964389 -0.007028095 0.20408072
-0.03103522 -0.0092934864 0.20673551
-0.032766994 -0.012420116 0.20994173
-0.032083653 -0.015240434 0.21425311
-0.031231605 -0.017572178 0.21680917
-0.031315546 -0.019721687 0.21927834
-0.03124856 -0.021791674 0.22112985
-0.031406455 -0.023838518 0.22328301
-0.031090744 -0.024481436 0.22571661
-0.025225997 0.043034527 0.17874901
-0.023605159 0.041119013 0.18052648
-0.022590045 0.038811661 0.18181999
-0.022857342 0.035325401 0.18351607
-0.023392327 0.03157977 0.18532734
-0.023699801 0.028485566 0.18689615
-0.024963392 0.024907732 0.18693669
-0.025846358 0.021300267 0.18669
-0.025585603 0.017753841 0.18712094
-0.02419924 0.014422398 0.18779595
-0.022488302 0.0089978967 0.19007716
-0.022432756 0.0047063585 0.19350412
-0.022913594 0.001260792 0.19782667
-0.024182785 -0.0034201355 0.20375088
-0.025764653 -0.0066493363 0.20771541
-0.026979836 -0.0097627062 0.21094753
-0.027806086 -0.013018334 0.2147056
-0.027867833 -0.015808636 0.21814947
-0.028562849 -0.018658631 0.21981415
-0.02940149 -0.020384988 0.22078076
-0.028795838 -0.021939825 0.22159918
-0.028248716 -0.02327791 0.2234275
-0.028007954 -0.024639295 0.22621372
-0.019376559 0.04145743 0.18194294
-0.019410694 0.038730953 0.18346286
-0.018170718 0.035881337 0.18528268
-0.018819932 0.032738797 0.18678018
-0.019468181 0.029712843 0.18846697
-0.020214286 0.026361248 0.18965226
-0.023010412 0.021435099 0.1890448
-0.022935728 0.018726598 0.18919317
-0.022145914 0.016100444 0.19017239
-0.020886429 0.012274158 0.19129436
-0.019894904 0.0073689362 0.19433179
-0.019979415 0.0021521091 0.20076731
-0.020860394 -0.0030454928 0.20651501
-0.022036774 -0.0073964079 0.21237217
-0.022936983 -0.010412821 0.21537401
-0.023605172 -0.013307568 0.21877547
-0.024634773 -0.015902152 0.2204286
-0.02539986 -0.018372219 0.22179519
-0.026558142 -0.020319378 0.22254692
-0.025919143 -0.02196905 0.22206233
-0.025332106 -0.023566078 0.22332837
-0.025163475 -0.024953462 0.22660939
-0.015754769 0.039067924 0.18504739
-0.014845977 0.036297243 0.18655083
-0.01509744 0.033523783 0.18809959
-0.015334205 0.030870112 0.18969348
-0.014515947 0.027974078 0.19153661
-0.014204824 0.024250729 0.19365957
-0.019911664 0.020190911 0.19150777
-0.019495068 0.017016428 0.19282202
-0.017997013 0.013128459 0.19421053
-0.016824713 0.008535238 0.19864997
-0.01694973 0.0036436147 0.20336102
-0.01759051 -0.0021451942 0.20912221
-0.018656904 -0.0075930352 0.21570082
-0.019103777 -0.011015395 0.21883684
-0.019145627 -0.014007168 0.22183903
-0.020992346 -0.015890971 0.2222847
-0.022380361 -0.01773366 0.22357053
-0.023158999 -0.019299928 0.22362943
-0.023096712 -0.020925872 0.2230964
-0.022496024 -0.022820145 0.2243132
-0.022724601 -0.025215006 0.2282007
-0.011825929 0.036668766 0.18757233
-0.011475963 0.034169529 0.18888851
-0.011241559 0.031688999 0.19039384
-0.010561175 0.028702147 0.19208632
-0.0090788435 0.02472627 0.19590403
-0.01129678 0.019568708 0.19748275
-0.014605591 0.016019853 0.19732577
-0.01392105 0.012274764 0.19926049
-0.014209667 0.009141569 0.20202926
-0.014596287 0.0053698584 0.20486832
-0.014826558 -0.0010757236 0.21106572
-0.015022782 -0.0077489228 0.21789391
-0.014587043 -0.010691299 0.22072096
-0.01435556 -0.013359292 0.22331938
-0.015108351 -0.01559342 0.22432972
-0.018191325 -0.016867261 0.22367017
-0.019581215 -0.018561091 0.22360595
-0.020030666 -0.020642165 0.22406922
-0.020230532 -0.02287606 0.22621566
-0.020066267 -0.025088737 0.22982354
-0.0088536721 0.034369159 0.18963848
-0.0075344075 0.031991541 0.19147405
-0.0062830728 0.028776633 0.19454776
-0.0056918231 0.024318229 0.19782539
-0.0072351783 0.019101253 0.20042019
-0.009978231 0.015343386 0.20188014
-0.010892413 0.012391413 0.2035224
-0.011455202 0.0097245751 0.2049939
-0.01204846 0.0064290026 0.20675018
-0.012425757 0.00076874567 0.21143277
-0.010846742 -0.0068439888 0.219032
-0.010324595 -0.0097441906 0.22193059
-0.010403823 -0.012572794 0.22422679
-0.010898354 -0.014809917 0.22565596
-0.012773586 -0.016429586 0.22552964
-0.014947847 -0.018182959 0.22601384
-0.016451383 -0.020842247 0.22705646
-0.017706795 -0.024342414 0.23047538
-0.0030210814 0.030444443 0.19521397
-0.0026803091 0.026945051 0.19760081
-0.0034662643 0.022589413 0.19996047
-0.0046785581 0.0199409 0.20153414
-0.0064684818 0.015547927 0.20386691
-0.0075379526 0.012533138 0.20602651
-0.0081950892 0.0097713303 0.20779842
-0.0087273596 0.0065683033 0.21027617
-0.010129225 0.0026117398 0.21208623
-0.0068608355 -0.0056820498 0.21995369
-0.0065491511 -0.0090514123 0.22326955
-0.0068287943 -0.012172577 0.22473069
-0.0077013415 -0.014674339 0.2265888
-0.0085694222 -0.01677339 0.22783197
-0.010465112 -0.018988866 0.22934677
-0.013243521 -0.02142334 0.22992586
-0.015556211 -0.023691235 0.23094219
0.000175804 0.025115374 0.19916105
-0.00054023624 0.021844832 0.20115808
-0.00019370584 0.018987326 0.20311707
-0.002055662 0.016292937 0.20477909
-0.0032423071 0.012037315 0.20737845
-0.003306478 0.008747221 0.21006274
-0.0034256873 0.0057777511 0.21241075
-0.0029695102 -0.0039584725 0.22020508
-0.0028773842 -0.0086051188 0.22385761
-0.0033800355 -0.012234207 0.2254273
-0.0042915507 -0.014870109 0.22730774
-0.005552873 -0.017023386 0.22876658
-0.0073697041 -0.018988157 0.23077878
0.0022334184 0.023507753 0.20004456
0.0019911539 0.021255847 0.20137478
0.0019906473 0.018859208 0.20296969
0.0018682263 0.015946407 0.20554174
0.0013383814 0.011696263 0.20824811
0.00099143351 0.008377227 0.21082374
0.00086934702 0.0057516205 0.21311662
0.00016502266 0.0029411714 0.21565619
0.00059224514 -0.0016675785 0.21904963
0.00017329209 -0.0070946258 0.22286312
-0.00073194469 -0.011696781 0.22580764
0.0040801954 0.020526381 0.20150264
0.0052989661 0.018749423 0.20318961
0.0049778661 0.015480074 0.20625617
0.0043631131 0.011859969 0.20860849
0.0040437072 0.0088882046 0.21090247
0.0037475415 0.0068105636 0.21306849
0 0 0 1 0 0 0 1 0 0 0 1 0 0 0 0 0 348 1 0 0
