ply
format ascii 1.0
comment PCL generated
element vertex 348
property float x
property float y
property float z
element camera 1
property float view_px
property float view_py
property float view_pz
property float x_axisx
property float x_axisy
property float x_axisz
property float y_axisx
property float y_axisy
property float y_axisz
property float z_axisx
property float z_axisy
property float z_axisz
property float focal
property float scalex
property float scaley
property float centerx
property float centery
property int viewportx
property int viewporty
property float k1
property float k2
end_header
-0.056771021 0.023627194 0.18849216
-0.057285074 0.021076577 0.19029433
-0.057651974 0.017944468 0.19183703
-0.057917912 0.014997085 0.19341438
-0.058138385 0.012223356 0.19505472
-0.058198873 0.009661736 0.19664785
-0.057918437 0.0070904801 0.19821085
-0.053812828 0.025350811 0.18475184
-0.054737069 0.024341686 0.1857812
-0.054601356 0.021674216 0.18716775
-0.054817524 0.018391764 0.18891478
-0.055029783 0.014961503 0.19059497
-0.055578109 0.011821309 0.19239797
-0.05618434 0.0089794463 0.19482471
-0.056121647 0.0056947758 0.19644329
-0.055274349 0.0017251372 0.19689903
-0.055085462 -0.00091459526 0.19937399
-0.050912883 0.027515717 0.18196122
-0.05143116 0.025945507 0.18296307
-0.051567905 0.024034895 0.1839489
-0.051847346 0.021966713 0.18526126
-0.051945813 0.018641816 0.18700369
-0.051892407 0.014504361 0.18888111
-0.05237297 0.011099683 0.19049431
-0.052722234 0.00779043 0.19255246
-0.053444855 0.0037112806 0.1937184
-0.053131137 1.6722935e-05 0.19639429
-0.053429816 -0.0022337048 0.19933686
-0.05404469 -0.0034224901 0.20240283
-0.053739518 -0.0043167281 0.20474754
-0.053486381 -0.0047310549 0.20612678
-0.048419219 0.028478928 0.18074176
-0.048805535 0.026468094 0.18153958
-0.049117129 0.024388986 0.18269879
-0.049425639 0.022194007 0.18416239
-0.04947884 0.019031087 0.1860031
-0.049251322 0.013354273 0.18721873
-0.049753673 0.009624403 0.18925898
-0.050367203 0.0059222984 0.19058034
-0.052171204 0.00039430303 0.19271576
-0.051599979 -0.0026144944 0.19567093
-0.051039543 -0.0042837658 0.19787085
-0.051010557 -0.0046594376 0.20061798
-0.0511024 -0.0041714576 0.20425355
-0.05152062 -0.0045819632 0.20746195
-0.051731445 -0.0060889549 0.21072915
-0.051124379 -0.0086282641 0.21489976
-0.04513884 0.031624906 0.17931738
-0.045560539 0.029617224 0.18005085
-0.046116646 0.027137581 0.18102537
-0.04659589 0.024968047 0.18215664
-0.047025975 0.022501728 0.18350826
-0.047218248 0.019288994 0.18489607
-0.047103237 0.013968172 0.18583114
-0.048145693 0.0083823204 0.18792759
-0.0495991 0.0035368449 0.18918876
-0.051077373 -0.0027323717 0.19265194
-0.050730761 -0.0066570379 0.19488026
-0.049989916 -0.0071162968 0.19669558
-0.048750501 -0.0050646416 0.19896053
-0.047878798 -0.0041492782 0.20392808
-0.04788667 -0.0047450578 0.2075794
-0.048685852 -0.0070863799 0.2109957
-0.049380593 -0.0096429251 0.21434022
-0.050201394 -0.012857004 0.21816047
-0.042644899 0.033529345 0.17872362
-0.043098953 0.030351527 0.1800642
-0.043012116 0.028015314 0.18079525
-0.044042245 0.025619797 0.18181907
-0.044354197 0.023265461 0.18266417
-0.044426322 0.020198714 0.18359207
-0.044740781 0.015728377 0.18454844
-0.047206353 0.0077783479 0.18677624
-0.049461775 0.0012134534 0.18804087
-0.049522255 -0.0059766001 0.19178511
-0.048476581 -0.008481212 0.19394279
-0.046934392 -0.007346529 0.1963304
-0.045880284 -0.0050178403 0.19826272
-0.044889756 -0.0043576746 0.20341429
-0.044439886 -0.0052864724 0.20743321
-0.044498779 -0.0070601818 0.21101674
-0.046056993 -0.010139224 0.2142849
-0.047975171 -0.014099023 0.21806124
-0.048088644 -0.017982198 0.2207333
-0.04749161 -0.02081478 0.22211102
-0.039184634 0.039085507 0.17727274
-0.039510444 0.035906084 0.17881894
-0.038221702 0.032901913 0.18003941
-0.039362799 0.03032607 0.18075113
-0.039959069 0.027666455 0.18137927
-0.040977202 0.024232926 0.18202311
-0.041011106 0.020990662 0.18237427
-0.042536076 0.016044378 0.18377438
-0.046090338 0.0078049791 0.18511531
-0.047936611 0.0023367472 0.18466541
-0.047252867 -0.0071633165 0.19019483
-0.044946928 -0.008447052 0.19339456
-0.043474484 -0.0065258434 0.19605729
-0.043179877 -0.0051623797 0.19722109
-0.042230636 -0.0049148924 0.20157513
-0.042331446 -0.0062304037 0.20532289
-0.043395195 -0.0078350017 0.20856734
-0.044881213 -0.0092694545 0.21195616
-0.044828907 -0.014217229 0.21603654
-0.044620149 -0.018343981 0.21910194
-0.045108393 -0.021856558 0.22161107
-0.044347696 -0.024253126 0.22257806
-0.036693532 0.040721647 0.1769044
-0.036200274 0.038865481 0.17860718
-0.035881083 0.034337044 0.1799141
-0.036416005 0.031691927 0.1808003
-0.035964765 0.029405953 0.18166426
-0.035754595 0.025862746 0.18286557
-0.036122635 0.022866385 0.18286937
-0.03994564 0.016873509 0.18329148
-0.044266492 0.0092637548 0.18358956
-0.0451626 0.0043055289 0.181245
-0.043172467 -0.0083923694 0.18873361
-0.04149437 -0.0092654806 0.19220982
-0.040993195 -0.0071601197 0.19280045
-0.04033488 -0.0054642805 0.19559683
-0.040227085 -0.0058278893 0.19984123
-0.040766418 -0.0068569081 0.20276134
-0.041809294 -0.0082982443 0.20719351
-0.043173745 -0.0099374894 0.21097818
-0.041873105 -0.014748755 0.21440895
-0.041107588 -0.018794587 0.21747208
-0.041297458 -0.02195896 0.22028637
-0.041273955 -0.024616068 0.22189112
-0.033557292 0.041649804 0.17714326
-0.03327094 0.039887447 0.17872177
-0.033394691 0.03481942 0.18071955
-0.033421796 0.031585746 0.18184561
-0.032773219 0.029684326 0.18275028
-0.032533597 0.026854407 0.1836156
-0.033330705 0.022798117 0.18339452
-0.034186576 0.019376891 0.18280323
-0.041217856 0.011907302 0.18231961
-0.040957209 0.0058720186 0.17992504
-0.039783169 0.0019262366 0.17927071
-0.038565874 -0.0067677251 0.18568723
-0.037811417 -0.00605762 0.1906551
-0.03737691 -0.0046156375 0.19458792
-0.037079595 -0.0054226038 0.19943003
-0.037815519 -0.0071856389 0.20284691
-0.03903152 -0.0091775041 0.2071072
-0.040226031 -0.011744491 0.21094267
-0.039060552 -0.015921174 0.21378155
-0.037668761 -0.019543873 0.21706851
-0.038183503 -0.022547808 0.21956825
-0.037702978 -0.024304381 0.22134344
-0.030657435 0.04207021 0.17770094
-0.030248968 0.040225685 0.17932923
-0.030410904 0.035567712 0.18142696
-0.030418871 0.032359604 0.18272386
-0.029868159 0.030306421 0.18364601
-0.030131016 0.027143778 0.18451943
-0.030417973 0.023681121 0.18438812
-0.030123388 0.021021409 0.18405762
-0.0347527 0.01517518 0.182218
-0.036255192 0.0075583928 0.1805165
-0.032489307 0.0046262993 0.18150507
-0.032300528 0.0011749909 0.18442176
-0.033656366 -0.0023977123 0.18855183
-0.034094334 -0.0032508508 0.19204006
-0.034041386 -0.0060244366 0.20090361
-0.034679957 -0.0081135752 0.20329328
-0.036134504 -0.010690002 0.20734715
-0.036951169 -0.013753483 0.21098495
-0.034930661 -0.016927348 0.21409525
-0.034014832 -0.019298371 0.21816136
-0.033892952 -0.021489196 0.22003905
-0.034401234 -0.024037775 0.2224019
-0.033936799 -0.025021734 0.22508532
-0.027458332 0.042410024 0.17850216
-0.027097577 0.040632527 0.179888
-0.02656446 0.037580159 0.18164495
-0.027310209 0.033704482 0.18296905
-0.02706641 0.030853545 0.18430962
-0.027281651 0.027479867 0.18555631
-0.027721953 0.024350571 0.18563202
-0.027954852 0.021354254 0.18517441
-0.029161457 0.016750669 0.1842418
-0.031027883 0.010046678 0.18225271
-0.026992308 0.006083305 0.18675503
-0.026293326 0.0030451748 0.18961532
-0.025815463 0.00011277309 0.19446781
-0.026972506 -0.0041762888 0.20106144
-0.029187381 -0.0069155777 0.20426045
-0.031110497 -0.0092093656 0.20685945
-0.032852475 -0.01234045 0.21005847
-0.032145157 -0.015210008 0.21435711
-0.031252209 -0.01756254 0.21689582
-0.031321201 -0.019715566 0.21936344
-0.031247178 -0.021772832 0.22120073
-0.031387448 -0.023804361 0.22334652
-0.031058669 -0.024444433 0.22576515
-0.025246728 0.043043036 0.17875335
-0.023611605 0.041118145 0.18054911
-0.022598809 0.038808696 0.18185551
-0.022892313 0.035318859 0.18355505
-0.023438105 0.031568017 0.18535595
-0.023746587 0.028471773 0.1869064
-0.024999002 0.024896653 0.18691339
-0.025872821 0.021279808 0.18662392
-0.025599085 0.017738732 0.18702865
-0.024201756 0.014425186 0.18769762
-0.022477737 0.0090112006 0.18999816
-0.022443481 0.0047166105 0.1934616
-0.022938721 0.0012785717 0.19782434
-0.024226498 -0.0034266815 0.20382574
-0.025837967 -0.0066572553 0.20783231
-0.027070254 -0.0097517883 0.21107177
-0.027880784 -0.013018334 0.21481504
-0.027917108 -0.015812216 0.21824068
-0.028593298 -0.01865359 0.21988325
-0.029418791 -0.020375198 0.22084138
-0.028806677 -0.021918572 0.22164954
-0.028246917 -0.023255331 0.22346859
-0.027984286 -0.024614835 0.22623412
-0.019381084 0.041455302 0.18200697
-0.019415667 0.038729284 0.1835254
-0.018170297 0.035877042 0.1853518
-0.01883203 0.032724753 0.18683022
-0.019497981 0.029693292 0.18849261
-0.020249423 0.026338693 0.18965249
-0.023058467 0.021414451 0.18898605
-0.022967028 0.018725004 0.18910965
-0.022161143 0.016114371 0.19007887
-0.020883527 0.012298298 0.19120114
-0.019888666 0.0073818634 0.19426677
-0.019983793 0.002151127 0.2007668
-0.020886298 -0.0030702914 0.20658533
-0.02210159 -0.0074301478 0.21248499
-0.023000559 -0.010443857 0.21547137
-0.023654908 -0.01333179 0.21885653
-0.02466948 -0.015909087 0.22048721
-0.025425145 -0.018368455 0.2218302
-0.026564846 -0.020307468 0.22257395
-0.025934381 -0.021956835 0.22208491
-0.025335403 -0.023547404 0.2233419
-0.025145711 -0.024939505 0.22661784
-0.015749374 0.039058052 0.18514013
-0.014840399 0.036282696 0.18663302
-0.015092666 0.033508252 0.18816969
-0.015334546 0.030855937 0.18974842
-0.01450993 0.02796022 0.19158356
-0.014181572 0.024238301 0.19369647
-0.01994488 0.02021238 0.19143623
-0.01952504 0.017043144 0.19273677
-0.018010734 0.013158194 0.19413488
-0.016812772 0.0085349623 0.19860728
-0.016935557 0.0036343937 0.20336303
-0.017596584 -0.0021653776 0.20918466
-0.018694853 -0.0076409504 0.21580315
-0.019143594 -0.011059643 0.2189174
-0.019168161 -0.0140438 0.22189499
-0.02101789 -0.015903207 0.22233172
-0.022396147 -0.017731123 0.22358201
-0.02316707 -0.019288577 0.22363089
-0.023109058 -0.020907767 0.22309329
-0.022503084 -0.02279165 0.22430731
-0.022718815 -0.025196111 0.22819673
-0.011808182 0.036650456 0.18765394
-0.011458373 0.034148615 0.18896422
-0.011220111 0.031669326 0.19045922
-0.010528154 0.028683348 0.19215728
-0.0090166926 0.024687806 0.19599418
-0.011284648 0.019549733 0.19748507
-0.014600467 0.016012635 0.1972765
-0.013887731 0.012254892 0.19921145
-0.014173512 0.0091252979 0.20198885
-0.014567373 0.0053583444 0.20485249
-0.014820889 -0.0010960213 0.21112187
-0.015042516 -0.0078040259 0.21798278
-0.014592062 -0.010746174 0.22078855
-0.014347881 -0.013409873 0.22335099
-0.015103726 -0.015633477 0.22432974
-0.018195124 -0.0168794 0.22366643
-0.019593047 -0.018550677 0.22359063
-0.02005217 -0.020620519 0.2240531
-0.020245884 -0.022842381 0.22620355
-0.02007591 -0.02506345 0.22981545
-0.008830566 0.03434296 0.18971458
-0.0074967626 0.031963795 0.19155969
-0.0062279198 0.028754184 0.19467591
-0.0056378022 0.024273407 0.19792074
-0.0071945963 0.019058775 0.20044841
-0.0099372994 0.015292739 0.2018768
-0.010841266 0.012345729 0.20349902
-0.011404303 0.0096942689 0.20497158
-0.012013515 0.0064045941 0.20673805
-0.012414902 0.00074246235 0.21146546
-0.010846298 -0.006908725 0.21911056
-0.010313362 -0.0098081054 0.22198917
-0.010390331 -0.012638513 0.22426686
-0.010884768 -0.014873899 0.22567554
-0.01276387 -0.016478239 0.22552817
-0.014955601 -0.018200209 0.22597913
-0.016481224 -0.020835405 0.22703284
-0.017741473 -0.024320876 0.23046771
-0.0029592325 0.030415386 0.19533853
-0.0026229995 0.026902322 0.19770791
-0.0034259965 0.022537015 0.20000856
-0.0046501281 0.019889658 0.2015629
-0.006434659 0.01550767 0.20388836
-0.0074961837 0.012486707 0.20604084
-0.0081578484 0.0097407009 0.20781779
-0.0087053832 0.0065425634 0.21030062
-0.010123554 0.0025885145 0.21210574
-0.0068470789 -0.0057544797 0.22002386
-0.006530148 -0.0091297068 0.22332495
-0.0068153371 -0.012253864 0.22477947
-0.0076859123 -0.014759238 0.22662416
-0.0085606035 -0.016852489 0.22785902
-0.010466669 -0.019047534 0.2293527
-0.013269097 -0.021438207 0.22991778
-0.015596583 -0.023680393 0.23093349
0.00022881929 0.025082832 0.19926348
-0.0005083931 0.021804785 0.20123395
-0.00017171538 0.018945269 0.20318843
-0.0020314322 0.016248237 0.20482369
-0.0032169034 0.012006548 0.20743942
-0.0032842709 0.0087150149 0.21013002
-0.003402882 0.0057450011 0.21246599
-0.0029554456 -0.0040239007 0.22027472
-0.0028545968 -0.0086994441 0.22391409
-0.0033621017 -0.012336263 0.2254765
-0.004273898 -0.014973772 0.22734918
-0.0055419747 -0.017123792 0.22880818
-0.0073660281 -0.019081421 0.23081197
0.002275402 0.023486054 0.20017721
0.0020221351 0.02123305 0.20149416
0.00201266 0.018834082 0.20307927
0.001891311 0.015921144 0.20564002
0.0013591137 0.011664637 0.20833828
0.0010151396 0.0083425101 0.21090762
0.0008956141 0.0057218275 0.21319212
0.00018676691 0.0029151565 0.21572539
0.00060788781 -0.0016938061 0.21912615
0.00018876954 -0.0071750586 0.2229282
-0.00071131688 -0.011809668 0.22585766
0.004109608 0.02051959 0.20165391
0.0053198938 0.018753687 0.20334964
0.0049956599 0.015468829 0.20638922
0.0043847342 0.011831022 0.20871265
0.004068071 0.0088567436 0.21099778
0.003771628 0.0067864219 0.21316324
0 0 0 1 0 0 0 1 0 0 0 1 0 0 0 0 0 348 1 0 0
