ply
format ascii 1.0
comment PCL generated
element vertex 348
property float x
property float y
property float z
element camera 1
property float view_px
property float view_py
property float view_pz
property float x_axisx
property float x_axisy
property float x_axisz
property float y_axisx
property float y_axisy
property float y_axisz
property float z_axisx
property float z_axisy
property float z_axisz
property float focal
property float scalex
property float scaley
property float centerx
property float centery
property int viewportx
property int viewporty
property float k1
property float k2
end_header
-0.056765012 0.023581518 0.1883979
-0.057316344 0.021055717 0.19037656
-0.057683658 0.017923446 0.19189289
-0.057949297 0.014982608 0.19344763
-0.058173116 0.012216107 0.19506846
-0.058236036 0.0096622696 0.19665106
-0.057956312 0.0070959493 0.198211
-0.053869806 0.025325092 0.18482989
-0.054796644 0.024326656 0.18586701
-0.054646201 0.021657867 0.18723804
-0.054859295 0.018378865 0.18897118
-0.055067707 0.014957094 0.19062681
-0.055616762 0.011827576 0.1924084
-0.056222249 0.0089909993 0.19482365
-0.05615988 0.0056853788 0.1963198
-0.055328459 0.0017126043 0.19681679
-0.055119015 -0.00092107675 0.19930474
-0.050974652 0.027462156 0.18199161
-0.051489208 0.025899995 0.18300122
-0.051618826 0.023995368 0.18398972
-0.051891502 0.021935733 0.18530864
-0.051985323 0.018628536 0.18704247
-0.051940158 0.014522157 0.18888716
-0.052427694 0.011127723 0.19047721
-0.052796025 0.0077754366 0.19236669
-0.053531252 0.0037001423 0.19356212
-0.05317574 1.9896834e-05 0.19631299
-0.053452756 -0.0022276568 0.1992701
-0.054053646 -0.003416836 0.20234834
-0.053733945 -0.0043062819 0.20470472
-0.053481642 -0.0047148834 0.20609653
-0.048475657 0.028420709 0.18075451
-0.048867352 0.026417613 0.18155795
-0.049174011 0.024348292 0.18271956
-0.049471729 0.022153936 0.18418387
-0.049500816 0.018998748 0.18601474
-0.049307458 0.013390143 0.18718205
-0.049825788 0.0096599143 0.18920685
-0.050482597 0.0059112506 0.19033627
-0.052239798 0.00039810385 0.19261673
-0.051626861 -0.002600122 0.19559506
-0.051047195 -0.0042608585 0.19780459
-0.051006403 -0.0046282471 0.20057033
-0.05108016 -0.0041233827 0.20422877
-0.051510327 -0.0045347498 0.20743895
-0.051735163 -0.0060403845 0.21071193
-0.051231168 -0.0085306251 0.21496503
-0.045180287 0.031553116 0.17932151
-0.045612413 0.029553669 0.18005142
-0.04617881 0.027085228 0.18102819
-0.046652235 0.024928529 0.18216068
-0.047072586 0.022468066 0.18350813
-0.047244471 0.019257959 0.18489386
-0.047144488 0.013981551 0.18579739
-0.048254352 0.008401135 0.18762128
-0.049732599 0.0035347559 0.18895258
-0.051126458 -0.0027169245 0.19257185
-0.0507426 -0.0066247466 0.19483079
-0.049984723 -0.0070693111 0.19665922
-0.048743021 -0.0050082533 0.19891798
-0.047850166 -0.0040663644 0.20390819
-0.047857989 -0.0046944208 0.20755704
-0.048774675 -0.0069730077 0.21106055
-0.049471151 -0.0095329331 0.21443154
-0.050287087 -0.012827084 0.21825352
-0.042671967 0.033453483 0.17872706
-0.04313786 0.030281281 0.18005885
-0.043062989 0.02795836 0.18078953
-0.044105995 0.025580008 0.18180613
-0.044409875 0.023235563 0.18264285
-0.044463176 0.020177424 0.18356679
-0.044769991 0.015732016 0.18451391
-0.047326963 0.0077964696 0.18643589
-0.049582619 0.0012358463 0.18783113
-0.049559761 -0.005945974 0.19172278
-0.048482858 -0.0084303394 0.19389924
-0.046929963 -0.0072764754 0.19628061
-0.045875158 -0.0049348185 0.19821669
-0.044858549 -0.0042547211 0.20339669
-0.044407744 -0.0052414536 0.20740895
-0.044575732 -0.0068846797 0.21111259
-0.046154894 -0.010029595 0.21443455
-0.048050914 -0.014089132 0.21818195
-0.048135035 -0.017979423 0.22085732
-0.047519211 -0.02080781 0.22223453
-0.039216168 0.039045345 0.17729746
-0.039525941 0.035834111 0.17882411
-0.038221493 0.032834787 0.18001391
-0.039366934 0.030266149 0.18072437
-0.03997495 0.02762603 0.18135235
-0.041021418 0.024215857 0.18198436
-0.041057691 0.020978294 0.18232042
-0.042577218 0.01605659 0.18372932
-0.046226293 0.007831119 0.1847457
-0.048111182 0.0023751315 0.18435267
-0.047296736 -0.0071153198 0.19012998
-0.0449588 -0.0083697606 0.19332767
-0.043474726 -0.0064259269 0.19598556
-0.043180171 -0.0050460175 0.19716552
-0.042197995 -0.0047598579 0.20155729
-0.042276859 -0.0061107078 0.20529227
-0.043448374 -0.0076427455 0.20871039
-0.044959392 -0.009111342 0.21209881
-0.044891041 -0.014163012 0.21616775
-0.04466591 -0.018324558 0.21924041
-0.045128219 -0.021835929 0.22173697
-0.044360656 -0.024231456 0.22268742
-0.036740642 0.04070536 0.17692208
-0.036233254 0.038841359 0.1786084
-0.035886098 0.034285374 0.17988388
-0.036409855 0.031646393 0.18077253
-0.035955701 0.029371006 0.18164523
-0.035750873 0.025836932 0.18284838
-0.036129907 0.022845153 0.18284117
-0.039973777 0.016888322 0.18325171
-0.044404749 0.0092768446 0.18319228
-0.045379557 0.0043417951 0.18082763
-0.043245066 -0.0083154449 0.18863489
-0.041537374 -0.0091713993 0.19208409
-0.041039366 -0.0070651225 0.19266216
-0.040365644 -0.0053115529 0.1955045
-0.040205706 -0.0056319498 0.19980875
-0.040693603 -0.0066765998 0.20274858
-0.041841228 -0.0080701495 0.20734623
-0.043225888 -0.0097358115 0.21111779
-0.041910477 -0.014662249 0.21455105
-0.041131094 -0.018770253 0.21762231
-0.041313972 -0.021922654 0.22041781
-0.041283149 -0.02458578 0.22199132
-0.033605531 0.041645586 0.17714366
-0.033305749 0.039879363 0.17871475
-0.033412419 0.034777138 0.18069574
-0.033429362 0.031546175 0.18182677
-0.032775644 0.029653985 0.18274279
-0.032542724 0.026840758 0.18360262
-0.033344354 0.022785621 0.18337053
-0.034194611 0.019369142 0.18277459
-0.041316774 0.011923271 0.18191051
-0.041137688 0.0059000021 0.17942773
-0.039964426 0.001946024 0.17877916
-0.038696509 -0.006686124 0.18545875
-0.037898865 -0.005962986 0.19047222
-0.037430882 -0.0044910908 0.19443734
-0.037075374 -0.0052545643 0.1993285
-0.037760943 -0.0070601064 0.202757
-0.039062772 -0.0089371596 0.20726831
-0.040267989 -0.011537597 0.21109089
-0.039087892 -0.015842009 0.21394886
-0.037685946 -0.019518949 0.21722959
-0.038194973 -0.022511985 0.21971226
-0.037709352 -0.024260888 0.22145773
-0.03069647 0.042070046 0.17769426
-0.0302772 0.040222865 0.17932467
-0.030439798 0.035541262 0.18142194
-0.030447846 0.032327835 0.18271646
-0.029903797 0.030287238 0.18364176
-0.030165249 0.027135065 0.18450703
-0.03043678 0.0236727 0.18435825
-0.030132847 0.021013018 0.18402854
-0.03477319 0.015194312 0.18216515
-0.036319628 0.0076112007 0.18037035
-0.032528527 0.004605928 0.18101652
-0.032337196 0.0011871281 0.18401989
-0.033743151 -0.0023252431 0.18827428
-0.034168392 -0.0031701711 0.19182074
-0.034002211 -0.0059966664 0.20071776
-0.034614 -0.0081641162 0.20307143
-0.036183063 -0.010480681 0.20752171
-0.037001267 -0.013584956 0.21116038
-0.034961697 -0.016883604 0.21426556
-0.03403258 -0.019274838 0.21831702
-0.03390044 -0.021449143 0.22017857
-0.034410238 -0.023994923 0.22252508
-0.033933915 -0.024978368 0.22520284
-0.02748739 0.042412225 0.17850043
-0.027119104 0.040634282 0.17989402
-0.026587185 0.037573431 0.18166788
-0.027361512 0.033696398 0.18298405
-0.027122635 0.030847864 0.18433855
-0.027335862 0.027476335 0.18558055
-0.027756797 0.024351068 0.18562914
-0.027973989 0.021356301 0.1851631
-0.02916139 0.016742086 0.18420753
-0.031056261 0.010073685 0.18216567
-0.027030701 0.0061054407 0.18673708
-0.026337329 0.0031170095 0.18933184
-0.025832599 0.00017275187 0.19421484
-0.026948538 -0.004226821 0.20084031
-0.029101595 -0.0070728259 0.2039915
-0.031199072 -0.0090877097 0.20705229
-0.032952148 -0.012219651 0.21024616
-0.032222334 -0.015154062 0.21452747
-0.031291995 -0.017533774 0.21705273
-0.031346865 -0.019693302 0.21951881
-0.031267229 -0.021741012 0.22133905
-0.031391189 -0.023761747 0.2234717
-0.031050555 -0.024403892 0.22587484
-0.025270326 0.043045297 0.17875773
-0.023619628 0.041113462 0.18057196
-0.022608291 0.038802911 0.18189342
-0.022930741 0.035315227 0.18360907
-0.023496695 0.031569362 0.18542282
-0.023812082 0.028477794 0.18696751
-0.025051426 0.024907 0.1869497
-0.025913257 0.021279005 0.18662903
-0.025626915 0.017739693 0.18701701
-0.024223333 0.014435305 0.1876817
-0.0224896 0.0090248082 0.1899976
-0.022475529 0.0047301883 0.19349441
-0.022987017 0.0013070027 0.19789763
-0.024283776 -0.003417559 0.20396417
-0.025920147 -0.0066475892 0.20800842
-0.027173283 -0.0097197564 0.21125902
-0.027971148 -0.013001998 0.21498969
-0.027984325 -0.015814742 0.21839744
-0.028644064 -0.018644903 0.22002392
-0.029456781 -0.020357402 0.22097352
-0.028840279 -0.021890199 0.22176926
-0.028267682 -0.023227755 0.22357751
-0.027983995 -0.024586143 0.22632042
-0.019385269 0.041449063 0.18206827
-0.019420644 0.038724232 0.1835907
-0.018173162 0.035867579 0.18543364
-0.018852394 0.032710962 0.18691044
-0.01954172 0.02968473 0.18856406
-0.020305393 0.026335727 0.189714
-0.023122186 0.021415859 0.18900183
-0.023014762 0.018735351 0.18910478
-0.022196688 0.016133223 0.19006638
-0.020905485 0.012322905 0.19119124
-0.019906782 0.0073972344 0.19428085
-0.020015657 0.0021651066 0.20084472
-0.02093129 -0.003079375 0.20672439
-0.022179144 -0.0074546356 0.21265714
-0.023074714 -0.010470488 0.21562628
-0.023716155 -0.013357333 0.21899487
-0.024720907 -0.015917646 0.22061035
-0.02546994 -0.018364215 0.22193557
-0.026593244 -0.02029256 0.22267255
-0.025971588 -0.0219413 0.22217827
-0.025360595 -0.023524877 0.22342382
-0.025150239 -0.024922496 0.22669008
-0.015745021 0.0390452 0.18523724
-0.014840603 0.036265016 0.18672842
-0.015097244 0.033489842 0.18826157
-0.01534731 0.03084179 0.18983422
-0.014520591 0.027948076 0.191668
-0.01417884 0.02422954 0.19377889
-0.019998347 0.020240443 0.19144449
-0.019578991 0.017070744 0.19273491
-0.018053373 0.013187663 0.19414449
-0.01682842 0.0085368957 0.19864134
-0.016950792 0.0036396822 0.2034435
-0.017631071 -0.0021648386 0.20932372
-0.018751638 -0.0076795025 0.21596776
-0.019197587 -0.01110285 0.21905288
-0.019203942 -0.014083315 0.2220045
-0.021060398 -0.015918858 0.22244103
-0.022430081 -0.017728405 0.22366217
-0.023195883 -0.0192778 0.22370246
-0.023141686 -0.020889062 0.2231604
-0.022530787 -0.022763174 0.22436801
-0.022732509 -0.025179157 0.22825304
-0.011797578 0.03663028 0.18774937
-0.011451121 0.034123436 0.1890593
-0.011211862 0.031644441 0.19054899
-0.010510609 0.028658617 0.19225597
-0.0089700995 0.024645107 0.1961142
-0.011302358 0.019539872 0.19755597
-0.014625725 0.016008202 0.19730562
-0.013883373 0.012238433 0.19923575
-0.014162211 0.0091125779 0.2020202
-0.014563415 0.005357184 0.20491152
-0.014846873 -0.0010937848 0.21125856
-0.01508552 -0.0078458069 0.21813385
-0.014616097 -0.010793572 0.22090891
-0.014356026 -0.013457219 0.223432
-0.01511497 -0.015671326 0.22438167
-0.01821693 -0.016890619 0.22372255
-0.019624721 -0.018540123 0.22363979
-0.020092778 -0.020598568 0.2241018
-0.02027932 -0.02281197 0.22625236
-0.02010137 -0.025045305 0.22986363
-0.0088177873 0.034311313 0.18980916
-0.007471934 0.031927485 0.19166374
-0.0061834389 0.028721431 0.19481896
-0.0055970442 0.024221575 0.19803913
-0.0071825264 0.019030631 0.20053534
-0.0099235792 0.015253267 0.20193641
-0.010811918 0.012304354 0.20353597
-0.011372113 0.009666767 0.20501034
-0.011997401 0.0063867983 0.2067924
-0.012431114 0.0007361488 0.21157522
-0.010870769 -0.0069562555 0.21924561
-0.010320847 -0.0098623279 0.2220915
-0.01039118 -0.012699442 0.22434518
-0.010884573 -0.014935402 0.22573419
-0.012769024 -0.016524386 0.22557236
-0.014978885 -0.018217172 0.22599913
-0.016524516 -0.020830968 0.22706565
-0.017786974 -0.024309125 0.23051141
-0.0029072422 0.030372357 0.19547097
-0.002576224 0.026846856 0.19782504
-0.0034017062 0.022481004 0.20008203
-0.0046438943 0.01984855 0.20163755
-0.0064236009 0.015480673 0.20396589
-0.0074686352 0.01244363 0.20610102
-0.0081287595 0.0097119715 0.20788185
-0.0086892927 0.0065235044 0.21037684
-0.010135239 0.0025806788 0.21219464
-0.0068563232 -0.0058122356 0.22013809
-0.0065252874 -0.0092024244 0.2234101
-0.006814477 -0.012332675 0.22485393
-0.0076814201 -0.014844491 0.22668643
-0.0085619288 -0.016933668 0.22791424
-0.010477715 -0.019109691 0.22939427
-0.013304736 -0.021458084 0.22995614
-0.015646012 -0.023679456 0.23097283
0.00026885673 0.02504136 0.1993781
-0.00049011159 0.02176014 0.20132869
-0.00016289894 0.018906889 0.20328817
-0.0020227751 0.016215887 0.20491186
-0.0031986593 0.011978177 0.20753442
-0.0032631375 0.0086849835 0.2102305
-0.003379714 0.0057185199 0.21255805
-0.0029585613 -0.0040776939 0.22037484
-0.0028443458 -0.0087921675 0.22398813
-0.0033556358 -0.012439529 0.22554006
-0.004265666 -0.015081326 0.2274058
-0.0055384147 -0.017230514 0.22886723
-0.0073673306 -0.019182058 0.23086542
0.0023043011 0.023458717 0.20032337
0.0020402735 0.021207104 0.20163094
0.002022858 0.018811056 0.20321308
0.0019055036 0.015903255 0.20576903
0.0013750067 0.011640065 0.20845833
0.0010373353 0.0083152326 0.21102086
0.0009218792 0.005700435 0.2132974
0.00021121892 0.0028986041 0.21582577
0.00061755307 -0.0017091656 0.21922848
0.00019152775 -0.0072529893 0.22300465
-0.00070075481 -0.01192707 0.22591312
0.004126667 0.020511229 0.20182261
0.0053305021 0.018760089 0.20353062
0.0050060363 0.015465255 0.2065485
0.0044007455 0.011811313 0.2088431
0.004089864 0.0088338619 0.21111897
0.0037949486 0.0067707761 0.21328245
0 0 0 1 0 0 0 1 0 0 0 1 0 0 0 0 0 348 1 0 0
