ply
format ascii 1.0
comment PCL generated
element vertex 348
property float x
property float y
property float z
element camera 1
property float view_px
property float view_py
property float view_pz
property float x_axisx
property float x_axisy
property float x_axisz
property float y_axisx
property float y_axisy
property float y_axisz
property float z_axisx
property float z_axisy
property float z_axisz
property float focal
property float scalex
property float scaley
property float centerx
property float centery
property int viewportx
property int viewporty
property float k1
property float k2
end_header
-0.056987766 0.023435989 0.18887565
-0.057469323 0.021027265 0.19077012
-0.057840921 0.017893787 0.19222263
-0.058108404 0.014971429 0.19371754
-0.058341157 0.01222048 0.1952778
-0.058404312 0.0096812313 0.19682032
-0.058113631 0.0071213031 0.19835895
-0.054072555 0.025282094 0.18525073
-0.055000983 0.024311483 0.18628779
-0.054814205 0.021640262 0.18762486
-0.055025879 0.018379392 0.18932138
-0.055232696 0.014982146 0.19091755
-0.055789158 0.011884359 0.19262503
-0.056396984 0.0090522217 0.19498791
-0.056338083 0.0056580454 0.19630976
-0.055520505 0.0016831275 0.19673826
-0.055276599 -0.00090211519 0.19927444
-0.051208485 0.027325572 0.182312
-0.051703881 0.025797086 0.18335332
-0.051806156 0.023914652 0.18435086
-0.052058198 0.021880606 0.18568109
-0.052135631 0.01862921 0.18737411
-0.052120652 0.01462863 0.18914296
-0.052638113 0.011267094 0.19065346
-0.05298068 0.007816894 0.19236399
-0.0537121 0.0037181962 0.19351603
-0.053311467 5.7946872e-05 0.19629429
-0.05356719 -0.0021524117 0.19929633
-0.054186966 -0.0033147593 0.20239417
-0.053880814 -0.0041646818 0.2047817
-0.053725716 -0.0046413606 0.20613967
-0.048695263 0.028261919 0.18102497
-0.049098447 0.026289813 0.18186377
-0.049386941 0.024257733 0.18304333
-0.049650121 0.022072425 0.1845161
-0.049615879 0.018940089 0.18632582
-0.049495272 0.013571229 0.18736786
-0.050075207 0.0098269731 0.18932208
-0.050700307 0.0059567941 0.19025818
-0.052351184 0.00041687296 0.1926036
-0.051668551 -0.0025152355 0.19565521
-0.051065326 -0.0041231043 0.19791202
-0.051061042 -0.0044466159 0.20070218
-0.051228423 -0.0038974844 0.204354
-0.051859777 -0.0043777009 0.20750794
-0.052218001 -0.0059416243 0.21079831
-0.051587291 -0.0082212705 0.21526462
-0.045364272 0.031331141 0.17952189
-0.04582819 0.029367421 0.18027854
-0.04641379 0.02694918 0.18129745
-0.046864893 0.024841655 0.18244582
-0.04725543 0.022403127 0.18379518
-0.047375973 0.019202266 0.18518081
-0.047302149 0.014068329 0.18602546
-0.048470087 0.0085313469 0.18748505
-0.049933206 0.003602871 0.18885779
-0.051158022 -0.0026607278 0.19264022
-0.050680697 -0.0064996192 0.19501941
-0.049915094 -0.0068776165 0.19688673
-0.048754361 -0.0047453116 0.19911066
-0.048006169 -0.0036772515 0.20412101
-0.048171271 -0.0043298961 0.20775019
-0.049077369 -0.0066203414 0.21136495
-0.049770463 -0.0091682114 0.21482722
-0.050605457 -0.012685833 0.21864656
-0.042811122 0.033218451 0.17890434
-0.043315291 0.030086471 0.1802654
-0.043265447 0.027811939 0.18103227
-0.044340968 0.025487896 0.18205461
-0.044617977 0.023177318 0.18288234
-0.044620678 0.020143431 0.18380468
-0.044906363 0.015771616 0.18474065
-0.047565021 0.0078995926 0.18627056
-0.04974841 0.0013097947 0.18776539
-0.04950181 -0.0058573554 0.19190201
-0.048356038 -0.0082533527 0.19417064
-0.046853576 -0.0069919592 0.1965483
-0.045889486 -0.0045623775 0.19847052
-0.045007259 -0.0037056282 0.20372231
-0.044708677 -0.0047011161 0.20776364
-0.04487868 -0.0063404227 0.21154706
-0.046496715 -0.0096606705 0.21502781
-0.048357144 -0.014005035 0.21867749
-0.048382677 -0.017893897 0.22140607
-0.047726281 -0.020700326 0.22280416
-0.039354697 0.038923007 0.17746548
-0.039633747 0.03563172 0.17898329
-0.038287256 0.032682262 0.18016787
-0.039447453 0.030138467 0.18090743
-0.04008631 0.027549146 0.18156102
-0.041200463 0.02419685 0.18218717
-0.041236985 0.020967925 0.18249123
-0.042738549 0.016122775 0.18394938
-0.046510499 0.0079859989 0.18455505
-0.048420567 0.0025448038 0.18417622
-0.047197979 -0.0069905752 0.19037017
-0.044830296 -0.0080784084 0.19363308
-0.043413617 -0.0059930314 0.1962831
-0.043181926 -0.0045183674 0.19749025
-0.04231602 -0.0039617796 0.20201226
-0.042445321 -0.0052972767 0.2057786
-0.043658927 -0.0070467237 0.20930938
-0.045236778 -0.0085910205 0.21265765
-0.045148376 -0.013960397 0.21673265
-0.044899922 -0.018195443 0.21985625
-0.045310419 -0.021689229 0.22233836
-0.044533554 -0.024084568 0.22324175
-0.036911417 0.040646128 0.17705019
-0.036368594 0.038785655 0.17871973
-0.035957348 0.034174681 0.17999549
-0.036458082 0.031568609 0.18093222
-0.035994112 0.02932485 0.18184502
-0.035798434 0.025818152 0.18307233
-0.036214992 0.02282658 0.18309118
-0.040104706 0.016962145 0.1835268
-0.044720802 0.0094278781 0.18299161
-0.045820691 0.0045787957 0.18054029
-0.04316467 -0.0081643704 0.1889926
-0.041462652 -0.0088224374 0.19244961
-0.041039672 -0.006692911 0.19295852
-0.040420439 -0.0046502673 0.1958808
-0.040264182 -0.0046767299 0.20035942
-0.040744632 -0.0056931139 0.20337605
-0.041979406 -0.0073538874 0.20802146
-0.043441694 -0.0091070337 0.21173757
-0.042092543 -0.01435669 0.21520658
-0.04130356 -0.018630661 0.21833676
-0.041477546 -0.021732965 0.22107799
-0.041441977 -0.024421567 0.22253492
-0.033771489 0.04160795 0.17720035
-0.033438183 0.039853137 0.17877625
-0.033507183 0.034690924 0.18079665
-0.033509128 0.031486109 0.18198463
-0.03284293 0.029627204 0.18294795
-0.032624379 0.026853945 0.18380968
-0.033449017 0.02278492 0.18364768
-0.034293611 0.019370366 0.18312933
-0.041617189 0.012059728 0.18175364
-0.041568451 0.0060888422 0.17909671
-0.040410321 0.0021048072 0.17844592
-0.038767453 -0.0065537961 0.18569052
-0.037950464 -0.0056306883 0.19076507
-0.037553672 -0.0038187152 0.19479971
-0.037216824 -0.0041935327 0.19990349
-0.037835978 -0.0059947222 0.20343406
-0.039201364 -0.0081345281 0.20802459
-0.040438 -0.010856963 0.21179101
-0.039255802 -0.015509229 0.21474914
-0.037857831 -0.01936288 0.21801575
-0.038352408 -0.022341497 0.22041443
-0.037857462 -0.024094936 0.22204128
-0.030830808 0.042029031 0.17771202
-0.030382808 0.040191293 0.17936656
-0.030552095 0.035482109 0.1815374
-0.030570505 0.032281797 0.18287586
-0.030048948 0.030285021 0.18383296
-0.030314934 0.027168306 0.18471017
-0.03055566 0.023688924 0.18460271
-0.030240227 0.021029366 0.18436116
-0.03488693 0.015270991 0.18253058
-0.036496945 0.0078002242 0.18051387
-0.032886125 0.0046954872 0.18092348
-0.032672394 0.0012893159 0.18404405
-0.033953261 -0.0020998451 0.18844829
-0.034294523 -0.0026362804 0.19209102
-0.034118239 -0.0050430284 0.20139669
-0.034724493 -0.0072708479 0.20380732
-0.036405243 -0.0097146342 0.20838152
-0.037237801 -0.01298328 0.21199074
-0.035176635 -0.016658193 0.21509406
-0.034204226 -0.019157644 0.21908133
-0.034042057 -0.021313334 0.22086674
-0.03456657 -0.023883782 0.22312382
-0.034071624 -0.024913363 0.22577526
-0.027586503 0.042363219 0.17850833
-0.027193259 0.040589698 0.17992832
-0.026658425 0.037513647 0.18176763
-0.027530944 0.033697195 0.18316692
-0.027322829 0.03087903 0.18461411
-0.027545942 0.027533131 0.18589231
-0.027922371 0.024417536 0.18593703
-0.028107919 0.021420218 0.18553285
-0.029250555 0.016763631 0.18462268
-0.031193463 0.010201161 0.18251649
-0.027231608 0.0061995098 0.18720992
-0.026718277 0.00327277 0.18965416
-0.026132379 0.00043112339 0.19466586
-0.027205367 -0.0038362481 0.20155206
-0.0293555 -0.0065317815 0.20481782
-0.031619575 -0.0085326843 0.208059
-0.033399992 -0.011730349 0.21117657
-0.032587744 -0.014927971 0.21537517
-0.031533059 -0.017423112 0.21785188
-0.031544477 -0.019634416 0.2202986
-0.031454362 -0.021675777 0.22205393
-0.03153846 -0.023687463 0.22412232
-0.031175554 -0.02436211 0.22648421
-0.025349556 0.042987276 0.17876469
-0.023647241 0.041043784 0.18062858
-0.02263218 0.038737182 0.18200846
-0.023037804 0.035287403 0.18384677
-0.023696402 0.03160857 0.18581124
-0.02405739 0.028564941 0.18739437
-0.025267851 0.025022335 0.18736681
-0.026099635 0.021358993 0.18704703
-0.025792936 0.017809581 0.18746254
-0.024406832 0.014493386 0.18816559
-0.022689773 0.0090772277 0.19055176
-0.022721579 0.004802302 0.1941101
-0.023291981 0.0014576585 0.19862466
-0.024618747 -0.0032596199 0.20484324
-0.026341226 -0.0064609321 0.20898774
-0.027680824 -0.0094820838 0.21226917
-0.02843203 -0.012889449 0.21592276
-0.028342383 -0.015865056 0.21923248
-0.028931672 -0.018668024 0.22080697
-0.029695408 -0.020346381 0.22171336
-0.02907441 -0.021849416 0.22246407
-0.028468914 -0.023201447 0.22424069
-0.028127614 -0.024569958 0.22689506
-0.019385081 0.041379265 0.18222396
-0.019417113 0.038663182 0.18379824
-0.018166265 0.035783175 0.18577227
-0.018922916 0.03264229 0.18734506
-0.019714395 0.029691203 0.18904549
-0.020553572 0.026407382 0.19023989
-0.023376668 0.021515418 0.18946934
-0.023260044 0.018816201 0.18958519
-0.02245038 0.016212745 0.19057561
-0.021162851 0.012401609 0.19175725
-0.020145632 0.0074723316 0.19488591
-0.020303782 0.0023016615 0.20160627
-0.021261496 -0.0029899951 0.20763044
-0.022618722 -0.0074453508 0.21361853
-0.023496864 -0.010500149 0.2165174
-0.024076985 -0.013448766 0.21979353
-0.025030537 -0.015989715 0.2213469
-0.025746765 -0.018402468 0.22262545
-0.026822634 -0.020296786 0.22333886
-0.026220959 -0.021934764 0.22282076
-0.025572421 -0.023498194 0.22401571
-0.025302032 -0.024929533 0.22721441
-0.015707456 0.038971584 0.18555276
-0.014842674 0.036186401 0.18712023
-0.015140898 0.033418547 0.18871662
-0.015439227 0.030807411 0.19033763
-0.014641455 0.027953705 0.19223817
-0.014302853 0.024290418 0.19443947
-0.020307751 0.020353507 0.19200587
-0.019932458 0.017160267 0.19331641
-0.018409161 0.013285316 0.19479136
-0.017082836 0.0085939355 0.19930436
-0.017206678 0.0037606061 0.20422958
-0.017965306 -0.0020508666 0.21025802
-0.019148307 -0.0077521526 0.21689674
-0.019559778 -0.011232075 0.21984504
-0.019478522 -0.014229884 0.22268346
-0.02134214 -0.016011661 0.22311722
-0.022674268 -0.017765045 0.22427541
-0.023428947 -0.019297056 0.2242948
-0.023377838 -0.020875664 0.22373275
-0.022744212 -0.022725297 0.22489214
-0.022895247 -0.025207717 0.22870864
-0.011778022 0.036562052 0.18814334
-0.011467774 0.034038935 0.18951951
-0.011251745 0.031570565 0.1910522
-0.010549607 0.028604027 0.19284746
-0.008951949 0.024604199 0.19685839
-0.011554678 0.019620614 0.19830966
-0.01494986 0.016059117 0.19798036
-0.014111886 0.012276907 0.19987769
-0.014344335 0.0091627212 0.2026688
-0.01475329 0.0054611247 0.20564276
-0.015166168 -0.00097502553 0.21220824
-0.015441581 -0.0079176594 0.21900922
-0.014877824 -0.010906175 0.22163171
-0.014545475 -0.013578434 0.22402297
-0.015309577 -0.015766816 0.22489767
-0.018438794 -0.016932627 0.22425956
-0.019871464 -0.018533697 0.22415645
-0.020342374 -0.020563094 0.22460054
-0.020497996 -0.02278213 0.22671148
-0.020282678 -0.025093012 0.23027842
-0.0088176411 0.03420509 0.19026755
-0.0074617476 0.031805746 0.19218406
-0.0061150184 0.028630923 0.19548243
-0.0055805342 0.024136979 0.19872536
-0.0073116501 0.019092211 0.20126703
-0.010087159 0.015285211 0.20263711
-0.010932132 0.012307165 0.20417492
-0.011465236 0.0096949227 0.20564985
-0.012120053 0.0064433357 0.20748425
-0.012687759 0.0008396054 0.21244121
-0.011150493 -0.0070210397 0.22003274
-0.010507019 -0.009975655 0.22270894
-0.010535765 -0.012847762 0.22486821
-0.011023744 -0.015086541 0.22621025
-0.012932761 -0.016630813 0.22603816
-0.015189448 -0.018261997 0.22641897
-0.016762804 -0.020850159 0.2274867
-0.018005826 -0.024378734 0.23089877
-0.0028105238 0.030229541 0.19604748
-0.0025168138 0.02669842 0.19840118
-0.0034404693 0.022378005 0.20061617
-0.0047491537 0.019838188 0.20225349
-0.0065502468 0.015547817 0.20466949
-0.0075311195 0.012436296 0.20672756
-0.0081515759 0.0097187739 0.2084969
-0.0087198997 0.0065602218 0.21104129
-0.010310437 0.0026748143 0.21296838
-0.0070633148 -0.0059232279 0.22077651
-0.0066357115 -0.0093977423 0.22387862
-0.0069382312 -0.012546614 0.22528405
-0.0077892262 -0.01507506 0.22710018
-0.0086795194 -0.017156618 0.22831416
-0.010612547 -0.019292327 0.22978154
-0.013506921 -0.021553751 0.23035257
-0.015872708 -0.023768675 0.23134427
0.00029907655 0.024934905 0.19991289
-0.00052271492 0.021656979 0.20183931
-0.00021078465 0.018843744 0.20383826
-0.0020896075 0.016218387 0.20552376
-0.0032239933 0.011959953 0.20814304
-0.0032429085 0.0086426297 0.21082725
-0.0033432818 0.0056962441 0.21313715
-0.0031006173 -0.0042069177 0.22086941
-0.0029349164 -0.009064706 0.22434694
-0.0034598007 -0.012735338 0.2258714
-0.0043531447 -0.015387401 0.22773366
-0.0056229583 -0.017542083 0.22921643
-0.0074440208 -0.019485742 0.23120527
0.0023059533 0.023384381 0.20090677
0.0020149634 0.021143375 0.20220876
0.0019833827 0.018766513 0.20380759
0.0018954992 0.015879743 0.20637281
0.0013757854 0.011593936 0.20903537
0.0010672216 0.0082576219 0.21157198
0.00097016693 0.0056554372 0.21381904
0.000271467 0.002871034 0.21634269
0.00058277493 -0.0017507685 0.21969967
8.0907965e-05 -0.0074949879 0.22332062
-0.00078764063 -0.01227714 0.22616847
0.0040962473 0.020486703 0.2024553
0.0053012804 0.018762078 0.20419368
0.0049947337 0.015448926 0.20717199
0.0044020521 0.011758691 0.20938915
0.0041183778 0.0087631941 0.21163544
0.0038392891 0.0067123524 0.21378234
0 0 0 1 0 0 0 1 0 0 0 1 0 0 0 0 0 348 1 0 0
