ply
format ascii 1.0
comment PCL generated
element vertex 346
property float x
property float y
property float z
element camera 1
property float view_px
property float view_py
property float view_pz
property float x_axisx
property float x_axisy
property float x_axisz
property float y_axisx
property float y_axisy
property float y_axisz
property float z_axisx
property float z_axisy
property float z_axisz
property float focal
property float scalex
property float scaley
property float centerx
property float centery
property int viewportx
property int viewporty
property float k1
property float k2
end_header
-0.057038669 0.030980047 0.18742555
-0.057883397 0.028152902 0.18839361
-0.058127031 0.025505956 0.18975252
-0.058359392 0.022623679 0.1912376
-0.058260608 0.019565111 0.19185276
-0.057278398 0.016243378 0.19393997
-0.05313107 0.033145081 0.18370239
-0.054230921 0.030793766 0.18543179
-0.054128896 0.027907273 0.18606982
-0.054423936 0.025241053 0.18776283
-0.054950215 0.022564445 0.18961579
-0.055239685 0.019435707 0.19126813
-0.055175543 0.016489923 0.19304113
-0.055374462 0.013483507 0.19480871
-0.0553446 0.010282649 0.19639376
-0.048244219 0.035394352 0.17986853
-0.049213056 0.033127282 0.18108454
-0.049978614 0.030395739 0.18255848
-0.050480414 0.027582968 0.18422192
-0.050794121 0.02510171 0.18678297
-0.051319141 0.022398114 0.18865071
-0.051548589 0.019681549 0.19061939
-0.051832084 0.016842047 0.19257525
-0.052381434 0.013201119 0.19417515
-0.053371672 0.0090820184 0.19624965
-0.053868957 0.0053231302 0.19963188
-0.053755667 0.0017433799 0.20249043
-0.044683512 0.037951682 0.1778935
-0.045359924 0.03558486 0.17885859
-0.045828342 0.033074789 0.18021196
-0.046463307 0.030469 0.18192163
-0.047103412 0.027716285 0.18429251
-0.047425948 0.02514852 0.18707909
-0.047802877 0.022517512 0.18918906
-0.048131786 0.019884493 0.19109662
-0.048593011 0.016882947 0.19315372
-0.049154449 0.012888225 0.19414476
-0.049892168 0.0081190048 0.19423877
-0.050869431 0.0038444239 0.19826822
-0.051037364 0.00043906126 0.20362732
-0.051674642 -0.0022624123 0.20772335
-0.052067276 -0.0040001376 0.21163441
-0.041359227 0.040501948 0.17711541
-0.042233262 0.038552571 0.17797209
-0.042432118 0.035911333 0.17929086
-0.04277781 0.033442117 0.18080996
-0.04353926 0.03080588 0.18287301
-0.043905415 0.027833346 0.18520172
-0.044063233 0.025146246 0.18770558
-0.044374812 0.022431068 0.18965538
-0.044764761 0.019675273 0.1915662
-0.045429807 0.016797855 0.19335942
-0.045641687 0.012441671 0.19400641
-0.045864444 0.0071602571 0.19321963
-0.046291687 0.0022371623 0.19707765
-0.04758263 -0.0001923876 0.20433484
-0.048539784 -0.0025850614 0.20872866
-0.049643073 -0.0045169331 0.21271411
-0.050427265 -0.006654873 0.21565446
-0.051064752 -0.0091930451 0.2190804
-0.039010126 0.041349996 0.17688017
-0.039348289 0.038908012 0.1787215
-0.039713468 0.036245588 0.18011905
-0.040086236 0.033639088 0.18175687
-0.040370181 0.030808965 0.18383701
-0.040863514 0.027777089 0.18618585
-0.041152079 0.025188228 0.1884174
-0.041548684 0.022578392 0.18999313
-0.041566957 0.019825816 0.19168484
-0.042128451 0.016573263 0.19349356
-0.04182563 0.011442666 0.19332436
-0.040792368 0.0052381754 0.19264959
-0.039604899 -0.000211377 0.19558707
-0.044030178 -0.0013613497 0.20506391
-0.045206401 -0.0029288924 0.20970067
-0.046037134 -0.0041508763 0.21375665
-0.047108013 -0.0065391264 0.21716729
-0.048460893 -0.0097815329 0.22032112
-0.048707552 -0.013277714 0.22281358
-0.048210129 -0.016767424 0.22365814
-0.035844378 0.04324251 0.17574972
-0.036288742 0.041864872 0.17729002
-0.036514271 0.039382953 0.17906848
-0.036928002 0.036507443 0.18068315
-0.037236203 0.033950441 0.18281151
-0.037409969 0.03078834 0.18500671
-0.037737217 0.027756725 0.18701167
-0.038308877 0.025311206 0.18914719
-0.038755152 0.022591786 0.19099692
-0.038713098 0.019514591 0.1918741
-0.038724523 0.015480148 0.19328265
-0.038076781 0.010098061 0.19292845
-0.037284177 0.0044979616 0.19478878
-0.037020057 9.5020514e-05 0.19813558
-0.040391743 -0.0019208116 0.20592625
-0.041746166 -0.0027247441 0.21086167
-0.042715464 -0.0042830822 0.21483541
-0.043264318 -0.0072663552 0.21714252
-0.044031542 -0.010080167 0.21959347
-0.044718705 -0.014384577 0.22172596
-0.045309458 -0.018562339 0.22477449
-0.044179343 -0.021275174 0.22676383
-0.033221468 0.043779898 0.17609511
-0.033273421 0.042383686 0.17759897
-0.033125702 0.039874233 0.17965375
-0.033298738 0.037156049 0.18114032
-0.033635076 0.034380358 0.1834612
-0.034039881 0.031095905 0.18656318
-0.034614719 0.028009446 0.18791537
-0.035268765 0.02527013 0.19001584
-0.035608422 0.022245416 0.19181903
-0.03559313 0.018951643 0.19319196
-0.035583939 0.014820909 0.19452669
-0.034888189 0.010342886 0.19414283
-0.03447238 0.0054817563 0.19653466
-0.034587216 0.001634008 0.20048177
-0.037117511 -0.0003789253 0.20621189
-0.03853048 -0.0024030018 0.21215533
-0.039295107 -0.0044521205 0.21556616
-0.039557528 -0.0075186151 0.21713449
-0.040086154 -0.011301422 0.21946985
-0.040771946 -0.015404092 0.22125809
-0.041079085 -0.019210784 0.22403193
-0.040702548 -0.021735258 0.22654678
-0.030260628 0.043949578 0.17681386
-0.030148752 0.04252461 0.17813087
-0.030186702 0.040065922 0.18012068
-0.030340815 0.03748652 0.1821501
-0.030382715 0.034553692 0.18449666
-0.03095955 0.031315971 0.1875487
-0.03146163 0.028352177 0.18904047
-0.032126922 0.02520296 0.1910015
-0.03239822 0.021728225 0.19297072
-0.032578453 0.01855268 0.19464907
-0.032677438 0.01457248 0.19579336
-0.032207757 0.010842898 0.19585483
-0.031569086 0.0065809442 0.19862148
-0.032122992 0.003153445 0.20249583
-0.034211453 0.0010987414 0.20706013
-0.035454921 -0.001450495 0.21187079
-0.035845287 -0.0043379576 0.21570535
-0.036280233 -0.007449938 0.21769376
-0.03683709 -0.011276779 0.22012194
-0.037287593 -0.01535331 0.22191578
-0.037380315 -0.019083051 0.22366819
-0.036823146 -0.021856718 0.22607297
-0.027200047 0.044154607 0.17727122
-0.02713955 0.042663749 0.17857188
-0.027404977 0.040134788 0.1802976
-0.027366566 0.03760682 0.1828275
-0.027332682 0.034739036 0.18560408
-0.027785884 0.031714141 0.18811284
-0.02838807 0.028572973 0.19021401
-0.028989738 0.025449252 0.19208378
-0.029361572 0.021627758 0.19452623
-0.029548079 0.017952846 0.19707249
-0.03006066 0.014886932 0.19781092
-0.029678255 0.012207666 0.19850485
-0.029509101 0.0085211759 0.20154265
-0.0294473 0.0049976008 0.20427634
-0.031064084 0.001543404 0.20816688
-0.032297868 -0.0010399566 0.21202874
-0.032708861 -0.0043202522 0.21661115
-0.033149105 -0.0076315934 0.21851934
-0.03370925 -0.01146285 0.22105046
-0.034088451 -0.015394426 0.2235612
-0.033808358 -0.018972773 0.22521636
-0.033572126 -0.02209365 0.22736709
-0.024242165 0.044360552 0.17805696
-0.024139475 0.042960063 0.17939658
-0.024163567 0.040252078 0.18070658
-0.024273437 0.037609383 0.18321863
-0.024334894 0.035001345 0.18607372
-0.024705937 0.032095414 0.1884722
-0.025313251 0.028993167 0.19130985
-0.025995208 0.025478056 0.1938329
-0.026202139 0.021300729 0.19669317
-0.026333753 0.017524056 0.19901989
-0.026074184 0.0150448 0.20050521
-0.026929697 0.013138516 0.20133267
-0.027334457 0.0091410158 0.20455953
-0.027206557 0.0054159006 0.20660792
-0.028082456 0.0020023792 0.21045767
-0.028720444 -0.0010288988 0.2143935
-0.029452704 -0.0048021218 0.21838228
-0.029780686 -0.0079892725 0.22004364
-0.030306496 -0.011563245 0.22200251
-0.030526133 -0.015188252 0.22461228
-0.030079093 -0.018855648 0.22640799
-0.030414162 -0.022192489 0.22821389
-0.03093165 -0.025111429 0.23183127
-0.021149496 0.044705834 0.17901386
-0.020901011 0.043237783 0.18042538
-0.021082934 0.040294733 0.18197387
-0.021125939 0.037446629 0.1837047
-0.021309175 0.034913842 0.18675885
-0.021800004 0.032224521 0.18900634
-0.022219092 0.029516002 0.19195156
-0.022691974 0.026132343 0.19504166
-0.022818603 0.020977288 0.19906794
-0.023340289 0.016966347 0.20168184
-0.023339888 0.014723458 0.20343839
-0.023714961 0.012486133 0.20404552
-0.024273166 0.0091824103 0.20631123
-0.024815304 0.0055275797 0.20885196
-0.024925839 0.0022206742 0.212405
-0.025317132 -0.00093644595 0.21606354
-0.025957968 -0.0046495097 0.21942732
-0.026183357 -0.0082800854 0.22114077
-0.026196459 -0.011564516 0.22270653
-0.026472151 -0.015020913 0.22575951
-0.026356649 -0.018603019 0.22720435
-0.026926974 -0.022612959 0.22865151
-0.026878534 -0.026327007 0.23248249
-0.018185316 0.043097597 0.1817697
-0.018118419 0.040811542 0.18369818
-0.018083462 0.037862949 0.1850176
-0.018409975 0.034995381 0.18705201
-0.018651454 0.032205965 0.18933043
-0.018813077 0.029583808 0.19209525
-0.019139301 0.026462091 0.19646038
-0.01946396 0.022169819 0.19958958
-0.019694688 0.018147681 0.20274565
-0.019940685 0.01482815 0.20476826
-0.020205604 0.012250823 0.20627329
-0.021178864 0.0094084078 0.20832528
-0.021761026 0.0059297653 0.2115172
-0.021650912 0.0028090521 0.21441908
-0.021745764 -0.00056892383 0.21747564
-0.022206193 -0.0042182063 0.22115664
-0.022429159 -0.0081877802 0.22281438
-0.022139849 -0.011881952 0.22384466
-0.021853749 -0.015370966 0.22650374
-0.022009749 -0.018651178 0.22714892
-0.022452455 -0.022637837 0.22785743
-0.023007231 -0.026798377 0.23293442
-0.015198131 0.040820584 0.18486997
-0.015228228 0.038140189 0.18635803
-0.015381798 0.03507087 0.18780415
-0.015627014 0.032152299 0.19009687
-0.015907984 0.029630097 0.19260278
-0.015897328 0.026638089 0.19715334
-0.01633966 0.022557372 0.20057985
-0.016363727 0.019090265 0.20304553
-0.016589312 0.015485125 0.20507281
-0.016714761 0.012590687 0.20792133
-0.017549628 0.0098469984 0.21018393
-0.017947793 0.0065960889 0.21290283
-0.017954882 0.0033241196 0.21586742
-0.017958531 -0.00030633618 0.21917763
-0.018305989 -0.0037593937 0.22278379
-0.018541003 -0.0078001753 0.22450309
-0.017979588 -0.011706356 0.22537975
-0.017927207 -0.015459356 0.22648002
-0.018613974 -0.019252338 0.22766413
-0.018897999 -0.023229236 0.22971514
-0.019316342 -0.027056491 0.23460317
-0.012619317 0.037833985 0.1875951
-0.012518573 0.034828857 0.18888469
-0.012734961 0.032109033 0.19098899
-0.012950555 0.029454371 0.19307479
-0.012692912 0.026800249 0.19662473
-0.013127827 0.023231067 0.20083831
-0.013388746 0.019698182 0.20413281
-0.013465438 0.016247479 0.2069779
-0.013424221 0.01311251 0.20942192
-0.013633953 0.010121514 0.21154451
-0.013713256 0.0072892588 0.21408819
-0.01402473 0.0036218369 0.21717434
-0.01424834 -5.7885245e-05 0.22080533
-0.014503886 -0.003573487 0.22359207
-0.01451729 -0.0075647649 0.2248593
-0.014253966 -0.012157411 0.2262806
-0.014401451 -0.01623011 0.22762662
-0.014953672 -0.020013172 0.22925426
-0.015395997 -0.023796575 0.2322509
-0.015526581 -0.027053339 0.23636749
-0.0098641058 0.034820255 0.18976647
-0.009414481 0.032195985 0.19160172
-0.0096449601 0.029471487 0.19373317
-0.0095257284 0.026866993 0.19704573
-0.0099474667 0.023833692 0.20119628
-0.010310008 0.020429075 0.20511322
-0.01013679 0.017173538 0.20794304
-0.010027794 0.013523526 0.21018572
-0.009930348 0.010291587 0.21221541
-0.0098891426 0.0073042619 0.21532618
-0.010305857 0.0038706479 0.21833983
-0.010486932 0.00012288614 0.22165775
-0.010709737 -0.0034370795 0.22374983
-0.011050055 -0.0076298714 0.22512552
-0.010674173 -0.011995178 0.22576536
-0.01082747 -0.016329719 0.22883114
-0.011068589 -0.020042574 0.23061183
-0.011672332 -0.024194319 0.23454781
-0.0124659 -0.02669891 0.23713046
-0.0062896665 0.031925239 0.19258274
-0.0062199342 0.029486038 0.19510278
-0.0063483911 0.026794333 0.19849363
-0.0067389584 0.023899805 0.20146888
-0.0069535468 0.020858118 0.20530277
-0.0066605657 0.017494461 0.20824096
-0.0064051417 0.013971143 0.21042956
-0.0063273357 0.010570517 0.21243501
-0.0062821344 0.0071873427 0.21583335
-0.0065123779 0.0035974772 0.21901903
-0.0066983188 -0.00011241441 0.22208674
-0.006790923 -0.0036434461 0.22326985
-0.0072727492 -0.0075972532 0.22553428
-0.007204737 -0.012186529 0.22611745
-0.0073103975 -0.016446067 0.22961169
-0.0079371445 -0.02013037 0.23159589
-0.0087321913 -0.023261452 0.23365571
-0.0036857158 0.031454682 0.19424339
-0.0027212335 0.029687051 0.19683792
-0.002946395 0.026815472 0.1992275
-0.003154136 0.023842186 0.20165116
-0.0031782417 0.020951353 0.20465191
-0.0032323962 0.017646521 0.20763618
-0.0028536087 0.014010864 0.21036583
-0.0027723864 0.010683847 0.21272686
-0.0026506376 0.0072585861 0.21575525
-0.0028755176 0.0035351755 0.21828586
-0.0028798676 -0.00010873963 0.22130838
-0.0030502579 -0.0041024564 0.22271678
-0.003357013 -0.0081230616 0.22536722
-0.0039671068 -0.012346332 0.22661094
-0.0048522279 -0.015924646 0.22932105
0.0002184264 0.029247599 0.19840853
0.00039032157 0.027073659 0.19985798
0.00022859633 0.024239838 0.20176366
0.00027140908 0.021165131 0.20414869
0.0004042756 0.017799007 0.20684533
0.00073732965 0.01418297 0.20977531
0.00093383464 0.010756399 0.21234573
0.0010354189 0.0072312122 0.21467194
0.00056351192 0.00361677 0.21693446
0.00076254795 -0.00025468328 0.21950887
0.00020385 -0.0039686151 0.22225371
-0.0010522108 -0.0075722476 0.22570194
0.0036826397 0.027166428 0.20045789
0.0040674466 0.024329359 0.20206372
0.0040272283 0.021205522 0.20377092
0.0038354036 0.017894756 0.206642
0.0042770128 0.014379921 0.20885892
0.0038583241 0.011266676 0.2112159
0 0 0 1 0 0 0 1 0 0 0 1 0 0 0 0 0 346 1 0 0
