ply
format ascii 1.0
comment PCL generated
element vertex 346
property float x
property float y
property float z
element camera 1
property float view_px
property float view_py
property float view_pz
property float x_axisx
property float x_axisy
property float x_axisz
property float y_axisx
property float y_axisy
property float y_axisz
property float z_axisx
property float z_axisy
property float z_axisz
property float focal
property float scalex
property float scaley
property float centerx
property float centery
property int viewportx
property int viewporty
property float k1
property float k2
end_header
-0.058503456 0.02736171 0.1887856
-0.059188545 0.024570694 0.18999328
-0.059469108 0.021737041 0.19143744
-0.059532635 0.018783715 0.19310626
-0.059486963 0.015911566 0.19473471
-0.058114029 0.011660787 0.19789577
-0.054524455 0.030242702 0.18558057
-0.055903111 0.027745748 0.18715517
-0.055709641 0.024567811 0.18795972
-0.05592408 0.021677578 0.18974777
-0.056519073 0.018762916 0.19167632
-0.056833856 0.015246183 0.19386868
-0.056396611 0.011636168 0.19678499
-0.056037065 0.0084639648 0.19989052
-0.055816531 0.0057815318 0.20199691
-0.048344094 0.032297742 0.18173483
-0.049612086 0.030249136 0.18297209
-0.051280327 0.027655363 0.18434414
-0.052028347 0.024512755 0.18621126
-0.052112751 0.021670671 0.1885016
-0.052713908 0.018767266 0.19034512
-0.053076215 0.015186255 0.1922413
-0.053359948 0.011489169 0.19551477
-0.053541847 0.0074503981 0.19946231
-0.054334853 0.0039950246 0.2019231
-0.054348476 0.00094246585 0.20423405
-0.054429092 -0.0017140496 0.20593199
-0.044915076 0.034817889 0.17958488
-0.045449868 0.032667544 0.18076949
-0.046054032 0.030405093 0.18218416
-0.046993297 0.027969312 0.18374079
-0.048323307 0.024681719 0.18627623
-0.048764687 0.021616628 0.18851303
-0.049216725 0.018632704 0.19031498
-0.049680997 0.01521954 0.19183275
-0.050328676 0.011184673 0.19532022
-0.050637241 0.0063713705 0.19902074
-0.051319964 0.0019650834 0.19989681
-0.052088059 -0.00088407513 0.20296153
-0.051993374 -0.0035724959 0.20585296
-0.052085314 -0.0057773297 0.20948608
-0.052608538 -0.0071981535 0.21302783
-0.041985374 0.03788738 0.17835671
-0.042524271 0.035781667 0.17939585
-0.042625546 0.033326775 0.18090227
-0.043056514 0.031040618 0.18255155
-0.043756679 0.028473509 0.18459865
-0.044797145 0.02479185 0.18712835
-0.045124833 0.021492003 0.18906894
-0.045407936 0.018606437 0.19054845
-0.046191197 0.015019412 0.19195099
-0.047283281 0.011196701 0.19472715
-0.047254283 0.0053758742 0.19776329
-0.047187764 -2.4828196e-05 0.19779873
-0.047095124 -0.0036114831 0.20075144
-0.048426885 -0.0044351304 0.20579016
-0.049074102 -0.0064016306 0.21014248
-0.050438024 -0.0081069935 0.21392676
-0.051387303 -0.0099936593 0.21618077
-0.05211867 -0.012169465 0.22005853
-0.040065307 0.039335202 0.17803416
-0.039943852 0.03654857 0.17990401
-0.040114891 0.033961605 0.18151307
-0.040423397 0.03150117 0.18327181
-0.040827449 0.02848115 0.18559721
-0.041688535 0.024519751 0.18805824
-0.041855533 0.021527279 0.18960543
-0.042349439 0.018783992 0.19068299
-0.042541973 0.015526689 0.19189143
-0.043464195 0.01152301 0.19412391
-0.043763928 0.0041953921 0.1961695
-0.041739766 -0.0017478742 0.19525111
-0.038834937 -0.0062452964 0.19730668
-0.04455933 -0.0059936158 0.20586514
-0.045784228 -0.0069657015 0.21081199
-0.047027163 -0.0078361658 0.21491535
-0.048324861 -0.009616781 0.21782972
-0.049832694 -0.012173439 0.22147709
-0.049695436 -0.015068612 0.22406431
-0.048345424 -0.017615855 0.22523984
-0.037160397 0.041952241 0.17682725
-0.037385229 0.04042941 0.17834029
-0.037426185 0.037654761 0.18010645
-0.037527032 0.034497466 0.18195286
-0.037641656 0.032022271 0.18428776
-0.038172111 0.02802966 0.18699394
-0.03855342 0.024332108 0.18877284
-0.038983267 0.021501403 0.19019717
-0.039302167 0.018616928 0.19134751
-0.03936461 0.015188893 0.19233128
-0.039725952 0.011220558 0.19385315
-0.04058706 0.0036395376 0.19511257
-0.038316809 -0.001295955 0.19640531
-0.037104946 -0.0050138333 0.19987431
-0.040976543 -0.006923941 0.20627157
-0.042436924 -0.0075101261 0.21139167
-0.044000823 -0.0086967787 0.2156577
-0.045135282 -0.010100496 0.21831639
-0.045993589 -0.011586835 0.2213316
-0.045895182 -0.015248739 0.22470553
-0.045727562 -0.019892763 0.22812252
-0.044386614 -0.022636201 0.22944587
-0.034537602 0.042925201 0.17684422
-0.034314573 0.0415572 0.17835745
-0.033844583 0.039296117 0.18011674
-0.033823121 0.036840055 0.18179089
-0.034278397 0.033006325 0.18468934
-0.034970995 0.02807655 0.18841083
-0.035500109 0.024620412 0.18971689
-0.036061067 0.021449899 0.19120051
-0.036436439 0.018304633 0.19233152
-0.036587439 0.014763722 0.19362722
-0.036861856 0.010463925 0.19470041
-0.037550218 0.0049953493 0.19514515
-0.036125273 0.00037562769 0.1978204
-0.035776984 -0.0026609937 0.20158395
-0.037955679 -0.0048436625 0.20695494
-0.039160728 -0.0079657836 0.21288808
-0.04083252 -0.0093447706 0.21682389
-0.041584413 -0.010683126 0.21890266
-0.042033844 -0.012956607 0.22230777
-0.04251365 -0.016737826 0.22434658
-0.042166632 -0.020575469 0.22668624
-0.04094306 -0.022794886 0.22867778
-0.03154153 0.043307748 0.17728567
-0.03122234 0.041997716 0.17872892
-0.030881992 0.039704498 0.18075082
-0.030727508 0.037364524 0.18279383
-0.030822944 0.033526108 0.18565848
-0.031862028 0.028872866 0.18908341
-0.032373987 0.025489358 0.19059093
-0.03305196 0.021611409 0.19235435
-0.033601113 0.017953081 0.19346732
-0.033807352 0.014339742 0.19493933
-0.034317814 0.010010636 0.1956815
-0.035060287 0.0058831261 0.19612287
-0.033841182 0.001990523 0.19924808
-0.033822592 -0.0006192833 0.20315632
-0.035386115 -0.0029490436 0.20780136
-0.036612768 -0.0063206949 0.21283169
-0.037920061 -0.0084734093 0.21792853
-0.038697712 -0.01007471 0.22013637
-0.038884964 -0.012732253 0.22281939
-0.039158128 -0.016633227 0.22380653
-0.038852338 -0.020309208 0.22529413
-0.037267931 -0.022692744 0.22720946
-0.028560705 0.04333676 0.17792191
-0.028176056 0.04206185 0.1792423
-0.02808653 0.03975245 0.18104035
-0.027718544 0.037442591 0.18351045
-0.027464623 0.033585504 0.18629694
-0.028290952 0.029963916 0.18927521
-0.029229308 0.026447201 0.19156994
-0.030011874 0.022548791 0.19318999
-0.030751495 0.01784985 0.19493352
-0.03083219 0.013448493 0.19695918
-0.03156165 0.010018343 0.19711624
-0.032146562 0.0074658366 0.19745851
-0.031410571 0.0043744515 0.20083718
-0.030973194 0.0017481657 0.20466121
-0.032508921 -0.001913838 0.20904107
-0.033698503 -0.0049189399 0.2132089
-0.035203669 -0.0074724355 0.21944883
-0.035631631 -0.0098591354 0.22144666
-0.036106441 -0.013028567 0.22343577
-0.035942357 -0.016811097 0.22465655
-0.035232887 -0.020202098 0.22576915
-0.033795927 -0.022427071 0.22719048
-0.02554303 0.0435629 0.17853037
-0.025237471 0.042416748 0.17986622
-0.024836717 0.039993461 0.1813644
-0.024525721 0.037123322 0.18361789
-0.024300784 0.034146797 0.18624148
-0.024920907 0.031050719 0.18903704
-0.025897091 0.027566563 0.19232264
-0.026969744 0.023094004 0.19475253
-0.027425963 0.017607622 0.19711724
-0.027577793 0.013026849 0.19890906
-0.027528277 0.010488577 0.19941483
-0.028743507 0.0089606214 0.19977783
-0.028512802 0.0058565703 0.20350829
-0.02850624 0.0028336185 0.20660815
-0.029886605 -0.00091571052 0.21175857
-0.030540558 -0.0036118776 0.21706988
-0.031604897 -0.0075149075 0.22037978
-0.032254923 -0.01032379 0.22233452
-0.032872725 -0.013159863 0.22393069
-0.03239366 -0.016785592 0.22517663
-0.031034384 -0.019705884 0.22622372
-0.030829391 -0.022100005 0.22736883
-0.030754311 -0.024872364 0.23050556
-0.022352505 0.044350456 0.1791659
-0.021884654 0.042836394 0.18053152
-0.021719957 0.039853908 0.18209466
-0.021344313 0.036848295 0.18369828
-0.021444673 0.034315273 0.18685773
-0.021895746 0.031685431 0.18947455
-0.022333121 0.029029446 0.1923306
-0.023309331 0.025259379 0.1953184
-0.024190623 0.019198989 0.19932561
-0.024510732 0.014272435 0.20122455
-0.024417596 0.011359387 0.20225461
-0.025071273 0.0089654718 0.20290856
-0.025610467 0.0061839265 0.20570529
-0.026213976 0.003158815 0.20917106
-0.0265915 0.00019599382 0.21416345
-0.026587602 -0.0033002913 0.21785715
-0.027256502 -0.0074539729 0.22065659
-0.027993971 -0.010575802 0.22217613
-0.028057041 -0.01319865 0.22383621
-0.027660323 -0.016268646 0.22606586
-0.026864048 -0.018780826 0.22652906
-0.02734934 -0.022179849 0.22760463
-0.026889412 -0.025610736 0.23143145
-0.018780565 0.042543765 0.18175249
-0.018633476 0.04021721 0.183575
-0.018454224 0.037317019 0.18486352
-0.018724704 0.03451895 0.18727757
-0.018978043 0.03203214 0.18983199
-0.019230187 0.029494835 0.19220723
-0.019879403 0.026187591 0.19624022
-0.020596916 0.021580169 0.19981243
-0.020991543 0.016699154 0.20288041
-0.021318352 0.01268418 0.20456298
-0.021743864 0.0099540353 0.20587279
-0.022743482 0.007063387 0.20809683
-0.02318139 0.0039411862 0.21212389
-0.022734052 0.00079245865 0.21601607
-0.02267354 -0.0027273914 0.21873826
-0.0228903 -0.0066043823 0.221607
-0.023446823 -0.0098379403 0.22284694
-0.022851838 -0.013017786 0.22454372
-0.02214996 -0.015842978 0.22711203
-0.022319971 -0.018528879 0.22716855
-0.022748956 -0.022163378 0.22727966
-0.022850709 -0.026109958 0.23190637
-0.015664045 0.0403652 0.18474318
-0.015685752 0.037684884 0.18617353
-0.015860902 0.034676298 0.18823098
-0.016405629 0.031769779 0.19052078
-0.016706308 0.029314334 0.19275378
-0.016795877 0.026231481 0.19711842
-0.01765391 0.02213203 0.20075861
-0.017540114 0.018464036 0.20335974
-0.017771075 0.014294008 0.20541519
-0.018113732 0.010957939 0.20821746
-0.019240499 0.0078141559 0.21074536
-0.019335179 0.0047529084 0.21404907
-0.018873859 0.0014700474 0.2171531
-0.018431194 -0.0021114342 0.21995719
-0.018445611 -0.0054743383 0.22332264
-0.01890547 -0.0088869594 0.22457324
-0.018380456 -0.012199331 0.22563709
-0.018377133 -0.0156146 0.22679599
-0.019368494 -0.019225698 0.22776659
-0.019375177 -0.022728227 0.22917847
-0.019173471 -0.02629582 0.23347344
-0.013271866 0.03749432 0.18750043
-0.013486442 0.034191836 0.1894749
-0.013706275 0.031469095 0.19142875
-0.013881464 0.02890957 0.19339298
-0.013633693 0.02635657 0.19673605
-0.014459998 0.022928897 0.20111077
-0.014643966 0.019215843 0.20436291
-0.014389341 0.015471209 0.20732696
-0.01434238 0.012008199 0.20980904
-0.01460411 0.0085677309 0.21238311
-0.014735401 0.0056904503 0.21513191
-0.014691648 0.0021950481 0.2180495
-0.014521305 -0.0013705469 0.22142576
-0.014772507 -0.0046972036 0.22400278
-0.014807149 -0.0082550803 0.22529764
-0.014635978 -0.012424003 0.22649355
-0.014926581 -0.016572518 0.22793226
-0.01561687 -0.020196319 0.22978354
-0.015782567 -0.023471786 0.23201783
-0.015433099 -0.026289394 0.23542108
-0.01102432 0.034272268 0.19006163
-0.01055213 0.031615671 0.19195101
-0.010559465 0.028946757 0.19407697
-0.010334721 0.026418006 0.19720694
-0.011045247 0.023578355 0.20128952
-0.011543367 0.020073453 0.20517352
-0.010970951 0.016706569 0.20788576
-0.010630875 0.012744369 0.21012372
-0.010329178 0.0092738215 0.21259321
-0.010441975 0.0060675214 0.21579462
-0.010698105 0.0028189332 0.21876484
-0.010714942 -0.00087462593 0.22216883
-0.011009038 -0.0041915951 0.22411323
-0.011389285 -0.0079455506 0.22523333
-0.011163205 -0.01214443 0.22607599
-0.011258001 -0.016469071 0.22902672
-0.011389385 -0.020029964 0.23101451
-0.011991116 -0.023827499 0.2344843
-0.012583543 -0.02608397 0.23657963
-0.0071934564 0.031584766 0.1930937
-0.0069704917 0.029200317 0.19574194
-0.0070886048 0.026432192 0.19882828
-0.0076464782 0.02370147 0.20183937
-0.007940569 0.020708049 0.20554586
-0.0074985283 0.017199622 0.20823762
-0.0069315839 0.013418441 0.21025705
-0.0065671005 0.0098616099 0.21245737
-0.0065657692 0.006247201 0.21609177
-0.0067631924 0.0027326846 0.21935436
-0.0069570588 -0.00091391441 0.2224537
-0.0070473524 -0.0043139602 0.22364172
-0.0076677846 -0.0078334948 0.22555612
-0.0076726652 -0.012201706 0.2262715
-0.0076080961 -0.016510578 0.22980036
-0.0081934249 -0.020125544 0.23177971
-0.0089419084 -0.023052573 0.23403524
-0.004539479 0.031239737 0.19487825
-0.0032348011 0.029427264 0.19755223
-0.0034612091 0.02651009 0.19996056
-0.0040891855 0.023824159 0.20221448
-0.0040637036 0.020805202 0.20510507
-0.0040789698 0.017289435 0.20789418
-0.0033247159 0.01353829 0.21006724
-0.0029515559 0.010214925 0.21242794
-0.0028434203 0.0066196737 0.2156488
-0.0031333312 0.0029062801 0.21865474
-0.0030778626 -0.00080754771 0.22194804
-0.0031382688 -0.0047283038 0.22321935
-0.0038129366 -0.0084177218 0.22561751
-0.0044226004 -0.012407972 0.22674888
-0.0051320787 -0.016058976 0.2297124
-0.00022744872 0.028820949 0.19892779
-0.00021143969 0.026472209 0.20032072
-0.00058137701 0.023827298 0.20220777
-0.00071526633 0.020801971 0.20454337
-0.00047503418 0.017115556 0.20707451
0.00012370323 0.013597785 0.20964694
0.00056301715 0.010351021 0.21202172
0.00079252484 0.0067755813 0.21450271
0.00018712264 0.0031420172 0.21725279
0.00057801959 -0.00074885745 0.22028203
0.00011533725 -0.0045880219 0.22295475
-0.001557923 -0.0079827318 0.22609711
0.003170853 0.026293984 0.20071916
0.0034114597 0.023525216 0.20236196
0.0031250615 0.020476395 0.2041678
0.0030348257 0.017043488 0.20672052
0.003783515 0.013316939 0.20893861
0.0033500951 0.010570123 0.21111892
0 0 0 1 0 0 0 1 0 0 0 1 0 0 0 0 0 346 1 0 0
