ply
format ascii 1.0
comment PCL generated
element vertex 346
property float x
property float y
property float z
element camera 1
property float view_px
property float view_py
property float view_pz
property float x_axisx
property float x_axisy
property float x_axisz
property float y_axisx
property float y_axisy
property float y_axisz
property float z_axisx
property float z_axisy
property float z_axisz
property float focal
property float scalex
property float scaley
property float centerx
property float centery
property int viewportx
property int viewporty
property float k1
property float k2
end_header
-0.058723729 0.027419807 0.18899567
-0.059373736 0.024615368 0.19014558
-0.059653345 0.021784438 0.19149375
-0.059750125 0.018794214 0.19306922
-0.059986118 0.015884999 0.19478981
-0.058591839 0.011748173 0.19775276
-0.054787923 0.030315254 0.18587555
-0.056143004 0.027826805 0.18740439
-0.055931631 0.024664348 0.1881979
-0.056135409 0.02177511 0.18991499
-0.056748588 0.018834937 0.19170652
-0.057311628 0.01538785 0.19411078
-0.056877732 0.011842194 0.19675912
-0.056467216 0.0085767461 0.19941504
-0.056213945 0.0058046067 0.20139384
-0.048430827 0.032246899 0.18200141
-0.049741749 0.030261328 0.18325104
-0.051520087 0.027741989 0.18462139
-0.05225436 0.024631379 0.18650265
-0.052299678 0.021801939 0.18874747
-0.052916087 0.018892206 0.19049859
-0.053536505 0.015552265 0.19279779
-0.053853549 0.011879823 0.19566154
-0.054049212 0.0076873288 0.19895335
-0.05471608 0.0040503601 0.20126025
-0.054626249 0.00092536159 0.20360936
-0.054653633 -0.0017441195 0.20545039
-0.044975169 0.034697901 0.17976744
-0.045528557 0.032591656 0.18101674
-0.046156842 0.03036844 0.1824865
-0.047145359 0.028028095 0.18404938
-0.04852647 0.024795732 0.18661976
-0.048926841 0.02176393 0.18885228
-0.049375668 0.01876685 0.19060402
-0.050120484 0.015661227 0.19264247
-0.050850835 0.011738827 0.19551347
-0.051164199 0.0067505995 0.19834955
-0.051722284 0.0022093945 0.19902007
-0.052363653 -0.00083211483 0.20222721
-0.05220006 -0.0035731266 0.20539333
-0.052272446 -0.0056968802 0.20909895
-0.052823007 -0.0069840937 0.21274935
-0.042058691 0.037755497 0.17842378
-0.042588685 0.035651103 0.17952628
-0.042700704 0.033254795 0.18109843
-0.043143585 0.031012414 0.1828272
-0.043867249 0.028486511 0.18492272
-0.044953551 0.024876839 0.18753849
-0.045258179 0.021618003 0.18948446
-0.045521792 0.018731024 0.19091333
-0.046611737 0.015486879 0.19288407
-0.047808945 0.011822528 0.19506446
-0.047754686 0.0059692203 0.19683306
-0.047521301 0.00057503773 0.19641232
-0.047279336 -0.0033772532 0.19958727
-0.048612256 -0.0043896311 0.20538327
-0.049253069 -0.0062689907 0.20980085
-0.050655741 -0.0078518251 0.21368501
-0.05163696 -0.0097185718 0.21578994
-0.052433755 -0.011762387 0.21976112
-0.040173326 0.039270949 0.17806515
-0.04002307 0.036453079 0.17997752
-0.040194467 0.033902057 0.18166991
-0.040517945 0.031491783 0.18351224
-0.040965311 0.028495032 0.18587238
-0.041833296 0.0245547 0.18837422
-0.04197346 0.021615053 0.1899768
-0.042481244 0.018918611 0.19109224
-0.042961422 0.016042899 0.19292101
-0.043915574 0.012080891 0.19474247
-0.04397678 0.0048742117 0.1950289
-0.041504212 -0.0011201818 0.19387484
-0.038593791 -0.005767297 0.19600831
-0.044744808 -0.0059853382 0.20543458
-0.045978844 -0.0068139792 0.21049294
-0.047261089 -0.0075291367 0.21469434
-0.048593678 -0.0093035223 0.21746595
-0.050197363 -0.011707698 0.22119331
-0.050116789 -0.014451308 0.22384126
-0.04886106 -0.016908346 0.22464588
-0.037292268 0.041994553 0.17685771
-0.037495553 0.040444255 0.17835225
-0.03752733 0.037622876 0.1801143
-0.037632685 0.034455199 0.1820953
-0.037745602 0.032027598 0.18451218
-0.03830472 0.028010676 0.18720163
-0.038682077 0.024332801 0.18898015
-0.039094087 0.021546543 0.19046818
-0.039411891 0.018731346 0.1916493
-0.039681561 0.015624585 0.19317964
-0.039972126 0.011625019 0.19432309
-0.040443428 0.0042166477 0.1941181
-0.038067602 -0.00077091187 0.19532999
-0.037077092 -0.004660889 0.19880085
-0.041201659 -0.0069464287 0.20578437
-0.042661566 -0.0073785433 0.21105887
-0.044243876 -0.0082833217 0.21564522
-0.045424782 -0.0095515288 0.21805666
-0.046321552 -0.010848927 0.22115789
-0.046367589 -0.014555969 0.22421721
-0.046354547 -0.01921881 0.22735706
-0.045080129 -0.021962039 0.22867905
-0.034665741 0.043008938 0.17681381
-0.034417801 0.041627649 0.17833839
-0.033921652 0.039340921 0.18005177
-0.033892136 0.036885563 0.18177964
-0.034353726 0.03305826 0.18486892
-0.035041455 0.028053615 0.18857259
-0.035610788 0.024604913 0.18984075
-0.036150519 0.021463757 0.19133152
-0.036514644 0.018395297 0.19240668
-0.036779217 0.015074839 0.19390883
-0.03699702 0.01078798 0.19476683
-0.037342656 0.0055129612 0.19448422
-0.036021668 0.00080280885 0.19701685
-0.035875868 -0.002386942 0.200758
-0.038192302 -0.0047201449 0.20628074
-0.039396416 -0.007852572 0.21269402
-0.04113673 -0.0088681132 0.21693894
-0.041879114 -0.010225673 0.21860904
-0.042459548 -0.012356414 0.22186854
-0.043067984 -0.016161975 0.2236941
-0.042831883 -0.019970832 0.22593223
-0.041634567 -0.022205668 0.227927
-0.031654425 0.043369427 0.17722625
-0.03131086 0.042038202 0.17869453
-0.030948609 0.039734721 0.18071969
-0.030780135 0.037428688 0.18278761
-0.030819837 0.033573832 0.18585652
-0.031876661 0.028837437 0.18928908
-0.032457825 0.025461202 0.19071461
-0.033128694 0.021640634 0.19239371
-0.033701684 0.01806137 0.19341327
-0.033940166 0.014609626 0.1949497
-0.03443446 0.010312745 0.19557059
-0.034977119 0.0063120136 0.19568828
-0.033876814 0.0023439701 0.19872461
-0.033981334 -0.00037788536 0.20253552
-0.035658192 -0.0028040595 0.20717618
-0.036891825 -0.0061743935 0.21247247
-0.038261659 -0.0079748128 0.2179935
-0.039039668 -0.0097755054 0.2196395
-0.039345883 -0.012371338 0.22212052
-0.039721914 -0.016161293 0.22308518
-0.039533008 -0.01982522 0.22457935
-0.037978277 -0.022193173 0.22657557
-0.028660623 0.043336444 0.17791104
-0.028257214 0.042068787 0.1792284
-0.028133696 0.03978062 0.18102135
-0.027763207 0.037486397 0.18353441
-0.027437095 0.033606615 0.18652242
-0.028241487 0.02990864 0.18949637
-0.029271534 0.026375167 0.19173568
-0.030124221 0.022539802 0.19325355
-0.030861711 0.017964963 0.19483811
-0.03093314 0.013723011 0.19683266
-0.03174359 0.010318226 0.19701867
-0.032244854 0.0078456542 0.1972369
-0.031557959 0.0047199093 0.20053159
-0.03118228 0.0019935064 0.20424482
-0.032809798 -0.0017847923 0.20851175
-0.034030996 -0.0048396555 0.2127423
-0.035596799 -0.0070160073 0.21958527
-0.03605967 -0.0097508896 0.22085549
-0.036633957 -0.012793282 0.22271122
-0.036549754 -0.016456688 0.22393417
-0.035932388 -0.019835422 0.22509547
-0.03446551 -0.022037705 0.22679992
-0.02563818 0.043566681 0.17852259
-0.025325153 0.042423777 0.17984295
-0.024874862 0.040028971 0.18133307
-0.024533855 0.037136413 0.18369566
-0.024270866 0.034178071 0.18639413
-0.02489629 0.031040758 0.18916997
-0.025894782 0.027426828 0.19245909
-0.027095413 0.023013812 0.1948422
-0.02757203 0.017689118 0.19708674
-0.027759043 0.013322647 0.1989568
-0.027814737 0.010940002 0.19955859
-0.028984206 0.009397055 0.19981055
-0.028843554 0.0062208124 0.20346591
-0.028900845 0.0031161311 0.20647733
-0.030245686 -0.00084425445 0.21132915
-0.030679643 -0.0038688015 0.21662346
-0.031935636 -0.0076297265 0.21987477
-0.032806102 -0.010397539 0.22178864
-0.03349347 -0.01305842 0.22327128
-0.033074424 -0.016564449 0.22455123
-0.031688906 -0.019421492 0.22592933
-0.031386789 -0.021903971 0.22729523
-0.031225896 -0.0247708 0.23056269
-0.022403089 0.044422634 0.17913051
-0.021878634 0.042897835 0.18054703
-0.021714125 0.039901223 0.18213803
-0.021348221 0.036864065 0.18380909
-0.021434831 0.034353409 0.18697467
-0.021856342 0.031690694 0.18955012
-0.022297679 0.028947974 0.19231558
-0.023289083 0.025106719 0.1953533
-0.024228096 0.019018611 0.19940051
-0.024671489 0.014359702 0.20189108
-0.024788547 0.011781427 0.20284048
-0.025516776 0.0094546592 0.20323567
-0.026131853 0.0065707294 0.20588629
-0.026796175 0.0034469657 0.20921919
-0.026879137 0.00013629187 0.21415867
-0.026634915 -0.0036512956 0.21758416
-0.027523162 -0.0076965238 0.2204545
-0.02845883 -0.010777102 0.22205734
-0.02859875 -0.013331066 0.22383872
-0.028168129 -0.016261239 0.22622895
-0.027211556 -0.018794196 0.22687553
-0.027728299 -0.022195254 0.22784911
-0.027275907 -0.025615234 0.23169206
-0.018731901 0.042618617 0.18191461
-0.018625164 0.040305641 0.18373661
-0.018480999 0.037373684 0.18499716
-0.018726107 0.034549665 0.1873983
-0.018959433 0.03205549 0.18991022
-0.019193444 0.029506147 0.19223604
-0.019820875 0.026135091 0.19630958
-0.020538989 0.021460105 0.19996674
-0.02097884 0.016566556 0.20308791
-0.021458061 0.012705217 0.20476291
-0.022009091 0.010082946 0.20595063
-0.023055846 0.0071409857 0.20804116
-0.023408007 0.00389417 0.21204515
-0.022816945 0.00059720443 0.21604249
-0.02279859 -0.0029467933 0.21876594
-0.02311573 -0.0068059466 0.22165941
-0.023760052 -0.010051302 0.22299315
-0.023141289 -0.013164594 0.22494143
-0.022363879 -0.015881184 0.22761577
-0.022501172 -0.018578677 0.22766456
-0.0229834 -0.022236157 0.22771083
-0.023147512 -0.026165228 0.23224051
-0.015649311 0.040451996 0.18495205
-0.015714038 0.037772719 0.18637437
-0.015875507 0.034727648 0.18840252
-0.016429614 0.031780217 0.19068757
-0.016704518 0.029317342 0.19288762
-0.016758293 0.026198057 0.1972312
-0.017609706 0.022037812 0.20092164
-0.017498342 0.018403422 0.20356105
-0.017764837 0.014241738 0.20570093
-0.018259859 0.01101773 0.20843783
-0.019474743 0.0078373561 0.210857
-0.019471755 0.0047137532 0.21421586
-0.019004745 0.001379226 0.21731748
-0.01857388 -0.0021660489 0.22023289
-0.018585002 -0.0055137258 0.22358321
-0.019072561 -0.008988875 0.22479953
-0.018556399 -0.012263295 0.22604653
-0.018496258 -0.015654476 0.22729658
-0.019504793 -0.01926318 0.22830336
-0.019544665 -0.022800531 0.2296326
-0.019431708 -0.026367871 0.2338302
-0.013294135 0.037539478 0.18767931
-0.013524411 0.034217473 0.18967496
-0.013734818 0.03148846 0.19162017
-0.013901119 0.028942009 0.19355251
-0.013599274 0.026337344 0.19687793
-0.014394903 0.022875426 0.20125148
-0.01460884 0.019176425 0.20454691
-0.014356925 0.015490903 0.2076171
-0.014362457 0.012097424 0.21013328
-0.014694636 0.0086217728 0.21266024
-0.014857736 0.0056689968 0.21537611
-0.014797595 0.0021498278 0.21827833
-0.014649264 -0.0014279011 0.22168852
-0.01491696 -0.0047544679 0.22426012
-0.014916425 -0.0082937237 0.22560363
-0.014740142 -0.012444329 0.22694474
-0.014995897 -0.016581137 0.22849135
-0.015658259 -0.020193657 0.23038489
-0.015895257 -0.023478208 0.23252559
-0.015621719 -0.02628498 0.23584867
-0.011052262 0.034261212 0.19018395
-0.010565326 0.031601254 0.19208284
-0.010549994 0.028933754 0.19420105
-0.010281512 0.026390282 0.19730926
-0.010959066 0.023519533 0.20137006
-0.011494377 0.02004193 0.20529296
-0.010930449 0.016741872 0.20809668
-0.010643499 0.012839491 0.21035704
-0.010354253 0.0093554603 0.21287359
-0.010517052 0.0060867756 0.2160674
-0.010788773 0.0027573477 0.21901554
-0.010815547 -0.0009451356 0.22237863
-0.011148171 -0.0042267358 0.22433649
-0.011491507 -0.007973168 0.22551562
-0.011280539 -0.01214296 0.22650428
-0.011340408 -0.016420495 0.22952914
-0.01145334 -0.019974355 0.23154126
-0.012092838 -0.023779513 0.23495524
-0.012724742 -0.026053723 0.23707148
-0.007180355 0.03151321 0.19315399
-0.0069489749 0.029125649 0.19581456
-0.0070426096 0.026381228 0.19887811
-0.0075971386 0.02363251 0.2018459
-0.0079204533 0.020661866 0.20556313
-0.007464 0.017232168 0.20832938
-0.0069224592 0.013507328 0.21039669
-0.0065683778 0.009923107 0.2126262
-0.006599525 0.0062653241 0.21632855
-0.006831714 0.0026608654 0.21956562
-0.0069964067 -0.00096741522 0.22258021
-0.0070972885 -0.0043472378 0.22379033
-0.0077350237 -0.0078370478 0.22578479
-0.0077930922 -0.01221079 0.22665496
-0.0077059525 -0.016499139 0.23021497
-0.0082719484 -0.02008166 0.23222664
-0.0090059573 -0.023005266 0.23450415
-0.0045413096 0.031122198 0.19486435
-0.0031949345 0.029309353 0.19748436
-0.0034114197 0.026445543 0.19996981
-0.0040735458 0.023772124 0.20226452
-0.0040558018 0.020776715 0.20517261
-0.0040574316 0.017313452 0.20799284
-0.0033123237 0.013565604 0.2101398
-0.0029308747 0.010247023 0.21248573
-0.0028404372 0.0066140951 0.215753
-0.0032213849 0.0028475048 0.2188106
-0.0031313456 -0.00084072998 0.22202405
-0.003171124 -0.0047499314 0.22330067
-0.003876107 -0.0084265592 0.22578089
-0.0045480775 -0.012455666 0.22704743
-0.0052577602 -0.016126107 0.23008269
-0.00016075371 0.028691063 0.19881539
-0.00015611415 0.026439713 0.2003437
-0.00057165878 0.023842148 0.20233575
-0.00071613339 0.020803051 0.204647
-0.00045544509 0.017106844 0.20717506
0.00014415747 0.01358573 0.20970175
0.00059162179 0.010360315 0.21204758
0.00082024868 0.0067763878 0.2145288
9.8808334e-05 0.0031000087 0.21733902
0.00052017713 -0.00078406546 0.22030511
0.00010090612 -0.0046235165 0.22297412
-0.0016075346 -0.0080005452 0.22620536
0.0031934015 0.026298633 0.20080943
0.0034105254 0.023554699 0.20253178
0.0031100458 0.020506585 0.20431787
0.0030441978 0.017026098 0.20680243
0.0038261015 0.01324326 0.20901841
0.0033701176 0.010534058 0.21116771
0 0 0 1 0 0 0 1 0 0 0 1 0 0 0 0 0 346 1 0 0
