ply
format ascii 1.0
comment PCL generated
element vertex 346
property float x
property float y
property float z
element camera 1
property float view_px
property float view_py
property float view_pz
property float x_axisx
property float x_axisy
property float x_axisz
property float y_axisx
property float y_axisy
property float y_axisz
property float z_axisx
property float z_axisy
property float z_axisz
property float focal
property float scalex
property float scaley
property float centerx
property float centery
property int viewportx
property int viewporty
property float k1
property float k2
end_header
-0.059624385 0.026820242 0.19045705
-0.05997787 0.02403653 0.19146219
-0.060151432 0.021364858 0.19258954
-0.060275827 0.01845579 0.19399099
-0.060625914 0.015662368 0.19517334
-0.059186541 0.012503381 0.19749871
-0.056266733 0.029665552 0.18716478
-0.057406023 0.027293127 0.18884574
-0.056912653 0.024210731 0.18958373
-0.056845203 0.0214197 0.19109751
-0.057349611 0.018594706 0.19261813
-0.057879735 0.015265892 0.19445984
-0.057519618 0.01254142 0.19652057
-0.057248302 0.0099031469 0.1985582
-0.057137847 0.0072638434 0.2003642
-0.049203273 0.030879581 0.1821489
-0.050699558 0.029244246 0.18368644
-0.053051036 0.027219314 0.18570261
-0.05339516 0.024236709 0.18774538
-0.052951999 0.021454763 0.18983644
-0.053417876 0.018655587 0.19147654
-0.053886116 0.015451125 0.19321127
-0.054505713 0.012580633 0.19547032
-0.05508082 0.0090227732 0.19796428
-0.055887748 0.0054160696 0.20001741
-0.055801015 0.0021604155 0.20238815
-0.055864695 -0.00056662381 0.20441553
-0.045528829 0.033133704 0.17964585
-0.046076883 0.031174779 0.18100706
-0.046875037 0.029109897 0.18272199
-0.048074685 0.027115274 0.18457142
-0.049477909 0.024354929 0.18765447
-0.049293254 0.021428831 0.18992567
-0.049637921 0.018522907 0.19180797
-0.050256614 0.015491386 0.19342072
-0.051461186 0.012513272 0.19521427
-0.052437399 0.0081552658 0.19697972
-0.053404409 0.0035343808 0.19731367
-0.053899121 0.00032905099 0.20063882
-0.0534941 -0.0024629261 0.20401461
-0.053418133 -0.0045141452 0.20769563
-0.053847101 -0.0058266306 0.21138525
-0.042544473 0.036303833 0.17826991
-0.043131426 0.034131765 0.17935655
-0.043290928 0.031893186 0.18101683
-0.043750573 0.029792951 0.18299082
-0.044471834 0.027493434 0.18533388
-0.0453532 0.02410936 0.18844697
-0.045583256 0.021225633 0.19072196
-0.045806687 0.018475657 0.19228055
-0.046734411 0.015272258 0.19396093
-0.048290376 0.012481124 0.1950085
-0.049194656 0.0075091072 0.19490255
-0.049598329 0.0021873689 0.19390345
-0.049366828 -0.0021141528 0.19754167
-0.04989465 -0.003245075 0.20387812
-0.050405819 -0.0050913095 0.20829928
-0.05168467 -0.0067091547 0.2122205
-0.052635856 -0.0087079592 0.21482578
-0.053591229 -0.010650715 0.21870594
-0.040614631 0.038092028 0.17790715
-0.040553588 0.035094995 0.17971198
-0.040797457 0.032620169 0.18151002
-0.04117205 0.03042881 0.1836092
-0.04158229 0.027665276 0.18643118
-0.04227984 0.023787091 0.18937342
-0.042461913 0.021105349 0.19120273
-0.043070327 0.018635282 0.19248529
-0.043574788 0.015967468 0.19409554
-0.044557355 0.01260554 0.19536595
-0.04584505 0.0064463941 0.19325128
-0.043809716 0.00058011984 0.19292115
-0.041070968 -0.0039767558 0.19572785
-0.046114553 -0.0046440852 0.2040948
-0.047262423 -0.0055480413 0.20905331
-0.048295524 -0.0064706756 0.21310225
-0.049652338 -0.0083200838 0.21644229
-0.051554456 -0.010663603 0.22022463
-0.05136627 -0.013270508 0.22269012
-0.049916528 -0.016075654 0.22244386
-0.03791317 0.041181289 0.17681943
-0.037993956 0.039493818 0.17813131
-0.037938379 0.036474384 0.17974453
-0.038349934 0.033309437 0.1819582
-0.038506046 0.031122718 0.18467696
-0.038972564 0.02720543 0.18807019
-0.039281216 0.023669569 0.19022246
-0.039777443 0.021083537 0.19190162
-0.040374465 0.018641068 0.19330332
-0.04122619 0.016138077 0.19505714
-0.042239062 0.01279808 0.19609053
-0.043066788 0.0058616325 0.19357403
-0.040715985 0.0010424636 0.1952422
-0.040115926 -0.0029049455 0.19880201
-0.042708464 -0.0051562269 0.20499091
-0.044109765 -0.0057098977 0.20988575
-0.045381635 -0.0070536383 0.21361865
-0.046507027 -0.0086395936 0.21666457
-0.047388468 -0.010153433 0.21978132
-0.047356866 -0.013807501 0.22183497
-0.047798105 -0.017883813 0.22465445
-0.046687834 -0.020625375 0.22624737
-0.035372924 0.042508617 0.17668967
-0.034949373 0.04111604 0.17815183
-0.034172602 0.038800478 0.17956884
-0.033982288 0.036371145 0.18142384
-0.034821562 0.032404169 0.18511435
-0.035675116 0.027201356 0.18952015
-0.036320519 0.023965966 0.19107351
-0.037071075 0.021153141 0.19295944
-0.0378391 0.01865937 0.19443685
-0.038923644 0.015927644 0.19641893
-0.040169202 0.012089274 0.19722101
-0.04029382 0.0072863316 0.19507098
-0.039096702 0.0025899629 0.19748543
-0.039091568 -0.00079390081 0.20115359
-0.040626425 -0.0033284405 0.20632698
-0.040880758 -0.0057400567 0.21159427
-0.042369671 -0.0075629526 0.21481673
-0.042987563 -0.0094910227 0.21699026
-0.043464523 -0.012177718 0.2192346
-0.044112954 -0.015661184 0.2209848
-0.044280842 -0.019168349 0.2234337
-0.043170545 -0.021251105 0.2255484
-0.032340202 0.043093443 0.17699407
-0.031778198 0.04172343 0.17847957
-0.031180043 0.039320584 0.18034233
-0.030877745 0.037064027 0.18240985
-0.031010736 0.03313468 0.18613276
-0.032366265 0.02808075 0.1900498
-0.033002988 0.024816304 0.19154172
-0.034020159 0.021381255 0.1937869
-0.035399061 0.018342759 0.19575371
-0.036500569 0.015284293 0.1978271
-0.038095716 0.01144295 0.19836508
-0.038334437 0.0080402819 0.19700472
-0.037198015 0.0040549752 0.19984804
-0.036978755 0.00098987937 0.20329928
-0.038320202 -0.0016683396 0.20752469
-0.03909082 -0.0044357432 0.21201612
-0.039765995 -0.0066539571 0.21611239
-0.040441047 -0.009315935 0.21789066
-0.040412676 -0.012491488 0.21903394
-0.040877927 -0.015904682 0.22031437
-0.040979501 -0.019336794 0.22225945
-0.039611544 -0.021544734 0.22456096
-0.029261271 0.04306142 0.1777453
-0.028735016 0.041744482 0.17898747
-0.028317219 0.039424639 0.18064164
-0.027832512 0.037125777 0.18325172
-0.02757699 0.033479054 0.18682183
-0.028537152 0.029511044 0.19014183
-0.029647322 0.025707949 0.19228916
-0.030873511 0.022041807 0.19427629
-0.032809921 0.018113935 0.19739829
-0.034157932 0.014262834 0.20019813
-0.035650916 0.011219894 0.20010923
-0.03592572 0.0094077308 0.19949782
-0.034693163 0.0063609923 0.2021261
-0.033757139 0.0032407974 0.20527424
-0.035473574 -0.0007373314 0.20905454
-0.036723174 -0.0035785269 0.21304724
-0.037159763 -0.0063683675 0.21779653
-0.037572 -0.0098171206 0.21879205
-0.037810937 -0.012968278 0.21975227
-0.037840307 -0.016282856 0.22127458
-0.03750385 -0.019539975 0.22290546
-0.035867259 -0.021627309 0.22536418
-0.02620036 0.04334214 0.17829329
-0.025740765 0.042165704 0.17952552
-0.025102403 0.039779656 0.18086579
-0.02465757 0.03701866 0.18359481
-0.02444377 0.034262523 0.18665726
-0.025165504 0.031095237 0.18971173
-0.026153227 0.027044998 0.19289474
-0.027694305 0.022431618 0.19562744
-0.029655356 0.017449658 0.19983163
-0.031247536 0.013885776 0.20259897
-0.031275671 0.012170286 0.20286718
-0.032257669 0.010776481 0.2025253
-0.031479705 0.0075535201 0.20551012
-0.031259578 0.0040720697 0.20796081
-0.03298796 2.1436794e-05 0.21212256
-0.032367818 -0.0038569851 0.21677001
-0.033433732 -0.0078086634 0.21894272
-0.034494694 -0.010918016 0.2200167
-0.034927107 -0.013405769 0.22088847
-0.034660872 -0.01659425 0.22229263
-0.033112604 -0.019310633 0.22459933
-0.031739559 -0.021595141 0.22653183
-0.030614836 -0.024402047 0.23014773
-0.022797648 0.044420104 0.17882039
-0.022021828 0.042780485 0.18027677
-0.021770941 0.039774027 0.18192175
-0.021534938 0.036848925 0.18391681
-0.021676037 0.034437608 0.18722419
-0.022048255 0.031819277 0.18997565
-0.022448307 0.029022746 0.19283873
-0.023276605 0.024808414 0.19580117
-0.024811247 0.01789448 0.20133215
-0.026620593 0.01449506 0.20482938
-0.027373958 0.012934531 0.20603275
-0.028334243 0.010949875 0.20621927
-0.02875053 0.0076591978 0.20831107
-0.029159175 0.0040287566 0.21097454
-0.028350804 -0.00015499849 0.21481797
-0.027560843 -0.004181304 0.21821399
-0.02886606 -0.0083966162 0.22058646
-0.029934168 -0.011621672 0.22187443
-0.029972175 -0.014050961 0.22358428
-0.028982377 -0.016704848 0.22603847
-0.02697097 -0.018931298 0.22701089
-0.027099418 -0.022008726 0.22784163
-0.026199484 -0.02518817 0.23157308
-0.01870345 0.042514421 0.18197194
-0.018693646 0.040280316 0.18381451
-0.018685825 0.037450191 0.18511015
-0.019040089 0.034616396 0.18764712
-0.019228997 0.032141156 0.19029637
-0.019267598 0.029608577 0.19271007
-0.019527953 0.026091766 0.19691092
-0.020056847 0.020967375 0.20092969
-0.02067804 0.016150361 0.20485255
-0.02229655 0.012786522 0.20732024
-0.02355605 0.010651782 0.20852543
-0.025030842 0.0076698796 0.21043605
-0.024741756 0.0036883017 0.21334876
-0.023390869 -0.00017572199 0.21642353
-0.02359893 -0.0036379318 0.21940848
-0.024088966 -0.0075301374 0.22215118
-0.02469193 -0.0108395 0.22336587
-0.023760812 -0.013817553 0.22563529
-0.022412321 -0.016186273 0.2280058
-0.02232595 -0.018590599 0.22784103
-0.022345563 -0.021989601 0.22780527
-0.022049816 -0.025594342 0.23186734
-0.015714264 0.040485587 0.18523623
-0.015909789 0.037827961 0.18664731
-0.016184164 0.034705639 0.1888143
-0.016759213 0.031760477 0.19133098
-0.016859453 0.029310079 0.19358978
-0.016529609 0.026146065 0.19782041
-0.017159594 0.021720607 0.20168015
-0.016857622 0.0182798 0.20462656
-0.017149756 0.014156663 0.20734312
-0.018611435 0.011073099 0.21009937
-0.020611567 0.0075902161 0.21212611
-0.020070765 0.0040641343 0.21471192
-0.019499186 0.0005936558 0.21757177
-0.0191312 -0.002696652 0.22091365
-0.019035459 -0.0058818557 0.22427708
-0.019569933 -0.0093646776 0.22521162
-0.019008867 -0.012451698 0.22643104
-0.018801291 -0.015793735 0.22759016
-0.019458778 -0.019204892 0.228405
-0.019012757 -0.022434257 0.22944385
-0.018411158 -0.025807159 0.23340555
-0.013532626 0.03747746 0.187998
-0.01387416 0.034121163 0.19019786
-0.014051287 0.031434674 0.19220217
-0.014056918 0.028967818 0.19423862
-0.013427335 0.026350977 0.19747119
-0.013964201 0.022776568 0.20187332
-0.014000919 0.019160913 0.20533843
-0.013568757 0.015677277 0.2087407
-0.013954569 0.012090567 0.21098863
-0.01492734 0.0081614228 0.21311444
-0.015211378 0.0049637542 0.21570553
-0.015142771 0.0015343587 0.21858072
-0.01510879 -0.0018969552 0.2221826
-0.015403181 -0.0051276386 0.22455899
-0.015323207 -0.0085401852 0.2257826
-0.015268922 -0.012610058 0.22719552
-0.015348764 -0.016723771 0.22876361
-0.015735228 -0.020339511 0.23045759
-0.015621913 -0.023289716 0.2322647
-0.015174765 -0.02584024 0.23522469
-0.01126737 0.034145083 0.19050232
-0.010731921 0.031419005 0.19249359
-0.010636883 0.028775064 0.19468878
-0.010141237 0.02638909 0.19790953
-0.010675253 0.023590617 0.20196328
-0.011103956 0.020203549 0.205714
-0.010497841 0.016974157 0.20869461
-0.01056507 0.012875239 0.21094404
-0.010445734 0.0091084335 0.21348847
-0.010737957 0.0056399498 0.21655497
-0.011042761 0.0022503815 0.2194667
-0.01119926 -0.0013474425 0.22267292
-0.011613553 -0.0045138756 0.22436276
-0.01189706 -0.0082445638 0.22547334
-0.01189198 -0.012348815 0.2267672
-0.011703473 -0.016465787 0.22976738
-0.011667811 -0.020057363 0.23160253
-0.012062577 -0.023750238 0.2346566
-0.012513249 -0.025953157 0.23672923
-0.0072415429 0.031251356 0.19353822
-0.0069748061 0.028981848 0.19638416
-0.006906182 0.026368508 0.19954625
-0.0075618182 0.023728153 0.20235525
-0.0081152273 0.020855708 0.20604876
-0.0076555158 0.017322343 0.20878892
-0.0070407079 0.013608608 0.21093842
-0.0065913615 0.0098600835 0.21324627
-0.0067343265 0.006071758 0.21698645
-0.0071414812 0.0023817595 0.22005194
-0.0072633326 -0.001145471 0.22277518
-0.007331484 -0.0044899341 0.22384718
-0.0080376249 -0.0080726473 0.22570579
-0.0084186317 -0.012506588 0.22687738
-0.0080495616 -0.016703838 0.23034739
-0.0085075321 -0.020199059 0.23216543
-0.0090616709 -0.023131669 0.23437025
-0.0045425394 0.03085978 0.19538024
-0.0031061554 0.029097563 0.19810347
-0.0033911455 0.026214188 0.20057635
-0.0042508072 0.023577368 0.20271832
-0.0043052887 0.020616677 0.20566544
-0.0044305772 0.017306678 0.20854917
-0.0035643908 0.01357594 0.2107508
-0.003016504 0.010231476 0.21312261
-0.0029035553 0.0065520387 0.21638148
-0.003486258 0.002845621 0.219294
-0.0033950096 -0.00078853249 0.22224563
-0.0033326282 -0.0047037643 0.22340122
-0.0041549276 -0.008564312 0.22581078
-0.0050536334 -0.012763643 0.22711442
-0.0056165741 -0.016402837 0.23011442
-5.9725709e-05 0.028285647 0.19941822
-0.00021169356 0.026061768 0.20080175
-0.00076266879 0.023484986 0.20273367
-0.0010211878 0.020492615 0.2051387
-0.00087315927 0.016894495 0.20789255
-0.00010158288 0.013430173 0.21052542
0.00042305148 0.01026483 0.21279128
0.00067898328 0.006695074 0.21524306
-0.00015430534 0.0032245149 0.21787463
0.00032972419 -0.00050534453 0.22053972
2.9871828e-05 -0.0044584507 0.22315226
-0.0018538717 -0.0080902344 0.22624184
0.0031470002 0.02580305 0.20126869
0.0032799952 0.023077227 0.20305893
0.0027905107 0.020112375 0.20496064
0.0027166011 0.016661877 0.20766167
0.0036594835 0.012767863 0.21000023
0.0031209656 0.010241088 0.21203779
0 0 0 1 0 0 0 1 0 0 0 1 0 0 0 0 0 346 1 0 0
