ply
format ascii 1.0
comment PCL generated
element vertex 348
property float x
property float y
property float z
element camera 1
property float view_px
property float view_py
property float view_pz
property float x_axisx
property float x_axisy
property float x_axisz
property float y_axisx
property float y_axisy
property float y_axisz
property float z_axisx
property float z_axisy
property float z_axisz
property float focal
property float scalex
property float scaley
property float centerx
property float centery
property int viewportx
property int viewporty
property float k1
property float k2
end_header
-0.057545125 0.023679491 0.1904898
-0.058090951 0.021064559 0.19202891
-0.058472585 0.017916899 0.19350243
-0.058731306 0.015035101 0.19500878
-0.058953639 0.012292444 0.19650103
-0.058972288 0.0097414451 0.19794096
-0.058596574 0.0071489406 0.19936448
-0.054644525 0.025286462 0.18666092
-0.05554039 0.024357382 0.18765202
-0.055334706 0.021689214 0.18902567
-0.055576202 0.01844449 0.1907274
-0.055798553 0.015109095 0.19239196
-0.056366608 0.012073776 0.19400892
-0.056987505 0.0092181647 0.19620208
-0.057042282 0.0058298702 0.19730462
-0.056123156 0.0014680229 0.19729114
-0.055756718 -0.0010432763 0.19986558
-0.051846746 0.027074115 0.1836789
-0.052311815 0.025670322 0.18487033
-0.052382872 0.023874642 0.18597871
-0.052608449 0.021912895 0.18737213
-0.052629028 0.018723423 0.18895738
-0.052617572 0.014943544 0.19085786
-0.05321639 0.011646675 0.19227816
-0.054022409 0.0084175924 0.19367488
-0.054651421 0.0039464729 0.19429623
-0.053794201 7.9255451e-06 0.19696392
-0.053948458 -0.0021458995 0.19999504
-0.054566737 -0.003244404 0.20308718
-0.054265257 -0.0039892267 0.20551623
-0.054059986 -0.0048064478 0.20691526
-0.049260881 0.027918672 0.18238051
-0.049712505 0.026058968 0.18343301
-0.049994819 0.024163591 0.18477854
-0.05024137 0.022064721 0.18638359
-0.050166022 0.019024247 0.1882994
-0.049920477 0.014099012 0.18934959
-0.050665729 0.010279316 0.1910859
-0.05173672 0.0066227587 0.1914878
-0.052820656 0.00044120479 0.19331554
-0.051943399 -0.0024215963 0.1964874
-0.051253971 -0.0039323545 0.19880866
-0.051245093 -0.0041726222 0.20159575
-0.051593181 -0.0035528908 0.20520125
-0.052463915 -0.0042161676 0.20831294
-0.052973934 -0.0055690971 0.21184388
-0.052484937 -0.0080245025 0.21589558
-0.045843504 0.030707326 0.18058723
-0.046394721 0.028912364 0.18158142
-0.047034539 0.026696686 0.18290356
-0.047474101 0.024752235 0.18423936
-0.047864158 0.022428207 0.18575183
-0.047940638 0.019284068 0.18728375
-0.047781844 0.014374536 0.1882796
-0.049326897 0.0093673607 0.1892475
-0.050781749 0.0041725254 0.18997161
-0.051387656 -0.0025581524 0.1934997
-0.050638981 -0.0062945141 0.19607319
-0.049832288 -0.0065717665 0.19802108
-0.048817392 -0.0043047061 0.20018718
-0.048389044 -0.0030165312 0.20520332
-0.048909068 -0.0035287836 0.20880471
-0.049818326 -0.0062897122 0.21207447
-0.050550576 -0.0088016298 0.21569954
-0.051436853 -0.012409301 0.21954693
-0.043206759 0.032528825 0.17986597
-0.043833647 0.029607786 0.18152589
-0.043833513 0.027543448 0.1826182
-0.044996746 0.025394334 0.18391255
-0.045225449 0.023209427 0.1849056
-0.045179419 0.020243244 0.18597849
-0.045435131 0.01594311 0.18705413
-0.048390057 0.008682196 0.18812643
-0.050372209 0.0017830981 0.18883426
-0.049438067 -0.0056720958 0.19296126
-0.048106942 -0.0079361554 0.19542374
-0.046745006 -0.006504409 0.19784655
-0.045933839 -0.0039222157 0.1997664
-0.04540354 -0.0027067245 0.20508458
-0.045499582 -0.003385857 0.20926033
-0.045721762 -0.0057486342 0.21258859
-0.047395848 -0.0092583541 0.21631888
-0.049169738 -0.013677117 0.21993947
-0.04910377 -0.017364092 0.22303988
-0.048404597 -0.020041019 0.22461018
-0.03981011 0.038382489 0.17814855
-0.040031068 0.035068169 0.17987117
-0.038742956 0.03242277 0.18150081
-0.039929349 0.029970586 0.18241538
-0.040622912 0.027528731 0.18332943
-0.041805405 0.024312207 0.1843043
-0.041772846 0.021105111 0.18475109
-0.043231923 0.016378032 0.1863489
-0.047239214 0.0088906977 0.18659247
-0.049142174 0.0034927279 0.185533
-0.046946563 -0.0067351526 0.19161963
-0.044557922 -0.0075749606 0.19510582
-0.043317009 -0.0052956012 0.19778648
-0.043141972 -0.003695725 0.19907202
-0.042646654 -0.0027289863 0.20380409
-0.042986311 -0.0035916939 0.20777817
-0.044247497 -0.0063425065 0.21069728
-0.045952335 -0.0079716137 0.21381113
-0.045859471 -0.013515224 0.21824022
-0.045603625 -0.01763159 0.2216845
-0.045956586 -0.020973852 0.22427532
-0.045211069 -0.023361195 0.22514224
-0.037446383 0.040247221 0.17763658
-0.036854293 0.03845321 0.17934833
-0.036453929 0.033927567 0.18119103
-0.036970001 0.031531975 0.18247414
-0.036505546 0.029406194 0.18358299
-0.036344193 0.025984166 0.18498749
-0.036872316 0.022987558 0.18531451
-0.040744595 0.017201573 0.18609793
-0.04533755 0.010286756 0.1854057
-0.046386216 0.0058036759 0.18241768
-0.042820279 -0.0078091072 0.19075637
-0.04125097 -0.0082003837 0.194353
-0.040998187 -0.0060408674 0.19483389
-0.040431049 -0.0037738674 0.19787113
-0.040408175 -0.0034267418 0.20258673
-0.041089844 -0.0039726626 0.20585431
-0.042436108 -0.0063380469 0.209791
-0.044086322 -0.0083414735 0.21329898
-0.042658247 -0.01379544 0.21707956
-0.041929428 -0.018118111 0.22051157
-0.042078979 -0.021030016 0.22318999
-0.042097703 -0.023755828 0.22442874
-0.034303527 0.041245658 0.17764585
-0.03391986 0.0395533 0.17927392
-0.034029689 0.034481239 0.1818848
-0.034092415 0.031533625 0.18356042
-0.033421662 0.029790755 0.18472199
-0.033242311 0.027079778 0.18569884
-0.034220327 0.022926273 0.18596943
-0.035129867 0.019496767 0.18589264
-0.042134102 0.012694259 0.18470936
-0.041918967 0.0070110224 0.18171263
-0.040745925 0.0030649491 0.18091445
-0.038575765 -0.006084356 0.18789694
-0.037896179 -0.0050212899 0.19295308
-0.03761033 -0.0029970668 0.19709036
-0.037506234 -0.0027683103 0.20248769
-0.038269766 -0.0037721437 0.2064843
-0.039697371 -0.006696098 0.21018074
-0.040898457 -0.00973933 0.21381284
-0.039849915 -0.014643124 0.21718836
-0.038573399 -0.018699951 0.22046219
-0.039008785 -0.021707088 0.2226142
-0.038486838 -0.02356253 0.22392209
-0.031307094 0.041613232 0.17806688
-0.030804344 0.039834324 0.1797953
-0.031050649 0.035272356 0.18252112
-0.031190369 0.032318767 0.18437189
-0.030704165 0.030462094 0.18551488
-0.031037044 0.027405113 0.18657583
-0.03135911 0.023841621 0.18683901
-0.031140454 0.021211345 0.18696359
-0.035647139 0.015416132 0.18559054
-0.037082255 0.00804812 0.18347579
-0.033396486 0.0053911461 0.18446109
-0.033217482 0.0018323417 0.18717277
-0.034216098 -0.001665201 0.19107126
-0.034299467 -0.0019409943 0.19452026
-0.03462768 -0.0032188972 0.20477998
-0.035545893 -0.0047608367 0.207737
-0.0371328 -0.0080816038 0.21099678
-0.037963185 -0.01172136 0.21454296
-0.036008075 -0.015835509 0.21765628
-0.034888271 -0.018632023 0.22141647
-0.03465483 -0.020875094 0.22295807
-0.035197075 -0.023632498 0.22488175
-0.034667201 -0.024958514 0.22740927
-0.027992683 0.041888248 0.17876285
-0.027515931 0.040150311 0.18022999
-0.026946137 0.03711836 0.18232179
-0.028140867 0.033682648 0.18445784
-0.028003931 0.031020138 0.18627337
-0.028307339 0.027788604 0.18781358
-0.028759401 0.024699939 0.18814863
-0.02902177 0.021693418 0.18809733
-0.030242879 0.016963793 0.18760081
-0.032024603 0.010428395 0.18572529
-0.028297093 0.0065052202 0.19015932
-0.027843816 0.0035107958 0.19348988
-0.027528035 0.00090819801 0.19884227
-0.028513277 -0.0028073008 0.20580442
-0.030667942 -0.0047632093 0.20921251
-0.032841049 -0.0072945259 0.21107599
-0.034627605 -0.010701892 0.21399732
-0.033658896 -0.014371582 0.21791966
-0.032319795 -0.017054293 0.22030443
-0.032206658 -0.019485818 0.22263721
-0.032092065 -0.021623729 0.22420868
-0.03212364 -0.023729373 0.2260801
-0.031719387 -0.024573747 0.22836092
-0.025712235 0.042466898 0.17890872
-0.023842396 0.040558007 0.18075888
-0.022753576 0.038317341 0.18229376
-0.023310395 0.035045907 0.18474525
-0.02426661 0.031635471 0.1874498
-0.02474661 0.028810181 0.18929668
-0.026093435 0.025386186 0.18959001
-0.027042257 0.02167967 0.18962103
-0.026833409 0.018078599 0.1902307
-0.025643472 0.014664417 0.19106944
-0.024138022 0.0093387449 0.19362664
-0.024127027 0.0052116448 0.19710502
-0.024695767 0.0020449865 0.20174013
-0.025983445 -0.0024665562 0.20804451
-0.027722824 -0.0057834815 0.21210676
-0.02905282 -0.0090661729 0.21516508
-0.02968641 -0.012827065 0.21862847
-0.029328015 -0.01621986 0.22171395
-0.02972592 -0.018910328 0.2231871
-0.030390497 -0.020486854 0.22399829
-0.029776467 -0.021984857 0.2246491
-0.02911902 -0.023419905 0.22636262
-0.028693385 -0.024861531 0.228751
-0.019404173 0.040934637 0.18230432
-0.019367745 0.038270853 0.18410355
-0.018085163 0.035274319 0.18645659
-0.019053048 0.032254353 0.1886134
-0.020055272 0.029658725 0.19071102
-0.021151053 0.026651617 0.19231014
-0.024350263 0.021846635 0.1920068
-0.024408093 0.019036327 0.1923155
-0.023768235 0.01640599 0.19346438
-0.022687225 0.012595471 0.19490591
-0.021640839 0.0078422884 0.19798495
-0.021772381 0.0030109324 0.20480707
-0.022826672 -0.0022142639 0.21104611
-0.024195667 -0.0072969175 0.21678708
-0.024860807 -0.010662379 0.21934085
-0.02521464 -0.013847095 0.22231843
-0.025926346 -0.016412526 0.22364862
-0.026494144 -0.018768603 0.22483656
-0.027494511 -0.020579703 0.2255169
-0.026939711 -0.022168964 0.22494777
-0.026244326 -0.023714071 0.22600645
-0.025867479 -0.025270171 0.22891743
-0.015499677 0.03854486 0.18585031
-0.014724563 0.035739936 0.1877072
-0.015143654 0.03301879 0.18963957
-0.015573462 0.030588528 0.1915924
-0.014927769 0.027956422 0.19379686
-0.014758622 0.024557935 0.19644581
-0.021521471 0.020543529 0.19480078
-0.021421988 0.017324995 0.19633733
-0.020083321 0.013473237 0.19800583
-0.018506596 0.0089540221 0.20228815
-0.018592762 0.004451273 0.20742296
-0.019631187 -0.0013667782 0.21375816
-0.020782124 -0.0078551797 0.22006641
-0.020931106 -0.011639097 0.22253208
-0.020471241 -0.014818606 0.22495237
-0.022179952 -0.016523739 0.22518969
-0.023349542 -0.018163791 0.22632433
-0.02409916 -0.01966534 0.22633675
-0.024063293 -0.021159129 0.22572966
-0.023401521 -0.022979816 0.22671528
-0.023431484 -0.025670741 0.23018605
-0.011608955 0.036183186 0.18862151
-0.01143303 0.033604734 0.1902539
-0.011340787 0.031206394 0.19202605
-0.010740489 0.028366039 0.19418663
-0.0092387628 0.024570474 0.19865327
-0.012565219 0.019884508 0.20075752
-0.016429672 0.01628349 0.20079069
-0.015464794 0.012610437 0.20260777
-0.015536502 0.0096239587 0.20544966
-0.015918532 0.0060968539 0.20863673
-0.016734293 -0.00045366664 0.21568318
-0.016926818 -0.0080599766 0.22198077
-0.01595078 -0.011286214 0.22399549
-0.015347436 -0.014040919 0.2259372
-0.016124209 -0.016177054 0.22663799
-0.019234223 -0.017277651 0.22613159
-0.020711461 -0.018826345 0.22601983
-0.021103034 -0.020801837 0.22639754
-0.021152699 -0.023108942 0.22830972
-0.020792088 -0.025670115 0.23161097
-0.0087299906 0.033706632 0.19092533
-0.0074782041 0.031279325 0.19303206
-0.0061451732 0.028207975 0.19673842
-0.005840885 0.023951698 0.20021087
-0.0079360204 0.019343952 0.20317622
-0.010944963 0.015593279 0.20473383
-0.011827961 0.012639912 0.20642386
-0.012346059 0.01012306 0.20806187
-0.013049354 0.0069594281 0.21015358
-0.013959634 0.0013605373 0.21559595
-0.012342268 -0.0070988336 0.222527
-0.011294111 -0.010261054 0.22448523
-0.011132242 -0.013280656 0.22628888
-0.011572255 -0.015529175 0.22753505
-0.013589368 -0.017007949 0.22747037
-0.015931882 -0.018573666 0.2278952
-0.01745514 -0.021190278 0.22890742
-0.018492512 -0.024993574 0.23210427
-0.0028068221 0.029694315 0.19705769
-0.0026362399 0.026236182 0.19946519
-0.0037986455 0.022151437 0.20175643
-0.0052356846 0.019908862 0.20371361
-0.0071529788 0.015748836 0.20639589
-0.0080716284 0.012567597 0.20839891
-0.0086271819 0.0099344971 0.21033253
-0.0091399299 0.0069115465 0.21316132
-0.011172467 0.0031931766 0.21569008
-0.008011655 -0.0060501103 0.22263291
-0.0071535418 -0.0098046567 0.22500728
-0.0074495906 -0.013027342 0.22626053
-0.008226309 -0.015611215 0.22806023
-0.0090866564 -0.01769145 0.22925761
-0.010982672 -0.019805614 0.23080224
-0.013992008 -0.022021392 0.23151973
-0.016361842 -0.024386941 0.23246095
0.0001546078 0.024510251 0.20063329
-0.0007984768 0.021320673 0.2026322
-0.00049152214 0.018618906 0.20474988
-0.0024648397 0.016191034 0.20673648
-0.0035648558 0.011881197 0.20946226
-0.0034356329 0.0085305432 0.21221144
-0.0034752772 0.0056627295 0.21457815
-0.0038156994 -0.0043645995 0.22210409
-0.0034356974 -0.009560395 0.22505008
-0.003945081 -0.01329628 0.22645645
-0.0047361054 -0.01599526 0.22831704
-0.0059208358 -0.018192053 0.22988538
-0.0076106945 -0.020137448 0.23190528
0.0021235375 0.022916295 0.20142691
0.0017834847 0.02074514 0.20284636
0.0017252907 0.018439859 0.20460074
0.0016838365 0.015606713 0.20728447
0.0011629532 0.011325615 0.21003827
0.00090493803 0.007973793 0.21258005
0.0008600693 0.0053665736 0.21479122
0.00024317381 0.0026359381 0.21738049
0.00022493304 -0.0019841592 0.22067314
-0.00049785682 -0.0079107666 0.22382648
-0.0012458763 -0.012898523 0.22646977
0.0038304972 0.020083528 0.20302658
0.0050724568 0.018362259 0.20487612
0.0047907969 0.015063485 0.20794386
0.0041862265 0.011345669 0.21010414
0.0039556976 0.0083069932 0.21234159
0.0037419125 0.006239315 0.21445155
0 0 0 1 0 0 0 1 0 0 0 1 0 0 0 0 0 348 1 0 0
