ply
format ascii 1.0
comment PCL generated
element vertex 348
property float x
property float y
property float z
element camera 1
property float view_px
property float view_py
property float view_pz
property float x_axisx
property float x_axisy
property float x_axisz
property float y_axisx
property float y_axisy
property float y_axisz
property float z_axisx
property float z_axisy
property float z_axisz
property float focal
property float scalex
property float scaley
property float centerx
property float centery
property int viewportx
property int viewporty
property float k1
property float k2
end_header
-0.05443915 0.032039009 0.18500884
-0.055979047 0.028778024 0.18662874
-0.056738485 0.025757993 0.18849526
-0.057421081 0.022488384 0.19081058
-0.058241732 0.019142466 0.19304557
-0.058551885 0.015961319 0.1946107
-0.058579016 0.012666057 0.19565016
-0.051028647 0.033074841 0.18104297
-0.052056361 0.031566411 0.1827074
-0.052529994 0.028932013 0.18430224
-0.053145427 0.025726348 0.18598928
-0.053838741 0.022332767 0.18863346
-0.054603025 0.01888 0.19095619
-0.055410128 0.015636779 0.19288734
-0.056014054 0.013751028 0.1941155
-0.056699775 0.0097137187 0.19579744
-0.0564816 0.0062520504 0.1979003
-0.047512174 0.035671774 0.17818408
-0.048167422 0.033812538 0.17927594
-0.048372928 0.031530365 0.18077379
-0.048798822 0.02894178 0.18245956
-0.049818914 0.02591932 0.18529947
-0.050368689 0.021936543 0.18889
-0.051195551 0.018515712 0.19084354
-0.051739912 0.017224746 0.1924334
-0.052702326 0.013909114 0.19419821
-0.053498622 0.0097777415 0.19568244
-0.053840809 0.0058442946 0.19819124
-0.054507941 0.0026386247 0.20072949
-0.054694593 1.4899415e-05 0.20318222
-0.054698888 -0.0011948374 0.20700569
-0.044963796 0.036640301 0.17739843
-0.04505498 0.034151081 0.17854831
-0.045307301 0.031742308 0.18025096
-0.045797415 0.029528553 0.18258409
-0.046495464 0.026582778 0.18517606
-0.047357406 0.021327304 0.1896463
-0.048304286 0.017832955 0.19196269
-0.048841331 0.01689465 0.19323877
-0.049810767 0.01319517 0.19431321
-0.050258957 0.0091101583 0.19537556
-0.050609283 0.0056725922 0.19821802
-0.051004741 0.0029434226 0.20094344
-0.051957816 0.00047689403 0.20489237
-0.05270385 -0.0016561773 0.20881353
-0.053046256 -0.0039176932 0.21239592
-0.052179564 -0.007415113 0.21533613
-0.04168063 0.039868422 0.17648377
-0.042181551 0.037388917 0.17749624
-0.042253342 0.034730561 0.17897028
-0.04242038 0.032343194 0.18074544
-0.043131635 0.029980646 0.1834628
-0.043642703 0.027164428 0.18590255
-0.044251461 0.022230165 0.18935539
-0.045139801 0.019772938 0.19212604
-0.046099376 0.016309042 0.19399555
-0.046738613 0.012228076 0.19444242
-0.046866782 0.0078119077 0.19509122
-0.047347877 0.0050566918 0.19784774
-0.047936767 0.0032410051 0.20199037
-0.048852701 0.00092542998 0.20640878
-0.049450506 -0.0015067665 0.21021552
-0.049598839 -0.0051053991 0.21245933
-0.04997202 -0.0080731343 0.21503904
-0.050282277 -0.010753959 0.21951574
-0.038903881 0.041154046 0.17669246
-0.039849401 0.037959088 0.17811599
-0.039418701 0.035437409 0.17961179
-0.039800584 0.033045407 0.18154174
-0.040267516 0.030613899 0.18381619
-0.040650871 0.027779277 0.18616174
-0.041292965 0.023647439 0.18907237
-0.04256494 0.019300323 0.19326667
-0.043184754 0.015723439 0.19518627
-0.043339316 0.011502087 0.19538136
-0.043448169 0.0073934826 0.19610724
-0.044006173 0.0050478177 0.19947137
-0.044757236 0.0034430309 0.20395298
-0.045623351 0.0012637172 0.20802832
-0.046126965 -0.0014848382 0.21196672
-0.045991097 -0.0054605003 0.2136859
-0.046458133 -0.0082593467 0.21636719
-0.047230341 -0.011261553 0.21974052
-0.047581192 -0.015026649 0.22273007
-0.047145866 -0.018517444 0.22459258
-0.035400808 0.04359686 0.17584875
-0.035940893 0.041730121 0.17733057
-0.035344798 0.03887162 0.17881222
-0.036557455 0.036256313 0.18002586
-0.037090402 0.033778049 0.182118
-0.037511211 0.031027935 0.18452255
-0.037495848 0.028203515 0.18680809
-0.038762067 0.023568435 0.1899137
-0.039416127 0.019308573 0.19464716
-0.039991878 0.015667204 0.19693075
-0.040203515 0.011516332 0.19755109
-0.040249947 0.0078040161 0.19870064
-0.040644892 0.0052504442 0.20220573
-0.041309383 0.0036605063 0.20639071
-0.042440169 0.0016199303 0.21016821
-0.042841412 -0.0013166536 0.21323249
-0.042853717 -0.0051478758 0.2140654
-0.043544274 -0.0079415347 0.2164114
-0.043504056 -0.011399212 0.21846436
-0.043894351 -0.015208917 0.22107314
-0.044580739 -0.019102056 0.22398266
-0.044319239 -0.021773376 0.2255501
-0.03296826 0.043820158 0.17611527
-0.03299794 0.042086642 0.17776363
-0.033149697 0.039438676 0.17914027
-0.033561133 0.036673095 0.18043017
-0.03390111 0.034148887 0.18259558
-0.034437608 0.031349529 0.18562762
-0.034446191 0.028353387 0.18790399
-0.035908308 0.023491967 0.19084708
-0.036308091 0.019960586 0.19543077
-0.036745541 0.0159068 0.19874248
-0.036916208 0.012145027 0.19994633
-0.03682708 0.008174126 0.20106694
-0.03725278 0.0059064659 0.20475377
-0.038048327 0.0042579523 0.20849904
-0.038982891 0.0019530853 0.21180595
-0.039427493 -0.00071255903 0.21435609
-0.039823715 -0.0046855225 0.21475197
-0.040364467 -0.0080323368 0.21669133
-0.039979301 -0.011746061 0.21827134
-0.040135484 -0.015401668 0.2202788
-0.04062169 -0.019153055 0.22275835
-0.040786639 -0.022209337 0.22516428
-0.029986372 0.044003122 0.17681074
-0.03006638 0.042306971 0.17791867
-0.030348739 0.039673086 0.17967194
-0.03075492 0.036763828 0.181715
-0.030891597 0.034202162 0.18363875
-0.031252172 0.031345405 0.18643546
-0.031313773 0.028160959 0.1892208
-0.031860821 0.024537133 0.191422
-0.033080358 0.021038665 0.19584902
-0.033516072 0.016552789 0.19961977
-0.032981712 0.012213139 0.20212922
-0.033290841 0.0090920152 0.20441782
-0.034118075 0.0069931424 0.20691164
-0.034755308 0.0046987706 0.20970799
-0.035288751 0.0023116476 0.21287362
-0.035947043 -0.00036883887 0.21526398
-0.036370058 -0.0048130751 0.21530816
-0.036826089 -0.0082066832 0.21717776
-0.036565311 -0.01155833 0.21867265
-0.036467399 -0.014795321 0.22111686
-0.037285998 -0.01944893 0.22265348
-0.036804333 -0.022232892 0.2252678
-0.02697826 0.044158861 0.17712002
-0.027065165 0.042378854 0.1784156
-0.027281053 0.039659142 0.18003373
-0.027625581 0.036992025 0.1825576
-0.027771145 0.034232371 0.18446197
-0.028202327 0.031493057 0.18717597
-0.02838764 0.028409045 0.18994035
-0.028479459 0.025089713 0.19191109
-0.030392978 0.020404521 0.19488873
-0.030698469 0.014673683 0.1982816
-0.029613961 0.012996954 0.20377663
-0.030104415 0.0099547599 0.20655796
-0.030608168 0.0073765032 0.20854315
-0.030847296 0.0061725639 0.20962889
-0.032330122 0.0019524321 0.21379021
-0.032253005 -0.00038467656 0.21553431
-0.032971878 -0.0047890963 0.21580759
-0.033439774 -0.0082010906 0.21777996
-0.032912333 -0.011240116 0.2196708
-0.032925349 -0.014770425 0.22288558
-0.032809537 -0.018428709 0.2245474
-0.033313081 -0.022238063 0.22665057
-0.033281203 -0.024214063 0.2298225
-0.023918275 0.044329725 0.17816384
-0.024157107 0.04257787 0.1793033
-0.024185861 0.03980333 0.18038896
-0.024400871 0.037017066 0.1825874
-0.024764339 0.034406696 0.18505099
-0.025162579 0.031675708 0.18772808
-0.025292395 0.028754804 0.19084939
-0.025608936 0.025184019 0.19314393
-0.026699563 0.02142976 0.19602656
-0.027271487 0.01608441 0.19944496
-0.026132178 0.011938145 0.20300843
-0.027013378 0.01095298 0.20803483
-0.027368924 0.0082353707 0.21039522
-0.027634239 0.0057364954 0.21226369
-0.027940085 0.0026952636 0.21468876
-0.028848665 -0.0015951811 0.2145444
-0.029502952 -0.0049353582 0.21682604
-0.029607156 -0.0080906199 0.21922114
-0.029188335 -0.011421199 0.22100687
-0.029301276 -0.01503248 0.22393706
-0.029552272 -0.018780854 0.22609895
-0.029932477 -0.022512594 0.22798006
-0.03014691 -0.024781186 0.23070867
-0.021757774 0.044719569 0.17849806
-0.021351682 0.042597614 0.18039224
-0.021062721 0.040232591 0.18164104
-0.021150069 0.037373204 0.18310469
-0.021425873 0.034660749 0.18586278
-0.021979215 0.032021411 0.18819977
-0.022315171 0.028845299 0.19157843
-0.022525933 0.025406243 0.19464274
-0.023097545 0.021908909 0.19739175
-0.023583101 0.017534537 0.20139667
-0.023410114 0.013308511 0.2043464
-0.023316851 0.009991724 0.20672646
-0.023602854 0.0072672963 0.20923097
-0.024169864 0.0044713663 0.21181671
-0.024764674 0.00149393 0.21392007
-0.025041444 -0.0014096848 0.21573578
-0.025555018 -0.0043885219 0.21844392
-0.025822718 -0.0077955797 0.22126931
-0.025732735 -0.011612188 0.22200319
-0.026152479 -0.015664058 0.22521463
-0.026138956 -0.019100878 0.22699781
-0.026497567 -0.022917451 0.22850542
-0.026715467 -0.025741499 0.2316068
-0.017992074 0.042684961 0.18191293
-0.018650688 0.039972879 0.18343316
-0.018126901 0.037676301 0.18475956
-0.018301044 0.034977853 0.18656348
-0.018740682 0.032280888 0.1888971
-0.019195501 0.029321769 0.19166413
-0.019290062 0.025585394 0.19614357
-0.019776907 0.021826273 0.19906984
-0.020405281 0.018135242 0.20208283
-0.020375689 0.014614546 0.20483819
-0.020175356 0.011075248 0.20737681
-0.020416848 0.0080777826 0.21017174
-0.020897405 0.0049205469 0.21297783
-0.021237036 0.0020788475 0.21544938
-0.021522144 -0.0010240293 0.21776703
-0.021983514 -0.0040896926 0.22097836
-0.022281766 -0.0076718722 0.22308427
-0.022176532 -0.011739899 0.2238203
-0.022622991 -0.016117873 0.22657411
-0.022531576 -0.01946101 0.22691496
-0.022757208 -0.023168681 0.22775985
-0.023168318 -0.026019661 0.23161329
-0.01559651 0.040812299 0.18470168
-0.015229405 0.03795974 0.18610285
-0.015438304 0.035178639 0.18751754
-0.015641531 0.032477994 0.18950626
-0.015852503 0.029384764 0.19196896
-0.016085738 0.026081419 0.19682196
-0.016812036 0.021652099 0.20069601
-0.017010143 0.018505447 0.2032045
-0.016920988 0.015171506 0.20524523
-0.016959408 0.01197891 0.20797448
-0.016881343 0.0088876244 0.2106021
-0.017206054 0.0053957975 0.21362227
-0.017576117 0.0022436318 0.21675819
-0.017841524 -0.00088877697 0.2199726
-0.018216442 -0.0041022901 0.22276057
-0.018590149 -0.0076280409 0.22458723
-0.018568661 -0.011544443 0.22532886
-0.01879538 -0.015390387 0.22647187
-0.019025356 -0.018914007 0.22749512
-0.019112969 -0.022751112 0.22914574
-0.019556254 -0.026201921 0.23317038
-0.012685617 0.038043514 0.18722497
-0.012399334 0.035531819 0.18855324
-0.012552037 0.032711804 0.19056636
-0.012702269 0.029559143 0.19220756
-0.012670117 0.026231917 0.19662489
-0.013086173 0.02241064 0.20114626
-0.013672335 0.018801484 0.20463942
-0.013735067 0.015765257 0.20684308
-0.013644321 0.012629147 0.20920712
-0.013567177 0.0094426284 0.2116356
-0.01374806 0.0057934714 0.21472062
-0.014052479 0.002458764 0.21778515
-0.014274981 -0.00065613259 0.22063762
-0.014355248 -0.0041205557 0.22345342
-0.014590167 -0.0076866481 0.22500601
-0.014770688 -0.011386716 0.22547221
-0.014960949 -0.015091961 0.22685285
-0.015242883 -0.0188396 0.2281713
-0.015776983 -0.022822969 0.2311607
-0.01558526 -0.025865193 0.23480526
-0.0099567128 0.035305239 0.18928298
-0.0094172144 0.032867488 0.1912155
-0.0092917327 0.029619498 0.19345139
-0.0092786793 0.026292495 0.19711441
-0.0097673964 0.022759467 0.20163581
-0.010069457 0.019275658 0.20538811
-0.01030551 0.016213702 0.20761688
-0.010288666 0.013162221 0.20971653
-0.010175145 0.010034935 0.21166374
-0.010129059 0.0066314247 0.21509098
-0.010272095 0.0028057459 0.21794705
-0.010417688 -0.00057859853 0.22085482
-0.010516077 -0.0041249483 0.22311321
-0.010676015 -0.0076775174 0.22504467
-0.010818611 -0.011214537 0.22478478
-0.010934511 -0.015098931 0.2275746
-0.010965871 -0.018500073 0.22914736
-0.011232368 -0.023558971 0.23361625
-0.006190252 0.031998355 0.19337973
-0.0059586638 0.029317824 0.1957531
-0.0061295261 0.025773738 0.19904165
-0.0067183706 0.023463007 0.20129588
-0.0064905831 0.019084429 0.20553984
-0.0065992014 0.016374217 0.20768285
-0.006590893 0.013488632 0.20968547
-0.0062644216 0.010390974 0.21182972
-0.0065362854 0.0071871821 0.21513097
-0.0066135013 0.0030965896 0.21808323
-0.0067002345 -0.00048245629 0.22173922
-0.0067513115 -0.0041115284 0.22269753
-0.0068494906 -0.0075801094 0.22478917
-0.006916902 -0.011126288 0.22533303
-0.0069959718 -0.014995093 0.22773838
-0.0078123645 -0.018699819 0.22978258
-0.0089067416 -0.021881223 0.23165818
-0.0025174362 0.028691147 0.19773872
-0.0027793646 0.025435392 0.19954683
-0.0020105264 0.022027412 0.20135795
-0.0027283197 0.019284444 0.20428436
-0.0026801953 0.016115386 0.20681733
-0.0026276314 0.013413977 0.2093882
-0.0024418039 0.010489504 0.21208014
-0.0028488503 0.0032238415 0.21789503
-0.0028744645 -0.00051808648 0.22149216
-0.0030207264 -0.0041480428 0.22243577
-0.0031184941 -0.0076306472 0.22402568
-0.0037470351 -0.01111214 0.22504272
-0.0044830884 -0.014202467 0.22738713
0.00033539676 0.027618494 0.19845526
0.00035801539 0.024942212 0.19939627
0.00044931326 0.02189002 0.2008608
0.00074963359 0.019022197 0.20330472
0.00099541014 0.016023697 0.20616603
0.0010335682 0.013235725 0.20897339
0.0011625828 0.010563713 0.21169525
0.0008124368 0.0076811016 0.21442929
0.00078861875 0.0039936034 0.21652228
0.00018940902 -0.00026911608 0.21980752
-0.00035558725 -0.0037091726 0.22208565
0.0029129609 0.024199078 0.19922367
0.0036361993 0.021684403 0.20004858
0.0039817411 0.018834708 0.20229903
0.003963361 0.016094692 0.20549338
0.00381508 0.013466598 0.20830335
0.0037162474 0.011624076 0.21058922
0 0 0 1 0 0 0 1 0 0 0 1 0 0 0 0 0 348 1 0 0
