ply
format ascii 1.0
comment PCL generated
element vertex 348
property float x
property float y
property float z
element camera 1
property float view_px
property float view_py
property float view_pz
property float x_axisx
property float x_axisy
property float x_axisz
property float y_axisx
property float y_axisy
property float y_axisz
property float z_axisx
property float z_axisy
property float z_axisz
property float focal
property float scalex
property float scaley
property float centerx
property float centery
property int viewportx
property int viewporty
property float k1
property float k2
end_header
-0.055382874 0.025526345 0.18687019
-0.056207579 0.022963639 0.18826801
-0.056835625 0.019429268 0.19034295
-0.057289302 0.016034044 0.19254075
-0.057786837 0.01271219 0.19486104
-0.057722587 0.0098622795 0.19658042
-0.057397552 0.0070906337 0.19833356
-0.051931497 0.027995069 0.1828908
-0.052824449 0.026384367 0.18403056
-0.053046383 0.023463501 0.1856391
-0.053420532 0.019929988 0.1876654
-0.05399619 0.015906839 0.19033971
-0.054621823 0.012293502 0.19288506
-0.055185594 0.0091153327 0.19550782
-0.055417061 0.0059313928 0.19848278
-0.053493731 0.0021225654 0.20110996
-0.053533979 -0.0009941262 0.20337081
-0.048718452 0.031220753 0.18052116
-0.049267042 0.029291458 0.18136975
-0.049397256 0.026864404 0.18229304
-0.049747985 0.024200898 0.18348245
-0.050320875 0.020449733 0.18637809
-0.050666783 0.014967795 0.18997127
-0.051324751 0.011252942 0.19249801
-0.05215298 0.0081013003 0.1954384
-0.051753517 0.004743102 0.19846117
-0.051046755 0.00076569093 0.20131336
-0.051622238 -0.0021716531 0.20317067
-0.052556641 -0.0040452383 0.20579289
-0.052562289 -0.0053418437 0.20798072
-0.052318353 -0.0065235095 0.20874503
-0.046284281 0.032495528 0.17983924
-0.046355017 0.029944967 0.18054812
-0.046569418 0.027403438 0.1816339
-0.047002353 0.024944734 0.18323708
-0.047600288 0.021655446 0.18549031
-0.047796845 0.013485669 0.18994279
-0.04845446 0.0098429359 0.19287975
-0.049228024 0.006435289 0.195803
-0.048602827 0.0019649465 0.1991006
-0.048659176 -0.0015175474 0.20056418
-0.048828803 -0.0036901783 0.20258152
-0.049458031 -0.0046816007 0.20492829
-0.049722306 -0.0052670413 0.20824905
-0.05042978 -0.0071382457 0.20995188
-0.050956577 -0.0097429529 0.21195948
-0.050568245 -0.013120374 0.21456613
-0.043117303 0.036112368 0.17883106
-0.043470927 0.033593819 0.17986348
-0.043621019 0.030716294 0.18083547
-0.043824323 0.02807151 0.18194933
-0.044393696 0.025332769 0.1836668
-0.044864129 0.022102794 0.18553379
-0.045246817 0.014451689 0.18849197
-0.046673961 0.0080294143 0.19331126
-0.046746347 0.00407595 0.19651441
-0.046374954 -0.00075781159 0.1993508
-0.046557449 -0.0046546585 0.19964471
-0.046855032 -0.0056189969 0.20114473
-0.046391062 -0.0046901731 0.20377843
-0.046297658 -0.0056487471 0.20822191
-0.046792515 -0.0076541747 0.21084753
-0.047769107 -0.010640752 0.21199352
-0.048614502 -0.01375067 0.21407877
-0.049836528 -0.015817011 0.21804638
-0.040459573 0.037725911 0.17827721
-0.041140728 0.034383226 0.18022858
-0.040751629 0.031636856 0.18139271
-0.041166488 0.028828869 0.18251909
-0.041544404 0.026056899 0.1839046
-0.041823629 0.022866292 0.18555191
-0.042463396 0.017154733 0.1875139
-0.044909414 0.0064805411 0.19371054
-0.044476934 0.0021863852 0.19680202
-0.043782312 -0.0025101111 0.19833578
-0.044106554 -0.0060538417 0.19856909
-0.043762591 -0.0062830178 0.20126022
-0.043016743 -0.0050785379 0.20400567
-0.043098953 -0.0060753049 0.20796435
-0.043348756 -0.0086284615 0.21097873
-0.043912329 -0.011783711 0.21254434
-0.045249797 -0.014269058 0.2147986
-0.047292292 -0.015710693 0.21885392
-0.048003737 -0.018078817 0.22286066
-0.047616735 -0.020467095 0.225705
-0.036826257 0.0405261 0.17642038
-0.037336074 0.0387704 0.17829481
-0.036478713 0.036174752 0.18031533
-0.037536211 0.033393815 0.18160611
-0.038014386 0.030279517 0.18292356
-0.038527153 0.026746729 0.18444142
-0.03829423 0.023450911 0.18575373
-0.039932426 0.016858596 0.18792728
-0.0426233 0.0058771009 0.19341204
-0.041849282 0.0019036753 0.19605438
-0.040861152 -0.0031581994 0.19697782
-0.040470071 -0.006176203 0.19880168
-0.039884694 -0.0060617649 0.2019683
-0.039578509 -0.0053133448 0.20372756
-0.039548758 -0.0070002042 0.20702855
-0.040123112 -0.0097827967 0.20917323
-0.041256312 -0.012424419 0.21074642
-0.042804267 -0.014316549 0.21342917
-0.043444924 -0.015875192 0.21808818
-0.043979503 -0.018484803 0.22197829
-0.04507469 -0.020975802 0.22565326
-0.044819292 -0.022970667 0.22771287
-0.034365002 0.041103616 0.17660715
-0.034200072 0.039522767 0.17854625
-0.034057502 0.03685303 0.18038848
-0.034468953 0.034069393 0.18174292
-0.034421347 0.031356711 0.18334976
-0.034552325 0.027925588 0.18561809
-0.034245264 0.024387065 0.18673502
-0.03739335 0.016366594 0.18849248
-0.040153414 0.0069308034 0.19237594
-0.038555305 0.0026088175 0.19524641
-0.037638221 -0.0022211326 0.19656388
-0.036729641 -0.0052973726 0.19823813
-0.036009233 -0.0047516064 0.20062435
-0.035892606 -0.005959854 0.20282023
-0.036510553 -0.0077718101 0.20543358
-0.036965135 -0.010065375 0.20754161
-0.038237862 -0.012258399 0.21066488
-0.039866541 -0.014567744 0.21381478
-0.039982893 -0.016127318 0.21813053
-0.040398862 -0.018411295 0.22173509
-0.041006271 -0.020977385 0.22513191
-0.041530892 -0.023348011 0.22778784
-0.031410404 0.04159347 0.17713736
-0.031331938 0.040104914 0.17861941
-0.031385724 0.037244823 0.18099418
-0.031529572 0.034154408 0.18280847
-0.031284153 0.031602878 0.18436471
-0.031141194 0.028367918 0.18640201
-0.03091773 0.024193656 0.18829156
-0.031654608 0.01977074 0.18949415
-0.037314534 0.0095471507 0.19141598
-0.03555128 0.0047553121 0.1945122
-0.033230856 0.0024506622 0.19668767
-0.032672126 -8.3736413e-05 0.19865559
-0.032849405 -0.0024934711 0.20128265
-0.032751314 -0.0047226422 0.2035803
-0.033154711 -0.0070979795 0.20618625
-0.033747859 -0.0095544187 0.2084517
-0.035165105 -0.011737293 0.21170877
-0.036659401 -0.014182082 0.21526022
-0.037043903 -0.015670994 0.21882313
-0.037358269 -0.017688831 0.22264083
-0.038022187 -0.021017188 0.22548415
-0.037733715 -0.022927629 0.22809958
-0.028386878 0.042136185 0.17759253
-0.028348463 0.040496532 0.17908043
-0.028324088 0.037726663 0.18128119
-0.028367754 0.034733336 0.18356977
-0.028109534 0.031993609 0.18522555
-0.028231595 0.02867561 0.18728693
-0.028165972 0.024892306 0.18936062
-0.02781111 0.02157687 0.19056985
-0.031658903 0.014386392 0.19140369
-0.031789817 0.0073173949 0.19400285
-0.029026752 0.0052365847 0.19770697
-0.028746741 0.0023474793 0.20039694
-0.02908483 -0.00040700036 0.20260715
-0.029431671 -0.0019674557 0.20414694
-0.030587254 -0.006350182 0.20752458
-0.030871455 -0.008436216 0.2094958
-0.032181017 -0.010766427 0.21290651
-0.033585779 -0.013285605 0.21661249
-0.033717383 -0.014838278 0.22027139
-0.034219146 -0.016813571 0.22491431
-0.034061372 -0.019532768 0.22708988
-0.034494236 -0.022808146 0.2294783
-0.034188706 -0.024578838 0.23211558
-0.025399962 0.042605877 0.17832477
-0.025357055 0.040941313 0.17962915
-0.024994101 0.038407747 0.18106507
-0.025113557 0.035333056 0.18370861
-0.025067484 0.032343619 0.18572895
-0.025269233 0.029132122 0.18801817
-0.025374886 0.025508098 0.19040519
-0.025266316 0.022012072 0.19178714
-0.026208671 0.017360855 0.19333
-0.027995611 0.010425836 0.19494104
-0.025273954 0.0071628923 0.19847234
-0.02521657 0.0043374738 0.2016944
-0.025125189 0.0016821298 0.20411897
-0.025695929 -0.001236542 0.20647107
-0.026520444 -0.0043803989 0.20911832
-0.027767368 -0.007290836 0.21106499
-0.029006384 -0.0096174628 0.21446425
-0.029621806 -0.011796481 0.21831258
-0.030215196 -0.014075539 0.22190073
-0.030791912 -0.016744157 0.22600636
-0.030957092 -0.019881759 0.22823258
-0.03119796 -0.023250382 0.23003787
-0.031066714 -0.025382351 0.23260027
-0.023288634 0.043280318 0.17857607
-0.022332434 0.041454967 0.18036869
-0.021650674 0.039238073 0.18170007
-0.021556597 0.036130052 0.18373604
-0.021807462 0.032691784 0.18655938
-0.022278944 0.029821791 0.18872347
-0.022664366 0.026163904 0.1913905
-0.022555387 0.022599641 0.19351636
-0.022610361 0.019001583 0.19555224
-0.022841858 0.01444541 0.19771099
-0.022523439 0.009645205 0.20024538
-0.022075301 0.0059621246 0.20263101
-0.022224585 0.002922524 0.20514449
-0.022808025 -0.00057212979 0.20781925
-0.023549469 -0.0036403118 0.21039367
-0.024172843 -0.0061514317 0.2130377
-0.02493464 -0.0085886922 0.21624534
-0.025545709 -0.011368331 0.22019424
-0.026662875 -0.014321806 0.22301528
-0.027923947 -0.017340787 0.22705613
-0.027637409 -0.020421475 0.22827353
-0.027627831 -0.023979383 0.22996961
-0.027594477 -0.026415637 0.23264717
-0.018590728 0.041666154 0.18157461
-0.018864116 0.038852971 0.18333544
-0.018321879 0.036155663 0.18512771
-0.018744497 0.033310186 0.18734534
-0.019081844 0.030488482 0.18972452
-0.019598335 0.027484061 0.19215897
-0.019553656 0.023324516 0.19532591
-0.019692002 0.019450413 0.19709681
-0.020224255 0.01578846 0.19904356
-0.020032324 0.012054502 0.20129105
-0.019578598 0.0081499349 0.20381175
-0.019537624 0.0044269338 0.20700105
-0.019846015 0.00054343953 0.20970799
-0.020325201 -0.0025607015 0.21266927
-0.020795548 -0.0053666104 0.21528918
-0.021272814 -0.0082996944 0.21876977
-0.022040429 -0.011290405 0.22222093
-0.022917897 -0.014452032 0.22475079
-0.024444643 -0.017804466 0.2281675
-0.024113573 -0.021002024 0.22766957
-0.024103096 -0.024336929 0.22870849
-0.024132682 -0.026895132 0.23215681
-0.015763659 0.039379518 0.18460923
-0.015298265 0.036506195 0.18631731
-0.015579106 0.033718448 0.18821692
-0.015836697 0.031056883 0.19040778
-0.015642377 0.028048852 0.19282785
-0.015753569 0.024379553 0.19660018
-0.016984049 0.019841732 0.19867174
-0.017204352 0.016401613 0.2008156
-0.016981365 0.012986671 0.20275377
-0.016816549 0.0095996298 0.20582461
-0.016821653 0.0062968885 0.20869575
-0.017025698 0.002220416 0.21166116
-0.017223978 -0.0016084878 0.21472199
-0.017366027 -0.004757171 0.21797046
-0.017563285 -0.0076922248 0.22114772
-0.018357489 -0.010850321 0.22366148
-0.019270761 -0.014110686 0.22601949
-0.02022074 -0.017214736 0.22796772
-0.02048937 -0.020299481 0.22825776
-0.020329751 -0.023894502 0.22956023
-0.020512702 -0.027192796 0.23345263
-0.01260982 0.036735449 0.18736449
-0.012364257 0.034203511 0.18906298
-0.012384291 0.031524953 0.19122393
-0.012244308 0.028459636 0.193056
-0.011552065 0.025069058 0.19731662
-0.012041059 0.020695191 0.20087911
-0.013644057 0.016576529 0.20317504
-0.013720458 0.013334398 0.20511593
-0.013756102 0.010443508 0.2076101
-0.01388997 0.0072790994 0.21011986
-0.014058324 0.0032933103 0.21335068
-0.014023067 -0.0007132655 0.21640244
-0.013939256 -0.0035917109 0.21937834
-0.013820644 -0.0066663604 0.2224627
-0.013893436 -0.010034048 0.22433431
-0.015482698 -0.013544861 0.2258594
-0.015922852 -0.016772093 0.22763704
-0.016151682 -0.020147236 0.22859825
-0.016769169 -0.023847856 0.23121652
-0.016407384 -0.026764279 0.23474114
-0.0098560834 0.034237646 0.18980056
-0.0090932092 0.031822402 0.19195323
-0.0084454482 0.028681435 0.194662
-0.0080141807 0.025110139 0.19854079
-0.0083174985 0.020837646 0.20211692
-0.0097331423 0.016998408 0.20474114
-0.010367027 0.013675032 0.20668952
-0.010533689 0.010868123 0.20856148
-0.01060148 0.0081056459 0.21065131
-0.01084878 0.0046015796 0.21437059
-0.010561156 0.00055047713 0.2173651
-0.010341864 -0.0025653988 0.22033015
-0.010127956 -0.0059689065 0.2227684
-0.010154662 -0.0093407454 0.22471808
-0.010873149 -0.01275239 0.2252468
-0.011416477 -0.016560979 0.22813529
-0.01159962 -0.019770702 0.22953527
-0.012170478 -0.02465542 0.23394601
-0.0051195901 0.030922754 0.19529274
-0.0046227342 0.027910918 0.19769689
-0.004623217 0.023862479 0.20032269
-0.0052542072 0.021548977 0.20238742
-0.0060806666 0.016703615 0.20532341
-0.0067388802 0.013845718 0.20712014
-0.0069688391 0.011274616 0.20903617
-0.0066856095 0.0085260421 0.21168014
-0.0073369732 0.0056238207 0.21488115
-0.0069974917 0.0016155679 0.21818596
-0.0067920261 -0.0019334651 0.22168392
-0.0064628879 -0.0055887443 0.22251052
-0.0066660703 -0.0090930974 0.2247804
-0.0069637238 -0.012619876 0.22575802
-0.0074241352 -0.016333709 0.22832331
-0.0084727025 -0.019943187 0.23025687
-0.0098128971 -0.023087533 0.23238464
-0.0010536953 0.026085464 0.19903797
-0.0014854517 0.022807827 0.20036846
-0.00086314953 0.019387575 0.20154463
-0.0019206114 0.01666441 0.20405674
-0.0025086207 0.013477489 0.20689984
-0.0025542667 0.011153611 0.20965461
-0.0025402361 0.0087432833 0.21275821
-0.0032803556 0.0022247874 0.21864294
-0.0029511466 -0.001552418 0.22170329
-0.0028774031 -0.0054588555 0.22254044
-0.0030700986 -0.0091283824 0.22438571
-0.0038256682 -0.012659031 0.22577187
-0.0048526279 -0.015584747 0.22816087
0.0012501612 0.024339944 0.19882435
0.0011119893 0.02175772 0.19947819
0.0013377073 0.018795652 0.20069414
0.0016614412 0.016185734 0.20339401
0.001494389 0.01347883 0.20690486
0.0012486071 0.011072805 0.21000311
0.0010917917 0.0087994123 0.21276914
0.00050804846 0.0061477199 0.21553162
0.00066793896 0.0027157313 0.21760793
0.00016585196 -0.00093486061 0.2204473
-0.00025147322 -0.0050042933 0.2225333
0.0032753474 0.02071264 0.19889711
0.0046264674 0.018452423 0.20015918
0.0048225354 0.015946034 0.20352659
0.0044184742 0.013593732 0.20662384
0.0041210228 0.011342232 0.20960516
0.0038486561 0.00969656 0.21198964
0 0 0 1 0 0 0 1 0 0 0 1 0 0 0 0 0 348 1 0 0
