ply
format ascii 1.0
comment PCL generated
element vertex 348
property float x
property float y
property float z
element camera 1
property float view_px
property float view_py
property float view_pz
property float x_axisx
property float x_axisy
property float x_axisz
property float y_axisx
property float y_axisy
property float y_axisz
property float z_axisx
property float z_axisy
property float z_axisz
property float focal
property float scalex
property float scaley
property float centerx
property float centery
property int viewportx
property int viewporty
property float k1
property float k2
end_header
-0.055680584 0.024034966 0.18721318
-0.056413349 0.021361457 0.18848297
-0.057056423 0.017900702 0.19042675
-0.05734973 0.014637183 0.19243382
-0.057506338 0.011510317 0.1944723
-0.05738312 0.0086559011 0.19635747
-0.056932054 0.0060040015 0.19811888
-0.052238841 0.0259791 0.18280511
-0.053132538 0.024592372 0.18402621
-0.053378209 0.02181419 0.18575019
-0.053795926 0.018374091 0.18770462
-0.054190777 0.014464034 0.1900674
-0.05457193 0.011048252 0.19240128
-0.054962795 0.008008359 0.1951668
-0.054315832 0.0047986619 0.19766259
-0.051298581 0.00093870651 0.19898629
-0.051664822 -0.0018729408 0.2013313
-0.049156111 0.028895402 0.18030776
-0.04963978 0.02715398 0.18123655
-0.049819078 0.024932772 0.18226185
-0.050220989 0.02247671 0.18362047
-0.050757866 0.01877152 0.186232
-0.050730482 0.013627174 0.18918537
-0.051071171 0.0100016 0.19161569
-0.051248949 0.0069953012 0.19459502
-0.050140146 0.0031315924 0.19653462
-0.049007755 -0.00092970685 0.19898865
-0.050157338 -0.0033929772 0.20134878
-0.051309466 -0.0046294136 0.20414202
-0.051409554 -0.0057067606 0.20624788
-0.05131847 -0.0071005444 0.20663644
-0.046744585 0.030310281 0.17973651
-0.046826001 0.027887119 0.18037385
-0.047083799 0.025477411 0.18149114
-0.047574151 0.023097526 0.18312576
-0.048262488 0.019874368 0.1853122
-0.047704931 0.012033474 0.18869632
-0.047991499 0.0084293159 0.19156094
-0.048018493 0.0049775168 0.19421732
-0.046773542 -0.00040107642 0.19651607
-0.047465663 -0.0036236364 0.1984079
-0.047786992 -0.0056267912 0.20029761
-0.048254788 -0.0061968481 0.20254119
-0.048784114 -0.0063000279 0.20589134
-0.049501251 -0.0079475986 0.20770393
-0.050005913 -0.010408883 0.20984581
-0.049813543 -0.013677103 0.21333958
-0.04378929 0.03404393 0.1790662
-0.043964185 0.031620543 0.1797809
-0.044114683 0.028733527 0.1805748
-0.04443904 0.026113819 0.18170021
-0.045032877 0.023432272 0.18330975
-0.045645837 0.020161185 0.18498628
-0.045593679 0.012980077 0.18704852
-0.04592346 0.006730563 0.1915683
-0.045272637 0.0021123497 0.1941947
-0.045622211 -0.0036992342 0.19674273
-0.046898205 -0.0075854929 0.19759114
-0.046840284 -0.0084836492 0.19915853
-0.045803577 -0.0068916637 0.2012209
-0.045514371 -0.0070685451 0.20562668
-0.045942657 -0.008572612 0.20861204
-0.046996668 -0.011330594 0.21066363
-0.047925111 -0.014359197 0.21281569
-0.049182244 -0.016398828 0.21604824
-0.041232526 0.035948217 0.17848907
-0.041672584 0.032511547 0.18011552
-0.04126399 0.029763082 0.18103175
-0.041798137 0.026887061 0.1821439
-0.042209405 0.024139225 0.18329294
-0.042568203 0.020879371 0.18466976
-0.043164466 0.015322051 0.18605237
-0.044243164 0.0052819741 0.19141264
-0.04348493 -0.00026008009 0.19390385
-0.04454153 -0.0067941719 0.19532776
-0.045097549 -0.010058221 0.19674937
-0.043846834 -0.0094686057 0.19930051
-0.042681601 -0.0076502184 0.20110106
-0.042423803 -0.007831255 0.20527823
-0.042535953 -0.0095447293 0.20869043
-0.043062918 -0.012274553 0.21133685
-0.044556543 -0.014865897 0.21330014
-0.046842273 -0.01656355 0.21644196
-0.047473855 -0.019067949 0.22020896
-0.047131918 -0.021298615 0.22282587
-0.037534222 0.039576437 0.17639042
-0.038037587 0.037471421 0.17819928
-0.037026543 0.034711238 0.18008091
-0.03803191 0.032021649 0.18129632
-0.038478281 0.028748868 0.18223968
-0.03903171 0.024869762 0.18342675
-0.038950644 0.021446137 0.18438114
-0.040624347 0.0151419 0.18605356
-0.04226172 0.0046169278 0.19055678
-0.041199166 -0.00044111084 0.19245641
-0.042534381 -0.0086567318 0.19382064
-0.041664664 -0.010876425 0.19665834
-0.040188674 -0.0095574697 0.19933251
-0.039767869 -0.0084788585 0.2002307
-0.039062623 -0.0092030158 0.20392916
-0.039497111 -0.01113647 0.20679446
-0.040755171 -0.013288814 0.20912607
-0.042257242 -0.014916405 0.21180739
-0.043049112 -0.016890904 0.21546385
-0.043551445 -0.019542564 0.2192404
-0.044640966 -0.021898754 0.22287701
-0.0443695 -0.023764264 0.22491561
-0.034962315 0.040419329 0.17651612
-0.034763113 0.038752209 0.17838599
-0.034553211 0.03579222 0.18013225
-0.0350607 0.032984369 0.18140912
-0.034835912 0.030304108 0.18261482
-0.03469418 0.026549334 0.1842836
-0.034332573 0.023011159 0.18495652
-0.037843391 0.01522908 0.18607655
-0.040350717 0.0060688918 0.1890298
-0.038244553 0.00060595915 0.19068635
-0.039118893 -0.0098816426 0.192855
-0.038185656 -0.011919555 0.19602761
-0.037212491 -0.010098509 0.19724672
-0.036461957 -0.0093610017 0.19931419
-0.036450617 -0.010559405 0.20211785
-0.036624592 -0.012222437 0.20464195
-0.037818227 -0.013629433 0.20841955
-0.039531294 -0.015696827 0.21166226
-0.039561395 -0.017328948 0.21524073
-0.039973561 -0.019550063 0.21878992
-0.040574297 -0.021845736 0.2223167
-0.041089784 -0.02398734 0.22501706
-0.031919852 0.041013356 0.17706345
-0.031840783 0.039417781 0.17859752
-0.031867851 0.036198616 0.18076907
-0.032018937 0.033002082 0.18228133
-0.031575244 0.030545698 0.18352522
-0.031130837 0.027193228 0.18497331
-0.030831361 0.022839466 0.18610846
-0.031663824 0.018786641 0.18634339
-0.037680209 0.0087347813 0.18743694
-0.035371382 0.0030601062 0.18931606
-0.033544347 -0.00012529704 0.19019766
-0.034039266 -0.0080061676 0.19165926
-0.033545628 -0.0087477639 0.19567798
-0.033231296 -0.0081096096 0.19888672
-0.032926161 -0.0098279463 0.20207886
-0.033188846 -0.012026509 0.20479663
-0.034625269 -0.013379429 0.20904376
-0.036190704 -0.015732955 0.2126966
-0.036569096 -0.017320585 0.21551739
-0.036832638 -0.019202447 0.21914548
-0.037708435 -0.021977995 0.22228929
-0.037550818 -0.023515737 0.22508664
-0.029016931 0.041483752 0.17750229
-0.028866796 0.03979487 0.17894585
-0.028776212 0.036737803 0.18105121
-0.028772542 0.033597983 0.18285415
-0.028318161 0.030892069 0.18417138
-0.028235413 0.027408162 0.18566211
-0.028023086 0.023635142 0.18699768
-0.027624996 0.020692741 0.18738742
-0.032100223 0.013633667 0.18720484
-0.032114517 0.0061255018 0.18918805
-0.029123036 0.0039249016 0.1912203
-0.02884374 0.00039589018 0.19335869
-0.02954324 -0.0043554972 0.19535775
-0.029712664 -0.0061332327 0.19728227
-0.029886214 -0.0093401903 0.20290969
-0.029992189 -0.011304121 0.20526564
-0.031472262 -0.012877885 0.20988886
-0.032952841 -0.015275797 0.2136369
-0.033116404 -0.017053906 0.21638422
-0.033509545 -0.01859756 0.22075449
-0.033644218 -0.020862134 0.22314383
-0.034264617 -0.023310764 0.22608766
-0.034134924 -0.024484003 0.22895041
-0.026047967 0.041912671 0.17798014
-0.025901882 0.040268146 0.17916223
-0.025360651 0.037732132 0.18063714
-0.025483703 0.034470137 0.18295299
-0.025314759 0.0314072 0.18467282
-0.025309533 0.027995063 0.18648823
-0.025266077 0.024380414 0.18783474
-0.025255762 0.021166481 0.18830881
-0.026303293 0.016510418 0.18904696
-0.028225522 0.0094473418 0.19002062
-0.024896657 0.0059318175 0.1935904
-0.024703717 0.0026304959 0.19609772
-0.024246225 -0.00058335968 0.19874592
-0.024575481 -0.0044535506 0.20215657
-0.025489897 -0.0075554498 0.20495629
-0.02689717 -0.0098024169 0.20778053
-0.028086537 -0.012036625 0.21158566
-0.028785758 -0.014148477 0.21564884
-0.02971342 -0.016533764 0.21846502
-0.030399034 -0.018694889 0.22185546
-0.03073946 -0.02105671 0.2243153
-0.031301428 -0.023647178 0.22682782
-0.031360798 -0.025006874 0.2295648
-0.023984877 0.042622846 0.17806196
-0.022845145 0.040915504 0.17957525
-0.021930687 0.038818348 0.18087244
-0.021778865 0.035629135 0.18292885
-0.022091227 0.031985015 0.18555355
-0.022332652 0.028987564 0.18750243
-0.022656327 0.02520765 0.18887283
-0.02269844 0.021633649 0.1899243
-0.022590941 0.017979028 0.19158277
-0.022557588 0.013629055 0.19334078
-0.021945782 0.0084896563 0.19593729
-0.021315746 0.0043254932 0.19819768
-0.021305146 0.00076375331 0.20083264
-0.021999069 -0.0032073504 0.20432833
-0.022867203 -0.0062250043 0.20755373
-0.023486257 -0.0085461652 0.21077742
-0.024304267 -0.010927873 0.21434994
-0.025044303 -0.013610292 0.21865752
-0.026666159 -0.016633525 0.22104028
-0.028175758 -0.019158397 0.22355947
-0.027942291 -0.021391533 0.22482821
-0.02782765 -0.023842992 0.22696996
-0.027868075 -0.025788488 0.23000653
-0.019053575 0.041317578 0.18058257
-0.019099349 0.038512234 0.18237409
-0.018450936 0.035714176 0.1842334
-0.018820912 0.032792524 0.18637584
-0.019020591 0.029915029 0.18869321
-0.019456262 0.026737832 0.19056776
-0.019735301 0.022206705 0.19204666
-0.019845385 0.018526839 0.19346301
-0.020185029 0.015067804 0.19520326
-0.019919945 0.011159312 0.19714354
-0.019100653 0.0067358864 0.1995738
-0.018828264 0.0022010987 0.20335981
-0.019115496 -0.0020442151 0.20693627
-0.01956586 -0.0052826228 0.21092628
-0.020157177 -0.0079871379 0.21389779
-0.02068653 -0.0107579 0.21777423
-0.021974117 -0.013593695 0.22142956
-0.023473421 -0.016644787 0.22367731
-0.02536362 -0.019348511 0.22566201
-0.0247555 -0.021729114 0.22514425
-0.024460841 -0.024314081 0.22649953
-0.0244957 -0.026283659 0.23002145
-0.016107392 0.039065205 0.18366463
-0.015382634 0.036314193 0.18546778
-0.015477308 0.033506766 0.18743667
-0.015621984 0.030775288 0.18946558
-0.015060943 0.027725536 0.19164561
-0.014951416 0.023798963 0.1944744
-0.017126033 0.019203402 0.19552276
-0.017425645 0.015703373 0.19749781
-0.016960537 0.011889175 0.19929489
-0.016389973 0.0077657425 0.2024274
-0.016298661 0.0038654695 0.20563091
-0.016392173 -0.00047307211 0.20950703
-0.01648568 -0.0045832172 0.21386573
-0.016519593 -0.0077563925 0.21750563
-0.016578037 -0.010743456 0.22089332
-0.018269712 -0.013344917 0.22334024
-0.02019918 -0.016198289 0.22552617
-0.021158338 -0.018651517 0.22660412
-0.021259319 -0.02099663 0.22640589
-0.020834122 -0.023762923 0.22772431
-0.021226756 -0.026663201 0.23176031
-0.012625677 0.036745269 0.18656822
-0.012213362 0.03423829 0.18831123
-0.012000092 0.031577308 0.1903252
-0.01157366 0.028483121 0.19203648
-0.010678471 0.024865573 0.19608463
-0.011307996 0.01994464 0.19952242
-0.013409642 0.015437055 0.20082656
-0.013361856 0.011523177 0.20251018
-0.01347048 0.0083103888 0.20468688
-0.013730795 0.0049150302 0.20712301
-0.013721301 0.00065844209 0.21150231
-0.01310131 -0.0039891182 0.21627684
-0.012855288 -0.0069266204 0.21946535
-0.012748895 -0.0099728703 0.22248669
-0.013160378 -0.012845094 0.22455651
-0.015710806 -0.01524948 0.22538926
-0.016640566 -0.017903198 0.22669435
-0.016946534 -0.020819409 0.22738512
-0.017575055 -0.023841994 0.22966652
-0.017490774 -0.026400406 0.2332378
-0.0096599152 0.034519326 0.18913974
-0.0087213377 0.032119442 0.19129449
-0.0078331865 0.028990787 0.19418576
-0.0073377318 0.024935525 0.19843197
-0.0076279822 0.019746454 0.20195876
-0.0093645621 0.015587437 0.20347731
-0.01021215 0.011645226 0.20456477
-0.010431127 0.0085927462 0.20600922
-0.010708877 0.0058094529 0.20802671
-0.011001095 0.0021086077 0.21247594
-0.0095997276 -0.0029520795 0.21746884
-0.0093497029 -0.0060679326 0.22072411
-0.0091987653 -0.0091571352 0.22326443
-0.0094546191 -0.011872345 0.22516087
-0.010676445 -0.014296208 0.22570315
-0.011941797 -0.017365256 0.2280816
-0.012519832 -0.020446276 0.22928344
-0.01360424 -0.024859441 0.23331182
-0.0047283652 0.031083958 0.19577843
-0.0042564753 0.027716568 0.19858103
-0.0042679189 0.023130927 0.20130411
-0.004864132 0.020354221 0.2028403
-0.0058913408 0.015218887 0.20477177
-0.0067713121 0.011754176 0.20557113
-0.0070717852 0.0089290868 0.20695829
-0.0070080785 0.0063186837 0.20982727
-0.0079248147 0.0033811622 0.21321553
-0.0060795411 -0.0019535033 0.21853815
-0.0059417957 -0.0053644786 0.22207753
-0.0057470803 -0.0086761136 0.22331336
-0.0062517566 -0.011537164 0.22562185
-0.0068464945 -0.014225487 0.22685571
-0.0079453317 -0.017290933 0.22938596
-0.0094717732 -0.020623136 0.23084976
-0.011229995 -0.023576526 0.23265921
-0.00087194948 0.025322916 0.20042469
-0.0011893697 0.021915905 0.20159192
-0.00050006242 0.018452201 0.20240189
-0.0017146283 0.015466073 0.20433395
-0.0026210214 0.01160625 0.20620029
-0.0027391124 0.0089151822 0.20867445
-0.0029068349 0.0064158305 0.21178743
-0.002627033 -0.00082240219 0.21905367
-0.0021828115 -0.0047943997 0.22228137
-0.0022701584 -0.0085145403 0.22360538
-0.0027191793 -0.011465358 0.22574301
-0.0037521315 -0.014281184 0.22731768
-0.0053222473 -0.016696263 0.22977591
0.0013450386 0.023409061 0.20024104
0.0013040456 0.020852543 0.20068684
0.0016302614 0.017955279 0.20149645
0.0018325205 0.015307262 0.20400007
0.0014257963 0.012046458 0.20715319
0.001082115 0.0091599505 0.20995566
0.00085430773 0.0067705791 0.21263219
0.00013406422 0.0041341479 0.21534935
0.00079823623 0.00039030143 0.21786018
0.00077707542 -0.0037025781 0.22128154
0.0003645524 -0.0079032732 0.22372524
0.0033910761 0.019763134 0.19996005
0.0049349954 0.017614586 0.20101188
0.0050488422 0.015295033 0.2045788
0.0043809242 0.012472151 0.20758715
0.0039805109 0.0097922441 0.21016839
0.0035841274 0.0079846261 0.21247886
0 0 0 1 0 0 0 1 0 0 0 1 0 0 0 0 0 348 1 0 0
