ply
format ascii 1.0
comment PCL generated
element vertex 348
property float x
property float y
property float z
element camera 1
property float view_px
property float view_py
property float view_pz
property float x_axisx
property float x_axisy
property float x_axisz
property float y_axisx
property float y_axisy
property float y_axisz
property float z_axisx
property float z_axisy
property float z_axisz
property float focal
property float scalex
property float scaley
property float centerx
property float centery
property int viewportx
property int viewporty
property float k1
property float k2
end_header
-0.055410616 0.023206379 0.18578778
-0.05606132 0.020838784 0.18760572
-0.056641337 0.017533081 0.18945393
-0.056899369 0.014322391 0.19137032
-0.057007447 0.011309397 0.19335192
-0.056912385 0.0085264677 0.19532889
-0.056492534 0.0059275543 0.19714245
-0.051985964 0.025270116 0.18197408
-0.05288652 0.023998106 0.18306045
-0.053097058 0.021303734 0.1846696
-0.053544208 0.017932029 0.18662095
-0.053870991 0.014095734 0.18875888
-0.054268982 0.010753661 0.19102424
-0.05465579 0.0078039821 0.19387464
-0.054121822 0.004605752 0.1961455
-0.051694956 0.00053660327 0.19759382
-0.051986128 -0.0022311669 0.19988826
-0.048950616 0.028093273 0.17973426
-0.049427383 0.026395889 0.18053821
-0.049641781 0.024206154 0.18139608
-0.050052829 0.021803843 0.18258502
-0.050543074 0.018199371 0.18495366
-0.050535571 0.013261906 0.18748926
-0.050852023 0.0096577676 0.18979149
-0.050997596 0.0066646538 0.19241033
-0.050307814 0.0028823875 0.19458148
-0.049434047 -0.0012699233 0.19745772
-0.050478242 -0.0037164309 0.19990198
-0.051498469 -0.0049299374 0.20275764
-0.051481962 -0.0059437123 0.2049332
-0.051349558 -0.0071453904 0.20547484
-0.046545405 0.029446036 0.17896047
-0.046703599 0.027120173 0.17962533
-0.046986792 0.024773534 0.18056814
-0.047463391 0.022364907 0.18199743
-0.048082538 0.019117197 0.18392065
-0.047660068 0.011666047 0.18662806
-0.047873028 0.0079924101 0.18943499
-0.047913875 0.0045901211 0.19176629
-0.047400534 -0.00065477978 0.19467951
-0.047903541 -0.0039692274 0.19682193
-0.048052061 -0.0059533031 0.19869344
-0.048447456 -0.0064677554 0.2011354
-0.04874403 -0.0064210794 0.20453489
-0.049483232 -0.0078581208 0.2065607
-0.050036479 -0.010125713 0.20889117
-0.049828146 -0.013496269 0.21238869
-0.043571543 0.033069599 0.177907
-0.043793336 0.030731946 0.17877296
-0.043976583 0.027963514 0.17966153
-0.044384647 0.02538017 0.18062928
-0.044954065 0.0226804 0.18198712
-0.045524731 0.019387662 0.18337248
-0.045580052 0.012579522 0.18495294
-0.046069734 0.0064640692 0.18902792
-0.045595616 0.0018981372 0.19169655
-0.046293948 -0.0038669931 0.19467936
-0.047452461 -0.0080919927 0.1959728
-0.047186349 -0.008849835 0.19764343
-0.046054877 -0.0071530906 0.19970509
-0.045489199 -0.0070872917 0.20417137
-0.045811724 -0.0084286546 0.20730592
-0.046963941 -0.011283264 0.20953622
-0.047986936 -0.014252603 0.21180683
-0.04925362 -0.016169634 0.21506739
-0.041148912 0.035027906 0.17726062
-0.041490499 0.031614535 0.1789116
-0.041072492 0.028961217 0.17989643
-0.041733388 0.026139226 0.18088827
-0.042154487 0.023439743 0.18177614
-0.042489067 0.0201314 0.1828429
-0.043166034 0.014837644 0.18386906
-0.044520479 0.0051192646 0.18878773
-0.044197354 -0.00039612694 0.19118628
-0.045535285 -0.0072346879 0.19334289
-0.045658164 -0.010389338 0.19510242
-0.044155922 -0.0096794004 0.19757327
-0.042910986 -0.0077697476 0.1993178
-0.042425904 -0.0078253215 0.20371769
-0.042395566 -0.0094277551 0.2072321
-0.042953081 -0.01218893 0.20998496
-0.044675238 -0.014805222 0.21206257
-0.046943434 -0.016448446 0.21527095
-0.047388956 -0.018946636 0.21904999
-0.046936575 -0.021057405 0.22139697
-0.03753376 0.03918092 0.17566405
-0.038021848 0.036858853 0.1772344
-0.036966596 0.034085821 0.17893243
-0.03795651 0.031331744 0.17992997
-0.038352624 0.02812263 0.18071106
-0.038925681 0.024232894 0.18163256
-0.038871262 0.020803872 0.18228811
-0.040722866 0.01480259 0.18369593
-0.042870961 0.00487332 0.18756063
-0.04201949 -0.00042086947 0.18907179
-0.043641578 -0.0090318639 0.19174418
-0.042236365 -0.011128752 0.19475433
-0.040558208 -0.0097126393 0.19728185
-0.040062226 -0.0086271018 0.1981945
-0.039101038 -0.0093393009 0.20201309
-0.039536715 -0.011152639 0.20506191
-0.041006699 -0.013227957 0.2075087
-0.042580329 -0.014726039 0.21023527
-0.04332583 -0.016927103 0.21395783
-0.043596342 -0.01955262 0.21779282
-0.044466164 -0.02190524 0.22142898
-0.043854278 -0.023800705 0.22326262
-0.034969743 0.040167671 0.17582722
-0.034740742 0.038429465 0.17761217
-0.034546878 0.035337891 0.17909701
-0.035067979 0.03247305 0.18005762
-0.034731831 0.029820867 0.18098743
-0.034432016 0.026031313 0.18227117
-0.034246191 0.022653522 0.18263923
-0.038089853 0.01528634 0.18344744
-0.04116169 0.0065505276 0.1858283
-0.039187305 0.00095626357 0.1866091
-0.040193345 -0.010813733 0.19042489
-0.038938083 -0.0125186 0.19373181
-0.03785608 -0.010682015 0.19458327
-0.036841359 -0.0097734975 0.19669472
-0.036684252 -0.01083383 0.20000625
-0.036889546 -0.012413762 0.20263501
-0.038264524 -0.013755519 0.20653185
-0.040198293 -0.015677977 0.20984919
-0.040050011 -0.017490566 0.21343775
-0.040129125 -0.019626569 0.21705703
-0.040500004 -0.021944871 0.220577
-0.040772267 -0.024078451 0.22310242
-0.031897258 0.040790476 0.17634128
-0.031809125 0.039126113 0.17785174
-0.03191274 0.035667565 0.17981912
-0.032087348 0.032406382 0.18087377
-0.031497549 0.030045006 0.18183826
-0.03102082 0.026757119 0.18296288
-0.031051748 0.022513036 0.183503
-0.032015312 0.018670416 0.18330827
-0.038557436 0.0093805268 0.1840705
-0.036262315 0.003463157 0.18496345
-0.034294371 -6.9219182e-05 0.185313
-0.035088144 -0.0096307704 0.18816885
-0.034286611 -0.010060349 0.1924289
-0.033510443 -0.0091029983 0.19573972
-0.0330767 -0.010457696 0.19958714
-0.033475261 -0.012419217 0.20257534
-0.035048392 -0.013726891 0.20702957
-0.036875948 -0.016046302 0.21072397
-0.037193555 -0.017666928 0.21337061
-0.037036035 -0.019367492 0.21705046
-0.037671503 -0.021994781 0.22025798
-0.037303139 -0.023716252 0.22271691
-0.02906982 0.041212045 0.17677982
-0.028869426 0.039467063 0.17816971
-0.028836345 0.036140002 0.18018916
-0.028808912 0.032929692 0.18149628
-0.028298669 0.03033692 0.18251424
-0.028268432 0.026866563 0.1836812
-0.028215716 0.023257846 0.18447569
-0.027949277 0.020461619 0.18451515
-0.032598563 0.013871601 0.18366675
-0.032611925 0.0061938013 0.18503629
-0.029227184 0.0037699242 0.18655489
-0.02865083 -0.00017533304 0.18832843
-0.029688971 -0.0057945638 0.19089416
-0.029988851 -0.0077711395 0.19351117
-0.029976372 -0.010120655 0.20036583
-0.030146167 -0.011833632 0.20291875
-0.031812448 -0.013446847 0.20776996
-0.033543732 -0.015902286 0.21151134
-0.033628508 -0.017578321 0.21378945
-0.033500593 -0.018838495 0.21812169
-0.033520393 -0.020969255 0.22058849
-0.033986948 -0.023458214 0.22336547
-0.03368317 -0.024617281 0.22617096
-0.026132369 0.04162427 0.17727043
-0.025965059 0.039941058 0.17837839
-0.025416819 0.037300605 0.17981009
-0.025521755 0.033875905 0.18166137
-0.025321761 0.030849624 0.18311571
-0.02538844 0.027394734 0.18462965
-0.025520373 0.023959683 0.18544574
-0.025703991 0.020884026 0.18553169
-0.026929805 0.016291006 0.18562753
-0.028546764 0.0093086557 0.18599571
-0.02475589 0.0052538808 0.18971902
-0.023924092 0.0015351891 0.1916389
-0.023134131 -0.0019885243 0.19462602
-0.023914551 -0.0058287466 0.19935751
-0.025402388 -0.0083558839 0.20265479
-0.026924225 -0.010505172 0.20564277
-0.028162587 -0.012757129 0.20956808
-0.028957209 -0.014876611 0.21338709
-0.029944178 -0.017180812 0.21563712
-0.030380391 -0.019088576 0.21885875
-0.030574972 -0.021264056 0.22135814
-0.031020317 -0.023669751 0.22398256
-0.030970771 -0.024689525 0.22669601
-0.02411251 0.042374711 0.177406
-0.022951663 0.040685587 0.17890999
-0.022003878 0.038570601 0.18014044
-0.021803303 0.03521172 0.18189101
-0.022117291 0.031443577 0.18411849
-0.022381615 0.028379424 0.18593769
-0.022977252 0.024739044 0.18665773
-0.023377243 0.021220047 0.18717702
-0.023249635 0.017456494 0.1884416
-0.02262486 0.013063445 0.1896836
-0.021484619 0.0076511223 0.19204155
-0.020666497 0.0033236265 0.19446699
-0.020565895 -0.00044495595 0.19746695
-0.021373022 -0.0044929883 0.20183407
-0.022400303 -0.0072053382 0.20550008
-0.023201289 -0.0095119812 0.2088526
-0.024228631 -0.011818707 0.21253602
-0.025201989 -0.014313444 0.21624653
-0.026844801 -0.017346274 0.21832362
-0.028216463 -0.019642178 0.22046278
-0.027891377 -0.021624196 0.221674
-0.027690401 -0.023566421 0.2239614
-0.027637132 -0.025146829 0.22718659
-0.019260285 0.041265786 0.18015599
-0.019231563 0.038357254 0.18172663
-0.018469494 0.0354435 0.18328544
-0.018767646 0.032466933 0.18512948
-0.018982779 0.029572256 0.1873733
-0.019435231 0.026339538 0.18900403
-0.020459598 0.021564359 0.18960197
-0.020461913 0.017952006 0.19040802
-0.020245194 0.014420197 0.19172756
-0.019539421 0.010375476 0.19316821
-0.018466648 0.0057981671 0.1957157
-0.018042976 0.00093650259 0.20031445
-0.018232793 -0.0035369738 0.20453338
-0.018762713 -0.0068768263 0.20912436
-0.019632796 -0.0094592851 0.21217461
-0.020582911 -0.011917931 0.21596302
-0.022219349 -0.014367556 0.21897908
-0.023712166 -0.017258057 0.22090062
-0.025469091 -0.01973209 0.22247329
-0.024822095 -0.021785103 0.22207026
-0.024490824 -0.023917155 0.22362845
-0.024476055 -0.025532519 0.22744027
-0.016320888 0.038923584 0.18316895
-0.015485974 0.036105674 0.1846911
-0.015508783 0.033295743 0.18645075
-0.01561354 0.030610301 0.18835047
-0.014932608 0.027529957 0.19031106
-0.014636264 0.02334078 0.19240002
-0.017507207 0.018655302 0.19248614
-0.017380256 0.015024096 0.19403988
-0.016411543 0.011003841 0.19546686
-0.015328296 0.0066490602 0.19894317
-0.015405259 0.0026928373 0.202893
-0.01540895 -0.0020298848 0.20739433
-0.015689027 -0.0065297731 0.21234806
-0.016082071 -0.0097138043 0.21579
-0.016517809 -0.012511195 0.21909732
-0.018643508 -0.014351426 0.22085489
-0.020577002 -0.016674919 0.22273353
-0.021563789 -0.018849881 0.22354689
-0.021560438 -0.02086175 0.22335355
-0.021169474 -0.023241449 0.22491103
-0.021546308 -0.025802709 0.22916323
-0.012763908 0.036528315 0.18585567
-0.012284507 0.034054652 0.18737888
-0.012007469 0.031460427 0.18916264
-0.01144045 0.028364355 0.19066714
-0.010249984 0.024412643 0.19403169
-0.01048095 0.019012673 0.19655041
-0.012548345 0.014383253 0.19731483
-0.012227193 0.010336113 0.19893341
-0.012459619 0.0073568765 0.20155865
-0.012995137 0.0040719225 0.20443091
-0.012971077 -0.00075804058 0.20960005
-0.01240441 -0.0062684584 0.21484831
-0.012451466 -0.0091948127 0.21808259
-0.012598927 -0.012068633 0.22112885
-0.013261684 -0.014459509 0.2227589
-0.016042802 -0.015989272 0.22268495
-0.017244898 -0.01809595 0.2234672
-0.017635876 -0.020685755 0.22433358
-0.018254539 -0.023285216 0.22681038
-0.018208852 -0.025616093 0.23058835
-0.0097911479 0.034403443 0.18827052
-0.0087889498 0.032071132 0.19020726
-0.0077866768 0.028909151 0.19278167
-0.0068212179 0.024397451 0.19635162
-0.0067855068 0.01897127 0.19935222
-0.0083211232 0.014604758 0.2004465
-0.0091465693 0.010706904 0.20170888
-0.0096332766 0.0079212496 0.20353362
-0.010184121 0.0051125758 0.20568921
-0.010537887 0.00096054724 0.21051836
-0.0089161638 -0.0053530755 0.21650609
-0.0089720823 -0.0083593084 0.219914
-0.0090786004 -0.011191059 0.22249602
-0.0094992863 -0.013484917 0.22417398
-0.010860792 -0.015420584 0.22419004
-0.012471595 -0.017721048 0.2256487
-0.013423944 -0.020546336 0.22677633
-0.014815272 -0.024424924 0.23082924
-0.0048514502 0.030998189 0.19449301
-0.004089498 0.02741546 0.19696131
-0.0037691856 0.022647178 0.19939776
-0.0043495568 0.019801348 0.20075078
-0.0050476268 0.014675147 0.20232306
-0.0059084501 0.011144564 0.20354038
-0.0065292143 0.0084554534 0.20543526
-0.0068186303 0.0058062123 0.20837879
-0.0079433946 0.0025207193 0.21144472
-0.0055062799 -0.0042062118 0.21807078
-0.0057272925 -0.0074726176 0.22176448
-0.0057736412 -0.010557609 0.2231604
-0.0064669689 -0.013064909 0.22518772
-0.0071357368 -0.015357831 0.22631022
-0.0086216386 -0.017979214 0.22822985
-0.010446535 -0.0209013 0.22910127
-0.012487472 -0.023510845 0.23066439
-0.00064436498 0.025285888 0.19918679
-0.00072490762 0.021815114 0.20039101
0.00018384079 0.018524965 0.20157854
-0.0010994482 0.015482674 0.20313236
-0.0021877971 0.011600018 0.20533271
-0.002482773 0.0087027531 0.2079547
-0.0027665922 0.0058420002 0.21069144
-0.0022309236 -0.0026291001 0.21880302
-0.0021141192 -0.0067186658 0.22256406
-0.0023109948 -0.010177809 0.22399656
-0.0030387833 -0.012882588 0.22594361
-0.0041486816 -0.015313325 0.22725275
-0.0060030338 -0.017518669 0.22939588
0.0017813171 0.023646228 0.19955646
0.0019728346 0.021120604 0.20015587
0.0024674127 0.018286061 0.2011741
0.0023628487 0.015549963 0.20373471
0.0016769475 0.012141716 0.2068008
0.0013224124 0.0089289341 0.2093253
0.0010500675 0.0062336475 0.21172976
0.00026479951 0.0033351716 0.21422312
0.0010178185 -0.0009920341 0.21721306
0.00087408919 -0.0053311409 0.22179307
0.00021887544 -0.0094639659 0.22448717
0.0042538741 0.020311309 0.19996831
0.005798012 0.018236421 0.20135801
0.0054375706 0.015704641 0.20479093
0.0045946199 0.012640855 0.20746227
0.004177616 0.0096730934 0.20975892
0.0037458339 0.0075528342 0.21180958
0 0 0 1 0 0 0 1 0 0 0 1 0 0 0 0 0 348 1 0 0
