ply
format ascii 1.0
comment PCL generated
element vertex 348
property float x
property float y
property float z
element camera 1
property float view_px
property float view_py
property float view_pz
property float x_axisx
property float x_axisy
property float x_axisz
property float y_axisx
property float y_axisy
property float y_axisz
property float z_axisx
property float z_axisy
property float z_axisz
property float focal
property float scalex
property float scaley
property float centerx
property float centery
property int viewportx
property int viewporty
property float k1
property float k2
end_header
-0.056454789 0.023921037 0.18869884
-0.057003893 0.021362904 0.18993933
-0.057504535 0.018235719 0.19173124
-0.057792269 0.015197556 0.19359981
-0.057956632 0.01227836 0.19546944
-0.057915796 0.0095530292 0.19720407
-0.057556827 0.0068913708 0.19882791
-0.053244017 0.025566259 0.18458764
-0.054058064 0.024421323 0.18554494
-0.054119982 0.021814818 0.18704487
-0.054450441 0.018582053 0.18893699
-0.054740202 0.015008861 0.19092838
-0.055253267 0.011779812 0.19297439
-0.0558048 0.0088072568 0.19556656
-0.055536743 0.0057498366 0.19810578
-0.053855009 0.001973887 0.19889295
-0.054186791 -0.0010550332 0.20078452
-0.05047071 0.028092219 0.18243155
-0.050983913 0.026423328 0.18320946
-0.051163036 0.024394602 0.18407319
-0.051515684 0.022202076 0.18528606
-0.051633161 0.018751843 0.1872661
-0.051454511 0.014361484 0.18963303
-0.05182023 0.010824929 0.19157083
-0.052138474 0.0078039295 0.19466494
-0.052002762 0.0040309392 0.19619761
-0.051736049 0.00012377732 0.19835186
-0.05269853 -0.0025515158 0.20061985
-0.05370437 -0.0041166996 0.20330645
-0.053685885 -0.0053718467 0.20537911
-0.053567655 -0.0064408137 0.20607106
-0.048029937 0.029152503 0.18134359
-0.048346974 0.027005393 0.18204859
-0.048714776 0.024780406 0.18307349
-0.049174134 0.022554891 0.18446957
-0.049596686 0.019394079 0.18632841
-0.048626263 0.01304185 0.18862149
-0.048950505 0.0092162844 0.19099569
-0.049196366 0.0058781505 0.19357379
-0.050003439 0.00088339014 0.19514
-0.050399661 -0.0025522052 0.19735332
-0.050401051 -0.0046236538 0.19906595
-0.050705381 -0.0054724859 0.20147119
-0.051088598 -0.0056518144 0.20480077
-0.051738001 -0.0069667967 0.20717256
-0.052130513 -0.0090527581 0.20988925
-0.051231202 -0.01183523 0.21354268
-0.044815008 0.032437537 0.17990588
-0.045206442 0.030355759 0.18080504
-0.045634504 0.027709538 0.18174176
-0.046179276 0.025345461 0.18278293
-0.0467612 0.022806115 0.18412928
-0.047326647 0.019597774 0.18552683
-0.046882518 0.01371498 0.18719842
-0.047319319 0.0078957519 0.19127777
-0.047621373 0.0032952141 0.19269733
-0.049208038 -0.0024516543 0.19470909
-0.049932238 -0.0067836568 0.1961077
-0.049439438 -0.0075927381 0.19777417
-0.048337545 -0.0059457314 0.19998236
-0.047869265 -0.0060417163 0.2044965
-0.048207454 -0.0073698047 0.2076644
-0.048619077 -0.0098230103 0.21023799
-0.049420521 -0.012636638 0.21293977
-0.050464727 -0.014812555 0.21671958
-0.042322956 0.034292769 0.17909415
-0.042766031 0.031090593 0.18073034
-0.04258053 0.028643614 0.1815808
-0.043540902 0.02600437 0.18270212
-0.044004485 0.023525381 0.18361336
-0.044365644 0.020353992 0.18468611
-0.04482517 0.015499446 0.18600541
-0.046116941 0.0067969994 0.19075891
-0.046903919 0.00088966184 0.19164185
-0.048216891 -0.0059730788 0.19339123
-0.047775291 -0.0088867778 0.19512129
-0.046356272 -0.0081483824 0.19769
-0.045379452 -0.006221687 0.19961296
-0.04485492 -0.0064887255 0.204091
-0.044815816 -0.008047753 0.20764586
-0.044838026 -0.010324442 0.21035734
-0.046258077 -0.012957001 0.21301658
-0.04816414 -0.015272429 0.21693915
-0.048467312 -0.018350992 0.22046229
-0.047951631 -0.020802965 0.22239541
-0.038667124 0.03928607 0.17719793
-0.039203785 0.036496203 0.17894706
-0.0381204 0.033641402 0.18053505
-0.039264966 0.0310064 0.18141358
-0.039884847 0.028077418 0.18220736
-0.040721647 0.024351358 0.1832118
-0.040772978 0.02104228 0.18395314
-0.042443633 0.015590906 0.18566768
-0.044792149 0.0066221659 0.18963051
-0.044776507 0.00097677123 0.18970975
-0.045999777 -0.0073162396 0.19182359
-0.044162214 -0.0090675605 0.19487216
-0.042866427 -0.007600564 0.19762276
-0.042622704 -0.0065123513 0.19863042
-0.041952837 -0.0071687768 0.20246217
-0.042410877 -0.0090995813 0.20551024
-0.043404829 -0.011075466 0.20784058
-0.044943277 -0.012425221 0.21066099
-0.044861156 -0.015519238 0.21546154
-0.044727515 -0.018688517 0.21915703
-0.045498893 -0.021726677 0.2222835
-0.044734102 -0.02395758 0.22367066
-0.03603309 0.040606804 0.17705397
-0.035771165 0.038841106 0.17887145
-0.03573196 0.035030223 0.18042725
-0.036369082 0.032300849 0.18139553
-0.03605938 0.029897016 0.18232374
-0.035852369 0.026261887 0.18370657
-0.03606528 0.023135999 0.1841602
-0.039830878 0.016440518 0.18531941
-0.043204557 0.0080219312 0.18837471
-0.041860383 0.0024489756 0.18771482
-0.041977368 -0.0083404481 0.19072865
-0.040634092 -0.009799039 0.19412954
-0.040132813 -0.007813246 0.1951772
-0.039626502 -0.0067725331 0.19750966
-0.039683111 -0.0079761771 0.2007695
-0.040293429 -0.0096104657 0.20328674
-0.041322827 -0.011411994 0.20678984
-0.043136857 -0.013093945 0.21020164
-0.041855525 -0.01582923 0.21455458
-0.041262988 -0.018785 0.21823746
-0.041613575 -0.021741442 0.22138515
-0.041739509 -0.024254242 0.22335288
-0.032889616 0.04133258 0.17748404
-0.032815434 0.039644096 0.17909016
-0.033148654 0.035445739 0.18116066
-0.033336807 0.032192491 0.18225974
-0.03277972 0.030150238 0.18321057
-0.032515232 0.027122926 0.18439026
-0.033125866 0.023123411 0.18487594
-0.034181103 0.01949051 0.1849049
-0.040926922 0.010591504 0.18702616
-0.039146144 0.0045585893 0.18696512
-0.037568498 0.001058032 0.18692566
-0.037098967 -0.0064553046 0.18933119
-0.036738168 -0.0063125296 0.19361863
-0.036674798 -0.0053605773 0.19724141
-0.036591705 -0.0068726591 0.20116353
-0.037252646 -0.0090955067 0.20395577
-0.038384166 -0.011475816 0.20748803
-0.039908033 -0.013658672 0.21125838
-0.038953889 -0.01614878 0.21457285
-0.038017377 -0.018818174 0.21827942
-0.038671199 -0.021887681 0.22090498
-0.03827494 -0.023913508 0.22280475
-0.030077884 0.041715372 0.1779936
-0.029835591 0.039961744 0.17954382
-0.030090671 0.036020357 0.18164827
-0.030067978 0.032889362 0.18293175
-0.029543029 0.030709388 0.18396927
-0.029847495 0.027482102 0.18528228
-0.03021268 0.023970095 0.18589857
-0.030122079 0.021282684 0.18609324
-0.03478305 0.014771208 0.18540159
-0.03539687 0.0067989468 0.18594252
-0.032713883 0.0044803284 0.18864533
-0.032393795 0.0010615357 0.19091691
-0.033060465 -0.0024910676 0.19331507
-0.033374786 -0.0034040404 0.1956635
-0.033728696 -0.0063848752 0.20294106
-0.034224108 -0.0082670674 0.20533977
-0.035361242 -0.011399402 0.20867267
-0.036412414 -0.014084447 0.21239109
-0.035010092 -0.016319003 0.21543995
-0.034530282 -0.018354854 0.21979098
-0.034547493 -0.020716706 0.22174686
-0.035053503 -0.023680104 0.22382931
-0.034772351 -0.025191788 0.22637615
-0.026988463 0.042095065 0.17859794
-0.026753969 0.040423665 0.17983674
-0.026265651 0.037685927 0.18145423
-0.026707532 0.034010209 0.18307377
-0.026582418 0.031190265 0.18460512
-0.026935309 0.027918126 0.18625848
-0.027484288 0.024679938 0.18700491
-0.027933942 0.021636633 0.18713681
-0.029472919 0.017069202 0.18718471
-0.031165097 0.0097666625 0.18706861
-0.027486106 0.0060384814 0.19093598
-0.027492773 0.0033090988 0.19486924
-0.026968164 0.00059392629 0.19891898
-0.027654424 -0.0027741157 0.20396364
-0.029484387 -0.0052352962 0.20682296
-0.0306335 -0.0084037837 0.2082185
-0.032082759 -0.011363264 0.21165051
-0.03177584 -0.014214001 0.21588302
-0.031489428 -0.016616447 0.21854047
-0.031812344 -0.018675029 0.22106954
-0.03182698 -0.021018628 0.2229916
-0.032126628 -0.023574568 0.22491287
-0.03196783 -0.024716171 0.22736354
-0.024849985 0.042791247 0.17873797
-0.023456 0.041112646 0.18035845
-0.022495704 0.038962767 0.18165226
-0.022494463 0.035537355 0.18346922
-0.023050109 0.031761337 0.1856215
-0.023495145 0.028816152 0.18753316
-0.024735857 0.025292566 0.18813474
-0.025728755 0.021756841 0.18864766
-0.025856495 0.018071389 0.18985453
-0.025081061 0.014187319 0.19111136
-0.02383993 0.0088540288 0.19368915
-0.023342859 0.0047830087 0.196725
-0.023453891 0.0014452707 0.20044932
-0.024449352 -0.002566186 0.20536618
-0.025701452 -0.0054173465 0.2090617
-0.026782036 -0.0081656463 0.21242367
-0.027705733 -0.011238276 0.21631366
-0.027956931 -0.014383483 0.21985061
-0.028862962 -0.017530493 0.22172311
-0.029848285 -0.019484138 0.22285099
-0.029348612 -0.021266919 0.22360013
-0.028858665 -0.023008354 0.22529472
-0.028725436 -0.02479646 0.22807226
-0.019460347 0.0416619 0.18154448
-0.019524116 0.038927708 0.18318734
-0.018446874 0.03593491 0.18505907
-0.018969633 0.032752324 0.18695635
-0.019524546 0.029891422 0.18909675
-0.020258605 0.026669471 0.1906673
-0.022797486 0.021916211 0.19109492
-0.023181152 0.018738514 0.19186492
-0.02281284 0.015745258 0.19327874
-0.021998946 0.011824504 0.19476786
-0.02103626 0.0073333443 0.19770861
-0.02078988 0.0026774455 0.2033232
-0.021242451 -0.0020996362 0.2081119
-0.021911623 -0.0061087841 0.21320316
-0.022797205 -0.0089255506 0.21646242
-0.023579633 -0.011838323 0.2201809
-0.024770306 -0.014627469 0.22240593
-0.025699016 -0.017385712 0.22403935
-0.02716914 -0.019635379 0.22483154
-0.026394822 -0.021308506 0.22421977
-0.025840167 -0.023222771 0.22520091
-0.025680425 -0.025118168 0.22841021
-0.016207267 0.039408438 0.18463157
-0.01542503 0.036638308 0.18639523
-0.015666408 0.033781428 0.18830989
-0.015911931 0.031082923 0.19023402
-0.015234821 0.02817929 0.19228072
-0.015083851 0.024367964 0.19451243
-0.020173399 0.019857597 0.19401845
-0.02004098 0.016544687 0.19571877
-0.018909184 0.012635796 0.19731662
-0.017808808 0.008508618 0.20141034
-0.017946791 0.0042442009 0.20586015
-0.01807907 -0.0012819953 0.21065573
-0.018590815 -0.0063621989 0.21633314
-0.018977322 -0.0098111052 0.21980111
-0.019075233 -0.012980255 0.22305651
-0.02110989 -0.014804708 0.22411042
-0.02264885 -0.016905837 0.22585417
-0.023545871 -0.018727491 0.22606897
-0.023454122 -0.02045027 0.22546364
-0.022802558 -0.022771006 0.22645186
-0.022957632 -0.025568714 0.23002522
-0.012648221 0.037125751 0.18751733
-0.01230451 0.034581415 0.18915652
-0.012131265 0.03202175 0.1909481
-0.011569853 0.028980209 0.1926613
-0.010350285 0.025258601 0.19634296
-0.012167056 0.01977328 0.19896102
-0.015124396 0.015733367 0.19946875
-0.014623651 0.01208729 0.20140047
-0.014928336 0.0092044314 0.20431682
-0.015385428 0.0057244068 0.20721439
-0.015324721 -0.00028722946 0.21256165
-0.015101246 -0.0065600211 0.21854316
-0.014735484 -0.0097132791 0.22149961
-0.01446986 -0.012619688 0.2241635
-0.01511573 -0.014906627 0.22534767
-0.018235387 -0.016176796 0.22521244
-0.019633859 -0.018033691 0.22552791
-0.01999739 -0.020349337 0.22600517
-0.020212628 -0.022991706 0.2280069
-0.019938808 -0.025558356 0.23143655
-0.0097899139 0.03487144 0.18998007
-0.0086627593 0.032454304 0.19191612
-0.0075318557 0.029287986 0.19465283
-0.0070131142 0.025077211 0.19854635
-0.0082758022 0.019612273 0.20168024
-0.010482678 0.015494792 0.20302781
-0.011312082 0.012344409 0.20478837
-0.011871615 0.009664149 0.2064857
-0.012453976 0.0065523773 0.20846517
-0.012794228 0.0014215636 0.21306203
-0.011116114 -0.0057696062 0.21953841
-0.010627347 -0.0089561623 0.22235273
-0.010571109 -0.011925959 0.22454141
-0.010954871 -0.014177223 0.22601202
-0.012782011 -0.015822044 0.22617164
-0.01464343 -0.017757023 0.22721045
-0.015832387 -0.020587914 0.22819743
-0.016948553 -0.024614854 0.23173393
-0.0044211247 0.031066621 0.19568731
-0.0041124811 0.027754307 0.19840752
-0.00470823 0.023296375 0.20140336
-0.0056713265 0.020528946 0.20295876
-0.0070539187 0.015846385 0.20491716
-0.0078591416 0.012616428 0.20685083
-0.0083189057 0.0097468328 0.2085959
-0.0086965887 0.0066935024 0.21121889
-0.010163456 0.0029916104 0.21364136
-0.007263287 -0.004718692 0.22035241
-0.0069146072 -0.0083282692 0.22340243
-0.0070111556 -0.011481182 0.22461303
-0.007752175 -0.013993585 0.22645919
-0.0084606269 -0.0161453 0.22764419
-0.010093126 -0.018529819 0.22946659
-0.012474212 -0.021198006 0.23047371
-0.014642477 -0.0238206 0.23187122
-0.0012480055 0.025751701 0.20034932
-0.0016603164 0.022401305 0.20220332
-0.00097793748 0.019341784 0.20369343
-0.002650928 0.01661798 0.20549318
-0.0035473928 0.012364368 0.20807974
-0.0034679885 0.0092252977 0.21080758
-0.003554014 0.0063416832 0.21340448
-0.0034039428 -0.003127546 0.22052126
-0.0032100703 -0.0078043281 0.22368999
-0.003545976 -0.011390964 0.22494416
-0.0043067592 -0.014112297 0.22675285
-0.0054116393 -0.016358623 0.2281311
-0.0070326347 -0.018430969 0.23026682
0.00096318976 0.024099387 0.20090513
0.00097131002 0.021717822 0.20192631
0.0013095421 0.019126333 0.20313661
0.0013540497 0.01618569 0.20564181
0.00094142638 0.012331364 0.20878696
0.00071910076 0.0091638174 0.21154261
0.00060649432 0.0065137129 0.21398352
5.9759341e-06 0.0036655655 0.21660222
0.00034096808 -0.0010117802 0.2195099
-0.00014878152 -0.0063354722 0.22257988
-0.0009184216 -0.010850547 0.22512449
0.0031790563 0.020910023 0.20168696
0.0046904976 0.018901298 0.20299263
0.004497698 0.015849886 0.20622835
0.0039367066 0.012606136 0.20902906
0.0036897911 0.0097392946 0.21152642
0.0034280301 0.0076435227 0.21371479
0 0 0 1 0 0 0 1 0 0 0 1 0 0 0 0 0 348 1 0 0
