ply
format ascii 1.0
comment PCL generated
element vertex 348
property float x
property float y
property float z
element camera 1
property float view_px
property float view_py
property float view_pz
property float x_axisx
property float x_axisy
property float x_axisz
property float y_axisx
property float y_axisy
property float y_axisz
property float z_axisx
property float z_axisy
property float z_axisz
property float focal
property float scalex
property float scaley
property float centerx
property float centery
property int viewportx
property int viewporty
property float k1
property float k2
end_header
-0.056886666 0.023734629 0.18857208
-0.057254449 0.021284351 0.19007893
-0.057698373 0.018167472 0.19181356
-0.057976481 0.015176218 0.19361401
-0.058158651 0.012317766 0.19543332
-0.05815284 0.009648947 0.19712897
-0.057819366 0.0070021814 0.1987206
-0.053536586 0.025512552 0.18470623
-0.054377131 0.024402192 0.18566711
-0.054394737 0.021782065 0.18714961
-0.054682564 0.018551588 0.18898894
-0.054958303 0.015039112 0.19090523
-0.055483893 0.011854514 0.19288205
-0.056075443 0.008927498 0.19542508
-0.056116115 0.0057048448 0.19737564
-0.054773245 0.0017496889 0.19802177
-0.05480773 -0.0010868628 0.2002077
-0.050735898 0.027946848 0.18242197
-0.051245127 0.026302945 0.18325901
-0.051394787 0.024314551 0.18414474
-0.051730033 0.022159798 0.18537769
-0.051839549 0.018735271 0.18727142
-0.051690068 0.014459893 0.18952125
-0.052082907 0.010990293 0.19137858
-0.052657001 0.007850687 0.19382873
-0.052972175 0.0038273337 0.19513457
-0.05269279 -7.3767769e-05 0.19745865
-0.053259585 -0.002524934 0.20007239
-0.054035209 -0.0039132629 0.20293772
-0.053871237 -0.0050267451 0.20511319
-0.05363651 -0.005768823 0.20618729
-0.048281915 0.028991604 0.18133272
-0.04861255 0.026882414 0.18204144
-0.048953373 0.024695801 0.18308727
-0.049357973 0.022474369 0.1844853
-0.049677324 0.019282255 0.18635263
-0.048880953 0.013224089 0.1884007
-0.049256131 0.0094487332 0.19068293
-0.049922757 0.0059696287 0.19248509
-0.051445041 0.00049931509 0.19400288
-0.051313877 -0.0027593982 0.19656228
-0.050990313 -0.0046387375 0.1985151
-0.051061239 -0.0052773324 0.20106015
-0.05124867 -0.0052139414 0.20448783
-0.051701803 -0.0060410076 0.20734243
-0.051933948 -0.007707614 0.21047138
-0.050917339 -0.010198718 0.21437904
-0.04507703 0.032260668 0.17995661
-0.045463014 0.030189103 0.18078206
-0.04591224 0.027591486 0.18169801
-0.046432979 0.025280576 0.18273348
-0.046953078 0.022736648 0.18406779
-0.047407076 0.019507574 0.18544704
-0.047011759 0.01387463 0.18701039
-0.047851156 0.0081867576 0.19018659
-0.048765685 0.003519522 0.19133481
-0.050506629 -0.0027198829 0.19370668
-0.05058796 -0.0068961927 0.19545732
-0.049963791 -0.0075852461 0.19715591
-0.048758235 -0.0057857567 0.19944155
-0.048021529 -0.0055256202 0.20411937
-0.048161488 -0.0064323549 0.2075413
-0.048481662 -0.0085639218 0.2107068
-0.049183093 -0.011140536 0.21374364
-0.05015273 -0.013535838 0.21764304
-0.042581283 0.034162723 0.17923693
-0.043027759 0.030964566 0.1807847
-0.042859606 0.028525554 0.1815588
-0.043810114 0.025944559 0.18259348
-0.044211615 0.023481172 0.1834731
-0.044491291 0.020325802 0.18448947
-0.044870935 0.015637737 0.18573847
-0.046764903 0.0073447451 0.18944131
-0.048395168 0.0011428705 0.19011761
-0.0491389 -0.0060507995 0.19255613
-0.048365653 -0.0088204443 0.19440925
-0.046883374 -0.0080131022 0.19692203
-0.04581159 -0.0059901215 0.1989013
-0.045023363 -0.0059673982 0.20362662
-0.044772875 -0.0071453326 0.20744012
-0.044634666 -0.0089820465 0.21068498
-0.045966666 -0.01149602 0.21355179
-0.047950827 -0.014368724 0.21766564
-0.048306268 -0.01780504 0.2208349
-0.04785303 -0.020467674 0.22252305
-0.038928654 0.039294496 0.17731898
-0.039447002 0.036440175 0.17911892
-0.038321186 0.033521283 0.18065141
-0.039470598 0.030896394 0.18149456
-0.040064137 0.028023768 0.18217744
-0.040906027 0.024357246 0.18302163
-0.04093387 0.021050017 0.18364781
-0.042519338 0.015829099 0.18529025
-0.045513861 0.0072363317 0.18814482
-0.046423607 0.001735119 0.18769635
-0.046851125 -0.0072485921 0.19095072
-0.044789754 -0.0089373272 0.1940303
-0.043380532 -0.0074382392 0.19680388
-0.043057222 -0.0063214772 0.1978914
-0.042233329 -0.0068147369 0.20189789
-0.042593833 -0.0084725469 0.20529924
-0.043468442 -0.0098831067 0.20818244
-0.044850986 -0.010993448 0.21119049
-0.044785164 -0.014733946 0.21592656
-0.044684462 -0.018241031 0.21935384
-0.045465812 -0.021522254 0.22223489
-0.044733044 -0.023865096 0.22345032
-0.036288273 0.040674906 0.17703329
-0.035957098 0.038904883 0.1788384
-0.035920192 0.034868959 0.18042313
-0.036571421 0.032209691 0.18146379
-0.03620987 0.029850176 0.18235379
-0.035935953 0.026226457 0.18361427
-0.036167156 0.023138888 0.18394664
-0.039923508 0.016677551 0.18494281
-0.043743614 0.0086422618 0.18684581
-0.043402128 0.0033683425 0.18530515
-0.042753667 -0.0083569884 0.18975328
-0.041279279 -0.0097645074 0.19317354
-0.040717985 -0.0077799656 0.19414809
-0.040048849 -0.0066845901 0.19665854
-0.040059965 -0.0077902484 0.2002043
-0.040732034 -0.0092692217 0.20285688
-0.041656431 -0.010411787 0.20690069
-0.043217372 -0.011822917 0.21059555
-0.041891769 -0.015243839 0.21468435
-0.041281886 -0.018588388 0.21810824
-0.041621234 -0.021663044 0.22114499
-0.041723594 -0.024242051 0.22300179
-0.033126988 0.041441612 0.17738023
-0.032996003 0.039743595 0.17899534
-0.033344675 0.035300709 0.1811408
-0.033539735 0.032098863 0.18237993
-0.032957193 0.030132174 0.18333311
-0.032646794 0.027156103 0.18435819
-0.033274096 0.023116719 0.18463653
-0.034269273 0.019538084 0.18455556
-0.041099407 0.011175009 0.18564448
-0.039918903 0.0051352731 0.18476932
-0.038523193 0.0014635175 0.1844933
-0.037879292 -0.0066072582 0.18791521
-0.037311766 -0.0064162328 0.19244936
-0.037022758 -0.0054119746 0.19625561
-0.036877658 -0.0069168783 0.20042692
-0.037628595 -0.0090672448 0.20341232
-0.038757667 -0.010848309 0.20728569
-0.040104136 -0.012955578 0.21126874
-0.039059892 -0.015925173 0.21439534
-0.037989721 -0.018956946 0.21795844
-0.038628794 -0.022028523 0.22052747
-0.0382259 -0.024006931 0.22237808
-0.030284667 0.041809667 0.17788382
-0.030004596 0.040043242 0.17947592
-0.03027254 0.035909008 0.18165632
-0.030301513 0.032823317 0.18307783
-0.029746719 0.030699428 0.18410535
-0.030042242 0.027525479 0.18529512
-0.030376039 0.02402343 0.18568687
-0.030230662 0.021345431 0.1858131
-0.034804214 0.015008445 0.1848159
-0.035722986 0.0071526296 0.18470517
-0.032748807 0.0045973388 0.18697695
-0.032485165 0.0010647116 0.18928477
-0.033353347 -0.0026028508 0.19187117
-0.033723943 -0.0035540271 0.19445212
-0.033932976 -0.0066893054 0.2022381
-0.034472998 -0.0085827056 0.20468859
-0.035722911 -0.011289865 0.20819303
-0.036645167 -0.013987877 0.21194564
-0.035045501 -0.016421694 0.21509026
-0.034454037 -0.018589895 0.2193725
-0.034448449 -0.020956732 0.22125833
-0.034971021 -0.023854069 0.22337173
-0.034652974 -0.025263378 0.22593634
-0.02714961 0.042153608 0.1785312
-0.026875552 0.04046103 0.17982386
-0.026377739 0.037645098 0.18150872
-0.026937749 0.033956956 0.18314314
-0.026794232 0.031173438 0.18464908
-0.027125947 0.027926525 0.18624629
-0.027671603 0.024752341 0.18685471
-0.028066088 0.021715617 0.18688583
-0.02947166 0.01711436 0.18674
-0.031215331 0.010006711 0.18612179
-0.027417829 0.0061104544 0.18998763
-0.027115209 0.0030767366 0.19378647
-0.026577624 0.00034300477 0.19805284
-0.027523434 -0.0030675526 0.20336933
-0.029469356 -0.0056845779 0.20621969
-0.030807005 -0.0086784698 0.20779939
-0.032356702 -0.01170188 0.21116106
-0.031925485 -0.014507364 0.21551937
-0.031503655 -0.01686929 0.21819732
-0.031758472 -0.018996429 0.22066109
-0.031749014 -0.021302262 0.22249995
-0.032021467 -0.023726325 0.22444446
-0.031812422 -0.024713891 0.22689906
-0.024974713 0.042810962 0.17868041
-0.023506282 0.041073732 0.18034302
-0.022521596 0.038876407 0.18165655
-0.022619506 0.035469078 0.18347687
-0.023202647 0.031797815 0.18561202
-0.023622561 0.028851138 0.18750674
-0.02491501 0.025353404 0.18799838
-0.025879789 0.021825334 0.18838495
-0.025851853 0.018151768 0.18942226
-0.024867097 0.014400742 0.1905174
-0.023532443 0.0089732707 0.19297534
-0.023126198 0.0048375842 0.19605713
-0.023334781 0.0014779684 0.19991973
-0.024392841 -0.0026602389 0.20505835
-0.025722394 -0.0056258151 0.20879713
-0.026850395 -0.0085549103 0.21214154
-0.027789006 -0.011752164 0.21605963
-0.028064782 -0.014831571 0.21965671
-0.028898839 -0.017927667 0.22139813
-0.029808395 -0.019804897 0.22236554
-0.029276667 -0.021527378 0.22309159
-0.028756384 -0.02313186 0.22479871
-0.028624602 -0.024795029 0.22759643
-0.019429944 0.041587643 0.18160979
-0.019496227 0.038877226 0.18325953
-0.018390214 0.035977546 0.18518591
-0.018971102 0.032833613 0.18702917
-0.019563718 0.029957715 0.18909183
-0.02033175 0.026741151 0.19063295
-0.022967428 0.022008674 0.19085295
-0.023180399 0.018892547 0.19146694
-0.022695296 0.01598605 0.1927764
-0.021799438 0.01205494 0.19417728
-0.02083022 0.0074502514 0.19708587
-0.020624185 0.002633322 0.20284067
-0.02118307 -0.0022265101 0.20786427
-0.022002017 -0.0063115261 0.21328913
-0.022911044 -0.0092473123 0.21650654
-0.023695808 -0.012264428 0.22012039
-0.024860859 -0.015091966 0.22212575
-0.025719635 -0.017794447 0.22362027
-0.027095798 -0.019934418 0.22430888
-0.026345585 -0.021573301 0.22369729
-0.02578113 -0.023362814 0.22473629
-0.025653772 -0.02508663 0.22796343
-0.016084932 0.039385274 0.18476135
-0.015264266 0.036605634 0.18645029
-0.015518949 0.033744659 0.18826561
-0.015770316 0.031058149 0.19013402
-0.015054908 0.028156718 0.19215514
-0.014891614 0.024407778 0.19443794
-0.020182602 0.020081686 0.19368628
-0.019984476 0.016790371 0.19531988
-0.018785208 0.012887657 0.19687077
-0.017683899 0.0087003959 0.20103239
-0.017745933 0.0041952878 0.20543072
-0.018017571 -0.0014163216 0.21048094
-0.018736951 -0.0065390766 0.21657269
-0.019141285 -0.010048127 0.21992792
-0.019229097 -0.013263742 0.22309151
-0.021221358 -0.015239002 0.22390704
-0.022683036 -0.017316956 0.22545204
-0.023563465 -0.019036992 0.22554818
-0.02345968 -0.020692252 0.22492237
-0.022819394 -0.022872658 0.2259434
-0.023014061 -0.025528494 0.22957411
-0.012409171 0.037060689 0.1875308
-0.012051017 0.034467917 0.18902789
-0.011865678 0.031893414 0.19073518
-0.011279819 0.0288499 0.1924662
-0.009987751 0.025096137 0.19626708
-0.011968249 0.019824183 0.19893023
-0.015169722 0.016012102 0.19932164
-0.014659804 0.01240592 0.20129122
-0.014931145 0.0094096065 0.20412441
-0.01528166 0.0057875109 0.20689575
-0.015273233 -0.00040613662 0.21242285
-0.01524179 -0.006748857 0.21874884
-0.014835373 -0.0098990398 0.22158863
-0.014571187 -0.012790916 0.2242415
-0.015269213 -0.015122047 0.22541252
-0.018411256 -0.016487814 0.2251242
-0.019783238 -0.018346991 0.22525695
-0.020150786 -0.020577166 0.22565404
-0.020335417 -0.023096258 0.22761612
-0.020086091 -0.025551584 0.23105946
-0.0094881197 0.034703176 0.18978678
-0.0082855159 0.032215651 0.19162422
-0.0070969402 0.028988985 0.19444132
-0.0065827272 0.024813067 0.19835912
-0.008024035 0.019645819 0.20172162
-0.010530471 0.015738599 0.20321482
-0.011435854 0.01268042 0.20498635
-0.011964176 0.009948601 0.20655861
-0.01247877 0.0067195026 0.20838229
-0.012789714 0.0013719003 0.21287242
-0.011204023 -0.0059497952 0.2196531
-0.010662568 -0.0091020279 0.22239441
-0.010630001 -0.01206451 0.22460696
-0.011056411 -0.014341224 0.22610238
-0.012933146 -0.016011419 0.2262717
-0.014898641 -0.017993677 0.22720531
-0.016165065 -0.020864872 0.22815046
-0.017272612 -0.024728382 0.23149396
-0.0038935186 0.030686757 0.19528542
-0.0035988509 0.027402861 0.19804417
-0.0043023159 0.023153638 0.20112415
-0.0053902436 0.020539897 0.20286813
-0.0070406902 0.016046768 0.20512968
-0.0079633491 0.012908676 0.20714597
-0.0084273433 0.0099871857 0.20881601
-0.0087934686 0.0068190387 0.21133102
-0.01023627 0.0030034457 0.21347308
-0.0072916388 -0.0049048718 0.22033995
-0.0068841907 -0.0084885256 0.223388
-0.0070451251 -0.011645193 0.22467197
-0.0078263395 -0.014169189 0.2265622
-0.0085754851 -0.016329143 0.22779721
-0.010291447 -0.018721202 0.22957882
-0.012813447 -0.021439629 0.23052688
-0.015013916 -0.024009671 0.23176326
-0.00076326297 0.025523415 0.19991882
-0.0012743085 0.022276377 0.20198514
-0.00071980822 0.019348146 0.20371057
-0.0025285755 0.016746813 0.20565628
-0.0035268965 0.012442413 0.20822285
-0.0034462721 0.0092111789 0.210885
-0.0035354532 0.0063000922 0.21339223
-0.003365156 -0.0033151796 0.22041105
-0.0031880327 -0.0080095036 0.22366296
-0.0035849516 -0.011625174 0.22503038
-0.0043754946 -0.014318964 0.22688287
-0.0055137365 -0.01655142 0.22830579
-0.0071599488 -0.018617559 0.23041798
0.001402916 0.023888063 0.20057768
0.0013192894 0.021572687 0.20177794
0.0015240224 0.019091794 0.20318477
0.0015054005 0.016205106 0.20578378
0.0010705801 0.012227661 0.2088334
0.000794116 0.0090110041 0.21154563
0.00068113458 0.0063540745 0.21392114
6.2944273e-05 0.0035010912 0.21650434
0.00037486971 -0.0012045724 0.21942261
-0.00012461458 -0.006549811 0.22252761
-0.0009319961 -0.011088935 0.22519614
0.0034770009 0.020738292 0.20159765
0.0048826621 0.01880441 0.20302247
0.0046600667 0.015752846 0.20630147
0.0040771617 0.012431675 0.20904778
0.0038020266 0.0095291883 0.21149191
0.0035356253 0.0074122422 0.21365902
0 0 0 1 0 0 0 1 0 0 0 1 0 0 0 0 0 348 1 0 0
