ply
format ascii 1.0
comment PCL generated
element vertex 348
property float x
property float y
property float z
element camera 1
property float view_px
property float view_py
property float view_pz
property float x_axisx
property float x_axisy
property float x_axisz
property float y_axisx
property float y_axisy
property float y_axisz
property float z_axisx
property float z_axisy
property float z_axisz
property float focal
property float scalex
property float scaley
property float centerx
property float centery
property int viewportx
property int viewporty
property float k1
property float k2
end_header
-0.056870047 0.023599176 0.18852051
-0.057251833 0.02117488 0.19008893
-0.057635847 0.018052658 0.19175638
-0.057906393 0.015083267 0.19345069
-0.058108211 0.012274181 0.19518702
-0.058141943 0.0096679656 0.19683322
-0.057839014 0.0070638857 0.19840941
-0.053648345 0.025434462 0.18458453
-0.054533448 0.024375709 0.18558057
-0.054473642 0.021732109 0.18705398
-0.054714672 0.018468689 0.18887143
-0.054962099 0.015003818 0.19067723
-0.055502493 0.011833166 0.19256884
-0.056110431 0.0089569902 0.19505192
-0.056109846 0.0056964159 0.19700155
-0.055112999 0.0016967958 0.19750106
-0.054948449 -0.00097879046 0.19990347
-0.050773744 0.027725633 0.1820439
-0.051291894 0.026123468 0.18300179
-0.051434942 0.024186132 0.1839617
-0.051742747 0.022079973 0.18524839
-0.051848639 0.018702002 0.18706676
-0.0517607 0.01447829 0.18912588
-0.052200682 0.011042698 0.19085571
-0.052584238 0.0078783557 0.19341657
-0.053245153 0.003746625 0.19454101
-0.053017508 -7.7765028e-05 0.19694845
-0.053339899 -0.0023521876 0.19980964
-0.053946625 -0.0035657499 0.20282324
-0.053653087 -0.0044997898 0.20510499
-0.053304132 -0.0047537102 0.20650975
-0.048303366 0.028721351 0.180923
-0.048654996 0.026672307 0.18169458
-0.048977602 0.02455085 0.1828296
-0.049329877 0.022353025 0.18428656
-0.049506042 0.019164721 0.18617903
-0.049041841 0.013280802 0.18774234
-0.049474172 0.0095396144 0.18987845
-0.050019581 0.0059877113 0.19179997
-0.052020218 0.00033130005 0.19333722
-0.051570624 -0.0027535218 0.19615602
-0.051046319 -0.0044717714 0.1982837
-0.050994564 -0.0049149757 0.20094404
-0.051053226 -0.0045171892 0.20449217
-0.051263969 -0.0046640676 0.20775335
-0.051311996 -0.0059347623 0.21110097
-0.050792743 -0.0090534333 0.21476127
-0.045085415 0.03193336 0.17953244
-0.04547153 0.029891513 0.18031015
-0.045963168 0.02736471 0.18128337
-0.046458252 0.025139516 0.18239263
-0.046927053 0.022638615 0.18376686
-0.047230136 0.019415269 0.18516998
-0.046992581 0.013938349 0.18637958
-0.047795486 0.0083247889 0.18943951
-0.049141191 0.0035522666 0.19042306
-0.050985217 -0.0028397297 0.19315915
-0.050740547 -0.0068535497 0.19520842
-0.05003782 -0.0073989644 0.19695075
-0.048765231 -0.0054288507 0.19923112
-0.047839198 -0.0046726251 0.20407143
-0.047724869 -0.0050551849 0.20771813
-0.048413713 -0.00757349 0.21089241
-0.04909265 -0.010079696 0.21413001
-0.049984641 -0.012897232 0.21797687
-0.042623259 0.033860639 0.17892498
-0.043049753 0.030675365 0.18036127
-0.042903341 0.028281579 0.18111753
-0.043868728 0.025799854 0.18216807
-0.044212818 0.023393007 0.18305877
-0.044376347 0.020283068 0.18402913
-0.044715505 0.015715431 0.18509482
-0.046784054 0.0076575237 0.18847914
-0.049051739 0.001106674 0.18914919
-0.049472861 -0.0061130105 0.19215806
-0.048525009 -0.0087264925 0.19417627
-0.046980955 -0.0077319727 0.19658528
-0.045870461 -0.005521256 0.19851582
-0.044865701 -0.0050503151 0.20347448
-0.0443209 -0.0057260157 0.20747665
-0.044366341 -0.0077937613 0.2108375
-0.045784406 -0.010521798 0.2138806
-0.047815502 -0.014025674 0.21783368
-0.048098188 -0.017794123 0.22061892
-0.047608364 -0.020607984 0.22207148
-0.039080389 0.039250806 0.17727885
-0.039515946 0.036230959 0.17896606
-0.038311578 0.033252433 0.18038742
-0.039443836 0.030643417 0.18115157
-0.040000584 0.027873123 0.181798
-0.040883925 0.024317537 0.18253021
-0.040892635 0.021045292 0.18299828
-0.042438745 0.015990816 0.18444589
-0.045587715 0.0076534743 0.18696965
-0.047197629 0.0021543377 0.18627809
-0.047204476 -0.0073153796 0.1905262
-0.044986855 -0.0087940665 0.19365384
-0.043498676 -0.0070674429 0.19634593
-0.043159474 -0.0058288043 0.19745521
-0.042203736 -0.0059114387 0.20161931
-0.042342942 -0.0071446104 0.2053488
-0.043320093 -0.0086693252 0.20829287
-0.044686537 -0.0098626306 0.21155302
-0.044706609 -0.014339489 0.21585497
-0.044597302 -0.018237526 0.21898609
-0.045250122 -0.021703485 0.22162251
-0.044531923 -0.024097234 0.22268473
-0.036492161 0.040754728 0.17691502
-0.036078695 0.038961999 0.17870635
-0.035932992 0.034632869 0.18022533
-0.03653533 0.031978827 0.18117787
-0.03610694 0.029648148 0.18203248
-0.035845678 0.026058717 0.18324882
-0.036143892 0.023018498 0.18340118
-0.039877996 0.016823063 0.18401997
-0.043782536 0.0091169998 0.18554623
-0.044207755 0.0040664617 0.18344803
-0.04307856 -0.0085112676 0.18912746
-0.04145309 -0.0096335392 0.19259617
-0.040893376 -0.0075685941 0.19335048
-0.040208098 -0.0062188604 0.19598056
-0.040167801 -0.0069802552 0.19988
-0.040813837 -0.0081145195 0.20271079
-0.041735087 -0.0092517789 0.20691189
-0.043096408 -0.010715436 0.21073395
-0.041838478 -0.014947876 0.21431893
-0.041179691 -0.018700976 0.21744426
-0.041436426 -0.021869965 0.22036275
-0.041477356 -0.024499888 0.22208516
-0.033335645 0.041595876 0.17719097
-0.033126902 0.039880726 0.17882134
-0.033387169 0.03509118 0.18098542
-0.033497591 0.031873725 0.18216665
-0.032876328 0.029938718 0.18306312
-0.032579925 0.027016705 0.18396515
-0.033315063 0.022938384 0.18396798
-0.034214314 0.019457322 0.183579
-0.040956039 0.011674029 0.18414783
-0.040315133 0.005652511 0.18259616
-0.039146002 0.0018730231 0.18201055
-0.038287323 -0.0067491024 0.18664536
-0.037591822 -0.0063196151 0.19137509
-0.037180547 -0.005136223 0.19523381
-0.036931049 -0.0064234189 0.19971992
-0.037720244 -0.0082583167 0.20298585
-0.038926471 -0.010039634 0.20695294
-0.04012572 -0.012376785 0.2108863
-0.039056472 -0.01598357 0.21374077
-0.037794195 -0.019380944 0.21710025
-0.038365122 -0.02243196 0.21963969
-0.037925113 -0.024281703 0.22148071
-0.03046874 0.041981794 0.17773746
-0.030125789 0.040184911 0.17937681
-0.030343963 0.035762358 0.1815916
-0.030370351 0.032622833 0.1829652
-0.029796807 0.030519126 0.1839039
-0.030061042 0.027329197 0.18487279
-0.030397164 0.023839811 0.18498103
-0.03016158 0.021173749 0.18483892
-0.034715731 0.015124142 0.18330339
-0.035942443 0.0073979404 0.18224996
-0.032652155 0.0049252412 0.18442547
-0.032418724 0.0013481245 0.18682267
-0.033486139 -0.0025063471 0.19000697
-0.033896316 -0.0034821518 0.19300736
-0.033856936 -0.0066121062 0.2012668
-0.034408469 -0.0085262442 0.20374954
-0.035952806 -0.011189973 0.20736773
-0.036796771 -0.014063152 0.21102962
-0.034960695 -0.01682958 0.2141404
-0.034163103 -0.019146264 0.21827827
-0.034101598 -0.021436801 0.22017352
-0.034624569 -0.024096569 0.22249097
-0.034237649 -0.025215518 0.22515509
-0.027304202 0.042310357 0.17848091
-0.026985357 0.040571216 0.17984486
-0.02646352 0.037618432 0.1815816
-0.02712363 0.033843499 0.18308988
-0.026909065 0.03101684 0.18445732
-0.027162701 0.027682202 0.18582331
-0.027671339 0.024531756 0.18614615
-0.027975528 0.02151398 0.18590079
-0.029250497 0.016920667 0.18529402
-0.031017963 0.010055802 0.18380332
-0.027030801 0.0060721133 0.18788019
-0.026519729 0.0030868447 0.19151555
-0.025947405 0.00022895551 0.19603993
-0.026888374 -0.0036789547 0.20187542
-0.028916793 -0.0065296846 0.20480342
-0.030868024 -0.0092680091 0.20685077
-0.032543328 -0.012368196 0.21010338
-0.031966455 -0.01512886 0.2144406
-0.031296872 -0.01745994 0.21704869
-0.031450938 -0.019614646 0.21951236
-0.031417511 -0.021763625 0.22137998
-0.031640623 -0.023916375 0.223497
-0.031375684 -0.024638645 0.22596993
-0.025109261 0.042943634 0.17868301
-0.023553887 0.041100331 0.18041697
-0.022540553 0.038826536 0.18170868
-0.022734014 0.035387985 0.18346557
-0.023286257 0.03170177 0.18541327
-0.023629187 0.028653003 0.18710805
-0.024914367 0.025094867 0.18731984
-0.025811957 0.021526754 0.18733433
-0.025605228 0.017932452 0.18797939
-0.024327291 0.014459133 0.18876737
-0.022747556 0.0089797396 0.19103713
-0.022581333 0.0047243112 0.19429597
-0.022987243 0.0012939029 0.19843912
-0.024164217 -0.0032070887 0.20401363
-0.025626067 -0.0063765375 0.20783517
-0.02679689 -0.0094985059 0.21108748
-0.027693307 -0.012748836 0.21491821
-0.027874911 -0.01563614 0.21844588
-0.028635766 -0.018563647 0.22016226
-0.029510859 -0.020324768 0.22112036
-0.028938824 -0.021931563 0.22193609
-0.028422561 -0.023323806 0.22375648
-0.028252136 -0.024757456 0.22658396
-0.019356696 0.041488308 0.18173374
-0.019397961 0.038767822 0.18329883
-0.018200899 0.035911124 0.18515009
-0.018832862 0.032806266 0.18680249
-0.019460449 0.029855611 0.18866642
-0.02022527 0.026564665 0.19002366
-0.02291866 0.021687208 0.18971926
-0.022927543 0.018823832 0.19004017
-0.022246504 0.016085137 0.19112436
-0.021116862 0.012200383 0.19231389
-0.020137155 0.0073727975 0.19523427
-0.020144951 0.0022789368 0.20137201
-0.020911306 -0.0027944904 0.20680475
-0.02193642 -0.0070842993 0.21248841
-0.022845544 -0.010104854 0.2155682
-0.023577193 -0.013066954 0.21904801
-0.024683794 -0.015760349 0.22083519
-0.025486803 -0.018304292 0.22227713
-0.026727099 -0.020302875 0.22301441
-0.026042638 -0.021942671 0.22250314
-0.025480518 -0.023587601 0.22373013
-0.025369341 -0.025043478 0.22698885
-0.015809394 0.039164416 0.18481189
-0.014931424 0.036393281 0.18638626
-0.015197796 0.033601101 0.18803337
-0.015443947 0.030951049 0.18974985
-0.014681131 0.028069096 0.191687
-0.014463667 0.024367172 0.19392569
-0.019935958 0.020167831 0.19234006
-0.019579975 0.016937314 0.19376209
-0.018188601 0.013037398 0.19516619
-0.017067717 0.008587948 0.19942389
-0.017189115 0.0038038574 0.2039569
-0.017731475 -0.0019113221 0.2094584
-0.018660607 -0.0072580604 0.21584934
-0.019090448 -0.01072686 0.21905732
-0.019182187 -0.013794375 0.22214471
-0.021067897 -0.015767941 0.22271009
-0.022489076 -0.017693222 0.22412422
-0.023305815 -0.01930932 0.22419778
-0.023216071 -0.02094722 0.22364277
-0.022613715 -0.022923218 0.22480121
-0.022856509 -0.025373124 0.22860046
-0.011969772 0.036791287 0.18742456
-0.011629671 0.034264944 0.18879567
-0.011427633 0.031761613 0.19038279
-0.01080688 0.028771643 0.19210371
-0.0094298404 0.024940792 0.19594808
-0.01154754 0.01975847 0.1980565
-0.014822318 0.01608292 0.19810057
-0.014218731 0.012390912 0.20000674
-0.014486655 0.0092568034 0.20273902
-0.014845069 0.0055102347 0.2054988
-0.015014668 -0.00084156764 0.21143484
-0.015111526 -0.0073954994 0.21807073
-0.014702396 -0.010391893 0.22091863
-0.014483103 -0.013125203 0.22360238
-0.015221759 -0.015412727 0.22473209
-0.018307546 -0.016783049 0.22417277
-0.019678626 -0.018568853 0.22417061
-0.020079168 -0.020705955 0.22459838
-0.020279543 -0.023042109 0.2266617
-0.020099411 -0.025313141 0.23020074
-0.0090256771 0.034473989 0.18953854
-0.0077658468 0.032064401 0.1913473
-0.0065513616 0.028847925 0.19428422
-0.0059964363 0.024553515 0.19785683
-0.0075624269 0.019428369 0.20089608
-0.010276019 0.015639268 0.20242585
-0.011189978 0.012615754 0.20409687
-0.011723487 0.0098772412 0.20555589
-0.012257846 0.0065770196 0.2072905
-0.012600433 0.0010059989 0.21185811
-0.011010241 -0.00648025 0.21915576
-0.010484503 -0.0094521493 0.22202343
-0.010533166 -0.012316135 0.22433342
-0.011014074 -0.01457563 0.22583388
-0.012887578 -0.016241921 0.22584553
-0.014988433 -0.018133322 0.22651853
-0.016384607 -0.02091405 0.22749893
-0.017584298 -0.024556724 0.23080644
-0.0032874173 0.030493684 0.19492403
-0.0029640433 0.027102262 0.19748516
-0.003736336 0.022866569 0.20023942
-0.0049287383 0.020271974 0.20196556
-0.0067382017 0.015846571 0.20433459
-0.0077752382 0.01278021 0.20642629
-0.0083563337 0.0099217556 0.20812516
-0.0088107334 0.006706852 0.21059251
-0.010218515 0.0027898103 0.21250865
-0.0070566395 -0.0053412076 0.21998504
-0.0067006517 -0.0087673953 0.22323269
-0.0069466797 -0.011895677 0.22467145
-0.0077999895 -0.014402433 0.22658329
-0.0086270105 -0.016538423 0.22785221
-0.010461302 -0.018851956 0.22948796
-0.013141718 -0.021461362 0.23020014
-0.01539692 -0.023871174 0.23124069
-0.00011785499 0.025254594 0.19913571
-0.00076120772 0.022036178 0.20126517
-0.00035928263 0.019180559 0.20319945
-0.0022402417 0.016549004 0.2050356
-0.0033845478 0.012216438 0.20755003
-0.0033928314 0.0089192325 0.21018223
-0.0035065236 0.0059691174 0.21258296
-0.0031359652 -0.0036778371 0.22012846
-0.0030271602 -0.0083012059 0.22370149
-0.0034986797 -0.011915598 0.22525497
-0.0043781684 -0.014565822 0.22716017
-0.0055904347 -0.016753173 0.22861929
-0.007344583 -0.018769776 0.2306748
0.0019811173 0.023625033 0.19992207
0.0017859732 0.021368703 0.20127128
0.0018380671 0.018965147 0.20285788
0.0017339202 0.016057979 0.20545982
0.0012278801 0.011873356 0.20824534
0.00088930957 0.0085759619 0.21084754
0.00076551916 0.0059340508 0.21316573
9.2788228e-05 0.0031089899 0.21572614
0.00047761886 -0.0015191612 0.21897793
3.7300531e-05 -0.006838182 0.22262439
-0.00084788876 -0.011369409 0.22555169
0.0038896678 0.020570209 0.20124969
0.0051618749 0.018725807 0.20284963
0.004869259 0.015539069 0.2060184
0.0042469627 0.01202778 0.2085169
0.0039332486 0.0090682115 0.21084876
0.0036468522 0.0069636097 0.21300656
0 0 0 1 0 0 0 1 0 0 0 1 0 0 0 0 0 348 1 0 0
