ply
format ascii 1.0
comment PCL generated
element vertex 348
property float x
property float y
property float z
element camera 1
property float view_px
property float view_py
property float view_pz
property float x_axisx
property float x_axisy
property float x_axisz
property float y_axisx
property float y_axisy
property float y_axisz
property float z_axisx
property float z_axisy
property float z_axisz
property float focal
property float scalex
property float scaley
property float centerx
property float centery
property int viewportx
property int viewporty
property float k1
property float k2
end_header
-0.056785453 0.023574855 0.18828773
-0.05725117 0.021155573 0.19010207
-0.057627987 0.018031325 0.19175133
-0.057897799 0.015064732 0.19342351
-0.058103465 0.01226218 0.19514154
-0.05814353 0.0096651549 0.19677705
-0.057845537 0.0070686322 0.1983508
-0.053672299 0.025419619 0.1845773
-0.054568235 0.024370492 0.18558159
-0.054492705 0.021721968 0.18704395
-0.054726552 0.018452335 0.18885504
-0.054966699 0.014993999 0.19063847
-0.055510271 0.011826099 0.19251363
-0.056118596 0.0089567583 0.19498433
-0.056075294 0.0056835972 0.19677164
-0.055119392 0.0017019509 0.19730364
-0.054968156 -0.0009696561 0.19972186
-0.050782893 0.027687641 0.18199039
-0.051304046 0.026091166 0.18295972
-0.051449589 0.024159856 0.18392785
-0.051753711 0.022061592 0.18522127
-0.051859286 0.018692277 0.18702866
-0.051779937 0.014478466 0.18905409
-0.052230354 0.011046256 0.19075833
-0.0525847 0.0078201462 0.19306479
-0.053245436 0.003721491 0.19426501
-0.053018272 -6.6942506e-05 0.19676805
-0.053354304 -0.0023383193 0.19964392
-0.053975679 -0.0035469565 0.20266707
-0.053687844 -0.0044754227 0.20496336
-0.053364329 -0.0047624484 0.20635982
-0.048307251 0.028676873 0.18085773
-0.048665989 0.026635302 0.18163322
-0.048988748 0.024522131 0.18277664
-0.049334832 0.022326594 0.18423913
-0.049487915 0.019143205 0.18612881
-0.04908156 0.013286748 0.18761232
-0.049526948 0.0095482618 0.18972223
-0.05006339 0.0059248121 0.19138868
-0.052016903 0.00033129987 0.19314334
-0.051562358 -0.0027399515 0.19599226
-0.051044591 -0.0044518276 0.1981349
-0.051007766 -0.0048828726 0.2008145
-0.051082343 -0.0044664438 0.20438048
-0.05134492 -0.0046586269 0.2076281
-0.051436782 -0.0059711463 0.21095857
-0.050831329 -0.0089595001 0.21477614
-0.04507963 0.031878147 0.17946939
-0.045470294 0.029841583 0.18023361
-0.045974795 0.027322996 0.18120566
-0.046468183 0.025108622 0.18232222
-0.046931412 0.022616182 0.18369649
-0.047212124 0.019396072 0.1851016
-0.047006991 0.013943688 0.1862462
-0.047846794 0.0082686078 0.18893757
-0.049202833 0.00349809 0.19004473
-0.050982207 -0.0028345999 0.1929938
-0.050739773 -0.0068346024 0.19507585
-0.050038211 -0.0073660617 0.19683419
-0.048772011 -0.0053832373 0.1991173
-0.047868352 -0.0045991787 0.20398352
-0.047788527 -0.0050106891 0.20763168
-0.048444327 -0.0074720108 0.21089564
-0.04912699 -0.0099881981 0.21415366
-0.04999822 -0.012880155 0.2179918
-0.042616893 0.033802234 0.17887188
-0.043044645 0.030616712 0.1802824
-0.042908218 0.028232642 0.18103042
-0.043885369 0.025767203 0.18207863
-0.044223551 0.023371767 0.18296485
-0.044369407 0.020271156 0.18392774
-0.04470722 0.015720891 0.18496533
-0.046844192 0.0076222131 0.18794405
-0.04909635 0.0010822584 0.18882135
-0.049472611 -0.0061067645 0.19202079
-0.048521888 -0.0087030828 0.19406715
-0.046981726 -0.0076861558 0.19647643
-0.045881562 -0.0054572909 0.1984096
-0.044892423 -0.0049557732 0.20340678
-0.044378515 -0.0056653055 0.20741384
-0.044359501 -0.0076453788 0.21085028
-0.045807071 -0.010441449 0.2139315
-0.047817711 -0.014032962 0.21784465
-0.04806488 -0.017832924 0.22059403
-0.047553308 -0.02065504 0.22202349
-0.039097924 0.039229803 0.17727838
-0.039509434 0.036176328 0.17893316
-0.038289558 0.033187587 0.180314
-0.039420925 0.030583721 0.18106149
-0.039980911 0.027835608 0.1817033
-0.040886261 0.024302859 0.18241808
-0.040899284 0.021037718 0.18286224
-0.042445205 0.016004851 0.18428539
-0.045652173 0.0076168976 0.18640201
-0.04729126 0.0021128266 0.18582593
-0.047205605 -0.0073111081 0.19040164
-0.044984788 -0.0087605538 0.1935486
-0.043502148 -0.0070045167 0.19623937
-0.043171767 -0.0057488014 0.19735707
-0.042229425 -0.0057811453 0.20155381
-0.042379625 -0.0070142788 0.20529474
-0.043307938 -0.008500766 0.20830779
-0.044694707 -0.0097419498 0.21160741
-0.044705682 -0.014312729 0.21584608
-0.044576485 -0.01826269 0.21895041
-0.045193002 -0.021743087 0.22155596
-0.044468366 -0.024138492 0.2225966
-0.03652877 0.04075972 0.17691232
-0.036099482 0.038955148 0.17869009
-0.035920747 0.034578692 0.1801706
-0.036508933 0.031923886 0.18110137
-0.036073618 0.029600926 0.18195476
-0.035823144 0.026019501 0.18316862
-0.036135044 0.022988062 0.18328564
-0.03988279 0.0168355 0.18384257
-0.043836527 0.0090918187 0.18494043
-0.044325721 0.0040226243 0.18285714
-0.043088395 -0.008519643 0.18898937
-0.041460607 -0.0096027236 0.19246967
-0.040908229 -0.0075293323 0.19319184
-0.040233757 -0.0061385101 0.19585176
-0.040203057 -0.0068391124 0.19981794
-0.04084884 -0.0079398658 0.20265868
-0.041736431 -0.0090681911 0.2069281
-0.04308562 -0.010565613 0.21074939
-0.041825376 -0.014913783 0.21427856
-0.041144349 -0.018725049 0.21737476
-0.041382942 -0.021900712 0.2202716
-0.041409843 -0.024537103 0.2219713
-0.033376984 0.041618623 0.17718245
-0.033152919 0.039894387 0.17880581
-0.033386268 0.035041768 0.18094368
-0.033476923 0.031819198 0.18210816
-0.032849874 0.02988947 0.18300007
-0.0325641 0.026982879 0.18389183
-0.033313986 0.022905432 0.18383354
-0.034200866 0.019440111 0.1833823
-0.040962238 0.011675397 0.18352248
-0.040371127 0.0056249863 0.18188943
-0.039195139 0.001811567 0.18133555
-0.038317654 -0.0067995936 0.1863948
-0.037623532 -0.006320355 0.19118115
-0.037209399 -0.0051199221 0.19504818
-0.036974076 -0.0063313395 0.19961333
-0.037784595 -0.0081256153 0.20292072
-0.038937781 -0.0098902537 0.20692769
-0.040126227 -0.012275305 0.21084112
-0.039041333 -0.015987849 0.21367171
-0.037745681 -0.019431284 0.21700451
-0.038302381 -0.022475392 0.21953888
-0.037852567 -0.024303965 0.22137235
-0.030506283 0.042012036 0.17773716
-0.030150363 0.040205043 0.1793765
-0.030355152 0.035728019 0.18157142
-0.030376278 0.032573275 0.18292744
-0.029804444 0.030476928 0.1838574
-0.030065749 0.027286071 0.18479635
-0.030393729 0.023800815 0.1848392
-0.030142821 0.021137012 0.18463704
-0.034712356 0.015133688 0.18302126
-0.035998847 0.007423982 0.18181559
-0.032560159 0.004832054 0.18366769
-0.032348994 0.0012965945 0.18620479
-0.033494495 -0.0025173011 0.18963456
-0.03391448 -0.0035216294 0.19275618
-0.033925109 -0.0065942374 0.20114811
-0.034509901 -0.0085077342 0.20363405
-0.035979047 -0.011136414 0.20727906
-0.036814343 -0.014040112 0.21093486
-0.034935351 -0.016871778 0.21403413
-0.034103468 -0.019203965 0.21814987
-0.034029234 -0.021475554 0.22004662
-0.034547232 -0.024101866 0.22238706
-0.034142453 -0.025180804 0.22505958
-0.027337966 0.042342253 0.17849651
-0.027010977 0.040593114 0.17986628
-0.026485197 0.037615679 0.1816041
-0.027159153 0.03381753 0.18307392
-0.026932072 0.030981915 0.18442431
-0.027172593 0.027631931 0.18575315
-0.027668212 0.0244835 0.18601184
-0.02795581 0.021470834 0.18570369
-0.02921531 0.016879557 0.18500637
-0.030999634 0.010043724 0.18338957
-0.026991181 0.0060633016 0.18754154
-0.026473254 0.0030900768 0.19099525
-0.025961926 0.00021094356 0.19560839
-0.0269213 -0.0038564887 0.20160158
-0.028980074 -0.0067031644 0.20459938
-0.030886117 -0.0093268137 0.20674032
-0.032579817 -0.012424408 0.2099883
-0.031973101 -0.015185308 0.21431558
-0.03125399 -0.017514873 0.21690403
-0.031388726 -0.019668875 0.2193674
-0.031346995 -0.021793514 0.22123586
-0.031555787 -0.02391172 0.22337183
-0.03127839 -0.024603512 0.22583856
-0.025141295 0.042974606 0.17870897
-0.023569938 0.04111091 0.18045136
-0.022553885 0.038825609 0.18173756
-0.022762943 0.035373993 0.18347564
-0.023306396 0.031671591 0.18538345
-0.023635892 0.02860599 0.18704042
-0.024914347 0.025038209 0.18719919
-0.025803883 0.021460036 0.18713133
-0.025579138 0.017880624 0.18770677
-0.024266617 0.014451372 0.18845585
-0.022650329 0.0089818239 0.1907187
-0.022519231 0.0047116252 0.19401988
-0.022947179 0.0012687243 0.19820878
-0.024140971 -0.0032970421 0.20386621
-0.025626432 -0.0064924494 0.20771384
-0.026803354 -0.0096207205 0.21095464
-0.027684338 -0.012862375 0.21476905
-0.027835201 -0.015713235 0.21827248
-0.028581582 -0.018615933 0.2199818
-0.029451039 -0.020364512 0.22094749
-0.028871093 -0.021956068 0.22177085
-0.028351067 -0.023325881 0.22360076
-0.028166881 -0.024730776 0.22642432
-0.019359218 0.041479375 0.18177991
-0.019396147 0.038755305 0.18332765
-0.018184137 0.035899755 0.18516141
-0.018820189 0.032789972 0.18677305
-0.019451803 0.029820271 0.18859309
-0.020211333 0.026512422 0.18990687
-0.02292308 0.021611698 0.18950395
-0.022906387 0.018795324 0.18977189
-0.02219438 0.016089017 0.19082218
-0.021027127 0.012218758 0.19198531
-0.020047819 0.0073641464 0.19493082
-0.020081528 0.0022280114 0.20114416
-0.020872891 -0.0028867961 0.20665063
-0.021927705 -0.0072010546 0.21237007
-0.022833003 -0.010221898 0.21542619
-0.023549495 -0.013159617 0.21888594
-0.024638049 -0.015822463 0.22063662
-0.025432134 -0.018342579 0.22206488
-0.026651578 -0.020324726 0.22281283
-0.025980236 -0.021967733 0.22231522
-0.025415979 -0.023596078 0.22356385
-0.02529666 -0.025021115 0.22683197
-0.015785266 0.039131131 0.18484768
-0.014896817 0.036361355 0.18640152
-0.015159682 0.033578239 0.18802039
-0.015402695 0.030929945 0.18970439
-0.01462669 0.028046075 0.19161627
-0.014387514 0.024340022 0.1938242
-0.019908274 0.02017097 0.19207874
-0.019530565 0.016955616 0.1934655
-0.018108482 0.01305693 0.19485576
-0.016982922 0.0085654659 0.19915606
-0.017110009 0.0037461303 0.20373178
-0.017677408 -0.0019914233 0.20929846
-0.018634552 -0.0073680552 0.21573104
-0.019068053 -0.010822218 0.21892025
-0.019154122 -0.013859455 0.22199392
-0.021021018 -0.015814859 0.22251558
-0.022434685 -0.017716702 0.22390009
-0.023240548 -0.019319108 0.2239731
-0.023158209 -0.020955496 0.22342968
-0.022560583 -0.02290434 0.22461171
-0.022805978 -0.025328344 0.22844204
-0.011919426 0.036751017 0.18743347
-0.011577583 0.034236226 0.18878733
-0.011368105 0.031742532 0.19035156
-0.010734416 0.028756132 0.19206259
-0.0093347756 0.024888258 0.19589086
-0.011466815 0.019704573 0.19785282
-0.014749809 0.016064862 0.19784661
-0.014130107 0.01235828 0.19975778
-0.014406626 0.0092198607 0.20249568
-0.014773626 0.0054624835 0.20527214
-0.014955414 -0.00091622566 0.21127152
-0.015068279 -0.0075003621 0.21795583
-0.014657859 -0.010472816 0.22080967
-0.014442316 -0.013180031 0.22348529
-0.015184913 -0.015453295 0.22459002
-0.01826225 -0.016806776 0.2239895
-0.019634506 -0.018572666 0.22396618
-0.020046566 -0.020695649 0.22440471
-0.020249514 -0.023001593 0.22649404
-0.020078814 -0.025247565 0.23005396
-0.0089688301 0.034443121 0.18953092
-0.0076961783 0.032046817 0.19134259
-0.0064768279 0.028830182 0.19430651
-0.0059106303 0.024492301 0.19779171
-0.0074686031 0.019335452 0.20070833
-0.010195704 0.015560194 0.20222856
-0.011114526 0.012557896 0.20389819
-0.011658858 0.0098361187 0.20535985
-0.012208058 0.0065353592 0.20709759
-0.012551514 0.00093543617 0.21168731
-0.010952483 -0.0065769353 0.21907169
-0.010432954 -0.009520662 0.22196223
-0.010494822 -0.012368854 0.22427943
-0.010981519 -0.014621094 0.22576663
-0.012852914 -0.016278954 0.22573908
-0.01497266 -0.01813855 0.22635774
-0.016394988 -0.020890659 0.22735126
-0.017610917 -0.024493368 0.23068024
-0.0032124163 0.030479569 0.19494373
-0.0028822322 0.027058642 0.19745423
-0.003657029 0.022791658 0.2001045
-0.0048543802 0.020179739 0.20179017
-0.0066623557 0.015758744 0.20414968
-0.0077156927 0.012711917 0.2062674
-0.0083236368 0.0098806452 0.20799062
-0.0088004451 0.0066691074 0.21046112
-0.010200194 0.0027398863 0.21234503
-0.0069937068 -0.0054237959 0.21993878
-0.0066555864 -0.0088248691 0.22321977
-0.0069118771 -0.011948308 0.22467352
-0.007774353 -0.014451234 0.22657481
-0.008613795 -0.016577754 0.22783914
-0.010465735 -0.018868145 0.22944014
-0.013169557 -0.02143937 0.23010775
-0.015436154 -0.023813663 0.23113163
-3.1638792e-05 0.025210751 0.19907238
-0.00069501821 0.021981718 0.20117556
-0.00031104722 0.019127278 0.20312312
-0.0021884984 0.016475275 0.20491098
-0.0033503869 0.012158696 0.2074426
-0.0033780737 0.0088636242 0.21008958
-0.0034950166 0.0059085609 0.21247846
-0.0030835704 -0.0037433302 0.22011881
-0.0029848912 -0.0083583556 0.22373141
-0.0034662592 -0.01197333 0.22529884
-0.0043585259 -0.014617043 0.22720085
-0.0055851289 -0.016794471 0.22865967
-0.0073591825 -0.018797699 0.23070134
0.0020556268 0.023582911 0.199881
0.0018462313 0.021330886 0.20123395
0.0018810818 0.018931717 0.20283037
0.0017691535 0.016020544 0.20542488
0.001253383 0.011813677 0.20818427
0.00090906327 0.0085102869 0.21077964
0.00078410195 0.0058736745 0.2130941
0.0001017405 0.0030542559 0.21565193
0.00050653523 -0.0015605374 0.21895839
7.7797573e-05 -0.0068867053 0.22267881
-0.00081782672 -0.011424997 0.22562532
0.0039441879 0.020547349 0.20124936
0.0051999013 0.018720238 0.20287561
0.0048978445 0.015509731 0.20601934
0.0042738519 0.011968954 0.20848005
0.0039558858 0.0090065608 0.21080261
0.0036659376 0.0069097336 0.21296462
0 0 0 1 0 0 0 1 0 0 0 1 0 0 0 0 0 348 1 0 0
