ply
format ascii 1.0
comment PCL generated
element vertex 346
property float x
property float y
property float z
element camera 1
property float view_px
property float view_py
property float view_pz
property float x_axisx
property float x_axisy
property float x_axisz
property float y_axisx
property float y_axisy
property float y_axisz
property float z_axisx
property float z_axisy
property float z_axisz
property float focal
property float scalex
property float scaley
property float centerx
property float centery
property int viewportx
property int viewporty
property float k1
property float k2
end_header
-0.058325212 0.019709779 0.19147058
-0.058986153 0.017036479 0.19284303
-0.055029053 0.024993494 0.18783249
-0.05555902 0.023010502 0.18907474
-0.056236781 0.020040542 0.19025148
-0.056903832 0.017060265 0.19189112
-0.057803411 0.013828048 0.19354303
-0.057909064 0.010683558 0.19538778
-0.057455949 0.0075691007 0.19693902
-0.053138267 0.027847741 0.18532553
-0.053222232 0.025831714 0.1859121
-0.053092014 0.023318298 0.18696171
-0.053121224 0.020542243 0.18803206
-0.053618561 0.017392427 0.18991064
-0.054988131 0.013735776 0.19222264
-0.055535659 0.010134954 0.19444942
-0.055853095 0.0062284726 0.19651468
-0.055501863 0.0022573562 0.19733952
-0.050080001 0.030400982 0.18285818
-0.050749455 0.029072752 0.18361256
-0.050781783 0.026587989 0.18434979
-0.050373916 0.023619499 0.18581143
-0.050837345 0.020745676 0.18758552
-0.05183186 0.016943108 0.18953371
-0.05295394 0.013462281 0.19150761
-0.053307183 0.0093685063 0.19357377
-0.05349303 0.0053046714 0.19475588
-0.053009916 8.9270907e-06 0.19420445
-0.052814443 -0.0046350318 0.19456723
-0.052859332 -0.0075365375 0.19569494
-0.048647087 0.030906007 0.18192542
-0.04832641 0.029195398 0.18247056
-0.048097771 0.026698735 0.18367976
-0.048251852 0.023758445 0.18594547
-0.048723828 0.020481551 0.18768756
-0.049437869 0.016666163 0.1891911
-0.050658923 0.012466044 0.19109182
-0.051529896 0.0086843008 0.19213831
-0.05147003 0.00258352 0.19135176
-0.050878782 -0.0026482525 0.18978675
-0.050709631 -0.0064801853 0.19082978
-0.050982449 -0.0098963818 0.19409463
-0.051420689 -0.010186766 0.19782329
-0.053050578 -0.0063667414 0.2033944
-0.052470796 -0.0037391572 0.21122126
-0.047115602 0.033623643 0.17990156
-0.046544589 0.031818662 0.18069728
-0.045975626 0.029993052 0.18162815
-0.045559093 0.027490593 0.18314607
-0.045693845 0.024148202 0.18565588
-0.045749594 0.020255977 0.18745022
-0.046406858 0.016108477 0.18871744
-0.047635518 0.011196482 0.18976474
-0.04946354 0.0063019744 0.18932617
-0.04907506 0.00031713615 0.18722351
-0.048443105 -0.0047745127 0.18582118
-0.047962472 -0.0084426319 0.18665333
-0.046437711 -0.010074096 0.19400854
-0.049708344 -0.0082309963 0.1991764
-0.050595336 -0.0048664352 0.20535965
-0.050478838 -0.0042834762 0.21150513
-0.049864355 -0.0058611329 0.21608189
-0.049701519 -0.010882241 0.22032355
-0.044853967 0.034680694 0.17867824
-0.043921832 0.032595675 0.18004774
-0.043282151 0.030787759 0.18130223
-0.043048691 0.028718131 0.18274014
-0.043051135 0.025850233 0.18496606
-0.042875726 0.019993147 0.18670969
-0.043931663 0.015076976 0.18796805
-0.04609064 0.0098243263 0.18814689
-0.046978306 0.0039908499 0.18531348
-0.045648426 -0.0020902767 0.18434815
-0.044476524 -0.006662902 0.1853556
-0.0431812 -0.0088076806 0.19012232
-0.043541674 -0.0073839561 0.19664226
-0.046116665 -0.0057579926 0.20233345
-0.046940789 -0.0040323189 0.20802811
-0.04695547 -0.0048831124 0.21249285
-0.046616774 -0.007629843 0.21667776
-0.048162375 -0.013784666 0.22086979
-0.048807316 -0.019827029 0.22386254
-0.047861136 -0.023782086 0.22525775
-0.042541489 0.039494347 0.17596835
-0.042081907 0.037655205 0.17689757
-0.04078785 0.036193714 0.17822336
-0.040429205 0.03263535 0.18083102
-0.040476799 0.029752674 0.18283044
-0.04019279 0.02664941 0.18530519
-0.04035569 0.020150954 0.1864876
-0.041643545 0.01392012 0.18713731
-0.043922864 0.0080165043 0.18527427
-0.044460125 0.0017891844 0.18271694
-0.042272184 -0.0041842465 0.18442391
-0.040619053 -0.0064655282 0.18777832
-0.040350176 -0.0057035065 0.19337419
-0.041565534 -0.0050241821 0.19823028
-0.042630486 -0.0040695313 0.20336777
-0.043708865 -0.0044859326 0.20901887
-0.043493107 -0.0066256323 0.21389891
-0.044022344 -0.010321955 0.21716893
-0.045119837 -0.01411826 0.2197168
-0.045424003 -0.018652027 0.22312993
-0.045286886 -0.023599604 0.22510429
-0.039129939 0.043390676 0.17310007
-0.037983954 0.042556025 0.17456155
-0.036897704 0.040714003 0.17698438
-0.03610732 0.03705148 0.17965548
-0.037097368 0.031209605 0.18292135
-0.036983892 0.027279999 0.18572654
-0.03758347 0.019750603 0.18660185
-0.038419701 0.013626467 0.1867049
-0.040280987 0.0082527241 0.18419303
-0.042286258 0.0002794929 0.18221529
-0.03954716 -0.0036091188 0.18558307
-0.038077224 -0.0038768228 0.18942022
-0.038187034 -0.0037675127 0.19333877
-0.038930833 -0.0034402963 0.19869591
-0.039404623 -0.0032011955 0.20626898
-0.040475611 -0.0058542616 0.2111391
-0.040730033 -0.0087628532 0.21485111
-0.041157864 -0.012060759 0.21723127
-0.041892838 -0.01535584 0.21947108
-0.041574363 -0.018732712 0.22229569
-0.041600846 -0.022650294 0.22511749
-0.041442253 -0.025838794 0.22615045
-0.034278467 0.045365859 0.17507316
-0.034031231 0.043869339 0.17554154
-0.033440083 0.041836586 0.17728007
-0.032724824 0.039156739 0.17963368
-0.033127062 0.033517022 0.18325219
-0.034363795 0.028259546 0.1857543
-0.035370853 0.0197719 0.1869165
-0.035462517 0.014488428 0.18692924
-0.037231136 0.0085066427 0.1847102
-0.04009556 0.00092226051 0.18198797
-0.037692193 -0.00089803961 0.18530396
-0.036498219 -0.0011129854 0.18952402
-0.036394421 -0.0014936184 0.19406943
-0.036920276 -0.0024882329 0.19912499
-0.036370013 -0.0038416872 0.20775676
-0.037498206 -0.0071339048 0.21248044
-0.038008794 -0.010263085 0.2153964
-0.038306776 -0.013449626 0.21833627
-0.0386477 -0.016490236 0.22040236
-0.038441252 -0.01885405 0.22260837
-0.037756052 -0.021657784 0.22464348
-0.037817828 -0.024881396 0.22648689
-0.031559043 0.046569221 0.17464948
-0.030958235 0.04518706 0.17556992
-0.030054759 0.042977475 0.17732991
-0.029292075 0.040656447 0.17971766
-0.029658353 0.036456298 0.18266918
-0.031259052 0.029613022 0.18603949
-0.033019837 0.020427894 0.18763418
-0.032839581 0.016080869 0.1876701
-0.033903688 0.011000187 0.18667613
-0.036993023 0.0046645943 0.18343067
-0.03558464 0.004057887 0.18528086
-0.034229346 0.0030485347 0.18834354
-0.033579245 0.0011841109 0.19270356
-0.033688556 -0.0009418808 0.196909
-0.033636641 -0.0051057748 0.20934899
-0.03438843 -0.0081703113 0.21319041
-0.03554187 -0.010563178 0.21610607
-0.034897387 -0.014290694 0.2200767
-0.035376932 -0.017014416 0.22176331
-0.035399124 -0.019075319 0.22325696
-0.035127711 -0.02195926 0.22427461
-0.0353738 -0.023802353 0.22510187
-0.03610979 -0.024755424 0.22626236
-0.027625399 0.046886671 0.17564322
-0.027225822 0.045443118 0.17663832
-0.026283506 0.043252248 0.17843525
-0.025867479 0.040614299 0.18026705
-0.026873128 0.037165411 0.182923
-0.028621862 0.030933073 0.18670827
-0.030411089 0.021215998 0.18878625
-0.030269967 0.017543793 0.18885747
-0.029849973 0.015633315 0.18902473
-0.032462005 0.011817966 0.18701354
-0.032232389 0.0097792735 0.1867789
-0.031483874 0.0068683848 0.18879455
-0.03044655 0.0044022608 0.19234152
-0.028967295 0.0019492534 0.19873196
-0.031299822 -0.0036254977 0.20760152
-0.032561768 -0.0078542354 0.21391474
-0.03196086 -0.012064368 0.21932384
-0.032403599 -0.015820216 0.22184061
-0.032867085 -0.018129205 0.22248989
-0.033509493 -0.020791583 0.22404036
-0.033284917 -0.022158943 0.22467965
-0.033592932 -0.023258977 0.22574231
-0.033303015 -0.024610505 0.22833139
-0.023132851 0.044708274 0.17837816
-0.022799397 0.043105636 0.17959309
-0.022982642 0.040711187 0.18088773
-0.023586398 0.038388092 0.18203475
-0.024778882 0.036121733 0.18415394
-0.025911503 0.030567136 0.18860021
-0.027128953 0.023518264 0.19095242
-0.027232835 0.020640399 0.19112708
-0.027558714 0.019199988 0.19105513
-0.026894331 0.019122023 0.19143417
-0.02665605 0.016665086 0.1912712
-0.026102709 0.01371371 0.19192576
-0.024671564 0.0091215614 0.19555323
-0.024205038 0.0031455271 0.20556915
-0.028041802 -0.0035269766 0.21127547
-0.030064324 -0.0078750961 0.21580121
-0.029713826 -0.011807096 0.2193128
-0.029706098 -0.015121152 0.22360399
-0.029685006 -0.017644189 0.22380774
-0.030115196 -0.019886704 0.22453831
-0.030511897 -0.020981012 0.22510509
-0.03040058 -0.022264225 0.2261454
-0.030131785 -0.024470897 0.22875968
-0.019648463 0.041095335 0.18159212
-0.020156633 0.039099667 0.18309875
-0.020786198 0.036638353 0.18421488
-0.021378113 0.034242649 0.18619414
-0.021056762 0.031019779 0.18969388
-0.020635206 0.026220029 0.19439366
-0.022318527 0.024401037 0.19368821
-0.024392707 0.022580862 0.19346754
-0.023127509 0.021200968 0.19582427
-0.022747807 0.018994067 0.1965151
-0.022196196 0.016233059 0.19691612
-0.020513045 0.0098034507 0.20101701
-0.02170435 0.0040808213 0.20760912
-0.024394935 -0.00099305285 0.21260495
-0.02653835 -0.0071429154 0.21793184
-0.026896935 -0.011316897 0.22134799
-0.027300594 -0.015060687 0.22431923
-0.027731888 -0.017520048 0.22468534
-0.027859557 -0.019209793 0.2251593
-0.027764652 -0.020038757 0.22484778
-0.02766335 -0.021700265 0.22557081
-0.027308963 -0.024404719 0.22925511
-0.017149076 0.038031168 0.18488325
-0.017263474 0.035885792 0.18604796
-0.017673332 0.033035778 0.18808164
-0.018051224 0.029529577 0.1912211
-0.014955739 0.026233284 0.19559392
-0.01690077 0.024759658 0.19689497
-0.019910287 0.022955151 0.19746852
-0.019481843 0.020485105 0.19912542
-0.019069081 0.018613288 0.19975434
-0.017972255 0.015503783 0.2009526
-0.017372215 0.0093413144 0.20521221
-0.018940965 0.00449279 0.21002451
-0.021286571 0.00045982079 0.2138982
-0.023509689 -0.006693311 0.21983978
-0.023673847 -0.01121138 0.22392164
-0.024414396 -0.01436409 0.22554132
-0.02509753 -0.017424364 0.22555944
-0.025131214 -0.019151082 0.22573371
-0.025300896 -0.02006831 0.22518536
-0.025105054 -0.021826789 0.22641379
-0.024210952 -0.024831982 0.23100317
-0.01415159 0.03526606 0.18737987
-0.014451733 0.032136377 0.18930152
-0.014044829 0.028979095 0.19186613
-0.01048199 0.026155328 0.19645205
-0.012153292 0.024336742 0.19916019
-0.015575944 0.022888446 0.19914252
-0.016164994 0.019803267 0.20080321
-0.014422223 0.016531428 0.20300674
-0.013294916 0.012882509 0.20545623
-0.014076394 0.009568763 0.20796761
-0.015603185 0.0054382645 0.21128862
-0.017289817 0.0015458533 0.21589302
-0.02034343 -0.0066669662 0.22237666
-0.020446667 -0.010676188 0.22515899
-0.021355674 -0.013752983 0.22622646
-0.022719886 -0.016091425 0.22605017
-0.022926886 -0.018369945 0.22608948
-0.022571951 -0.020173602 0.2262616
-0.021216858 -0.023171647 0.22965251
-0.02001363 -0.027483419 0.23502016
-0.010883491 0.031522442 0.19044432
-0.0083276136 0.029472362 0.19356926
-0.0064385654 0.026280742 0.19852835
-0.007174171 0.023717873 0.20146786
-0.010555773 0.022516401 0.20151316
-0.01275063 0.02004634 0.20226121
-0.011164077 0.016239148 0.20532341
-0.01084197 0.012642517 0.20779443
-0.011270316 0.0097660432 0.20944436
-0.01259935 0.0064958273 0.21215524
-0.013479034 0.0012479358 0.21852712
-0.015264128 -0.005060608 0.22341882
-0.016856821 -0.0088970391 0.22477891
-0.017099559 -0.012706266 0.22614269
-0.019530723 -0.01451562 0.22620435
-0.020074248 -0.017456923 0.2269479
-0.019458581 -0.02051666 0.22792423
-0.01655082 -0.024594419 0.23290181
-0.0040434962 0.028647663 0.19703928
-0.0020392004 0.026090778 0.19987313
-0.0014782745 0.023794413 0.20162524
-0.0034282042 0.021710329 0.20338833
-0.0075322399 0.020180255 0.2043418
-0.0085819745 0.016805511 0.20706151
-0.008459256 0.012759324 0.20924129
-0.0088875936 0.010090772 0.21088508
-0.0097665293 0.0063481317 0.21457554
-0.0095397513 0.0002655315 0.22079886
-0.010791714 -0.0053652204 0.22356804
-0.011920645 -0.0084834974 0.2240867
-0.012348994 -0.012193173 0.225438
-0.013606196 -0.015089386 0.22626765
-0.015821835 -0.017132159 0.22733811
-0.016447403 -0.020281585 0.22933343
-0.014474656 -0.023445882 0.2323079
0.00013020755 0.027334165 0.19913919
0.0019975649 0.025595844 0.20005532
0.0025424946 0.023306245 0.20159967
0.0014808149 0.021261616 0.20333067
0.00034658349 0.019406835 0.2053218
-0.0011460022 0.017188631 0.20755079
-0.0043297876 0.013229309 0.21042371
-0.004836272 0.0085534481 0.21376404
-0.004720361 0.0043227514 0.21757111
-0.0048601353 -0.00043432773 0.22128545
-0.0065461355 -0.0052635665 0.22338076
-0.0072942469 -0.0086118057 0.22394569
-0.0077921283 -0.011863413 0.22532779
-0.009155185 -0.014769827 0.22643675
0.0047219624 0.02444488 0.200426
0.0052994983 0.022659954 0.20147106
0.0045455233 0.0208763 0.20288615
0.0042692274 0.019135151 0.20491183
0.0040113293 0.017197689 0.20727219
0.0031080123 0.012772765 0.21063165
0.0017150997 0.0070816232 0.21425524
0.00022166976 0.0033484052 0.21795002
-0.0010406143 -0.00059096672 0.22074172
-0.0028810771 -0.0051117004 0.22238936
-0.0042401846 -0.008524823 0.22384298
0.007665066 0.022216994 0.20175241
0.0075344048 0.020637801 0.20294178
0.0073228735 0.018900221 0.20487984
0.0070341248 0.016706614 0.20759286
0.0057852035 0.013121 0.2107619
0.0048449812 0.00906312 0.21238431
0 0 0 1 0 0 0 1 0 0 0 1 0 0 0 0 0 346 1 0 0
