ply
format ascii 1.0
comment PCL generated
element vertex 346
property float x
property float y
property float z
element camera 1
property float view_px
property float view_py
property float view_pz
property float x_axisx
property float x_axisy
property float x_axisz
property float y_axisx
property float y_axisy
property float y_axisz
property float z_axisx
property float z_axisy
property float z_axisz
property float focal
property float scalex
property float scaley
property float centerx
property float centery
property int viewportx
property int viewporty
property float k1
property float k2
end_header
-0.057404164 0.02000474 0.19048102
-0.057696696 0.016862778 0.1919836
-0.054369569 0.025850736 0.18564004
-0.055120319 0.02368322 0.18734227
-0.055469856 0.020468622 0.18897147
-0.055704977 0.016903518 0.19077793
-0.056078888 0.012999882 0.19253394
-0.055656478 0.009246164 0.19489284
-0.054753758 0.0060371556 0.19740959
-0.051481448 0.028913137 0.18295512
-0.051860068 0.026804674 0.18367428
-0.052164122 0.024104722 0.18504149
-0.052318964 0.02120403 0.18675312
-0.052519791 0.017666889 0.18889435
-0.05326657 0.013062348 0.19100648
-0.053167704 0.0088634891 0.19383039
-0.052773844 0.005016203 0.19764896
-0.051243074 0.00095893565 0.20007178
-0.048016585 0.031968608 0.18054113
-0.048707787 0.030189535 0.18129508
-0.048990134 0.027560635 0.1821488
-0.04900609 0.024511263 0.18375461
-0.049739134 0.02163698 0.1863486
-0.050401621 0.017144853 0.1884037
-0.051028542 0.013040341 0.19038358
-0.050441921 0.0083048316 0.19365187
-0.04979571 0.0044226004 0.19696137
-0.047080088 -0.0024741872 0.19797954
-0.04663121 -0.0079590585 0.1974403
-0.046758763 -0.011338281 0.19736245
-0.046109501 0.032791745 0.17959157
-0.045890395 0.030680649 0.18048422
-0.04595986 0.027785024 0.18167101
-0.046581507 0.024660381 0.18418889
-0.047348544 0.021421717 0.18655249
-0.047968455 0.016932771 0.18780971
-0.048543364 0.012462595 0.18979526
-0.048118573 0.0079233488 0.19288832
-0.04559822 0.00089835352 0.19576907
-0.044081368 -0.0049977889 0.19461711
-0.043994572 -0.0090626162 0.19467382
-0.044411782 -0.013340373 0.19546391
-0.044967603 -0.015703188 0.19663884
-0.047692031 -0.014859919 0.20073444
-0.047946926 -0.014581042 0.20559761
-0.043782622 0.035941817 0.17751108
-0.043562006 0.034053251 0.17882738
-0.043168887 0.031971786 0.18025565
-0.043068521 0.029198814 0.18200773
-0.043791421 0.024965903 0.18433674
-0.044229705 0.021158284 0.18630317
-0.045018829 0.016590601 0.18708465
-0.045489516 0.011737016 0.18881732
-0.04498399 0.0060675466 0.19277225
-0.042125389 -0.0015367062 0.19351457
-0.0413086 -0.0065763718 0.19180985
-0.040877506 -0.010214108 0.19149813
-0.039431211 -0.013770195 0.19363704
-0.043257948 -0.014806319 0.19734119
-0.045227114 -0.014516952 0.20137314
-0.045969065 -0.014970295 0.20561524
-0.046238948 -0.0159401 0.20963985
-0.046456829 -0.016977543 0.21456832
-0.04132206 0.037240393 0.17695312
-0.040703617 0.035179757 0.17899485
-0.040266268 0.033071104 0.18049563
-0.040087137 0.030453512 0.18202285
-0.040335111 0.026843349 0.18380569
-0.040439647 0.021271948 0.1851234
-0.041743461 0.016057067 0.18644585
-0.043004904 0.010363744 0.18907666
-0.041677065 0.0037653174 0.19219258
-0.038821097 -0.0029805962 0.19097909
-0.03792166 -0.0076445132 0.1900419
-0.036400888 -0.01076963 0.19156997
-0.036602095 -0.012526462 0.19512784
-0.039379824 -0.014660482 0.19864193
-0.041748852 -0.014369323 0.20270272
-0.04237463 -0.014985248 0.20677744
-0.042879224 -0.016387174 0.21024659
-0.044322256 -0.018444508 0.21527518
-0.045205072 -0.021931102 0.21954133
-0.044987716 -0.024847798 0.22281137
-0.038936198 0.040542398 0.17553063
-0.038587343 0.039114989 0.17662477
-0.037624739 0.037514899 0.17855173
-0.03722598 0.034464817 0.18055312
-0.037276041 0.030995268 0.18210065
-0.037071202 0.027103662 0.18371825
-0.037038498 0.02102318 0.18419355
-0.038476914 0.014662946 0.18599664
-0.039899305 0.0083464785 0.18940164
-0.038447473 0.0014457864 0.19059718
-0.036228236 -0.0040836409 0.18944639
-0.034598786 -0.0072306669 0.19028077
-0.033658747 -0.0089832814 0.19369167
-0.034338675 -0.010942702 0.19713292
-0.03602184 -0.013442492 0.20022058
-0.038237937 -0.014560567 0.20351991
-0.039172668 -0.015508569 0.20778544
-0.040016748 -0.017364496 0.21117182
-0.04110698 -0.019012341 0.2148726
-0.041115843 -0.0218936 0.21815446
-0.04225684 -0.025107833 0.22276735
-0.035777289 0.043206427 0.17440727
-0.034977272 0.042189036 0.17592366
-0.034216769 0.040304095 0.17844741
-0.033790998 0.037316442 0.18044232
-0.034094565 0.032111604 0.18207727
-0.033870786 0.02738094 0.18385996
-0.034194604 0.020040255 0.18435109
-0.035286859 0.014373046 0.18574204
-0.036186397 0.0085383253 0.18873011
-0.036321659 0.00093099411 0.18992341
-0.033886224 -0.0030379803 0.18982302
-0.032077663 -0.0052776807 0.1918083
-0.031509351 -0.0069529493 0.19470248
-0.031934004 -0.0093899639 0.19867773
-0.03301822 -0.012202171 0.20255621
-0.034785088 -0.014456708 0.20534845
-0.036136486 -0.016010718 0.20933501
-0.0370862 -0.017813008 0.2124074
-0.037811577 -0.019971205 0.21513592
-0.037503269 -0.0222959 0.21811688
-0.038286958 -0.024497757 0.22251832
-0.038660437 -0.026805596 0.225061
-0.031548645 0.044845551 0.17661296
-0.031366572 0.043274585 0.17707911
-0.031016301 0.041105028 0.17882997
-0.030675516 0.038550477 0.18086897
-0.030783318 0.034310531 0.18282631
-0.031104064 0.028358908 0.18391263
-0.031856358 0.019693831 0.18488106
-0.032312594 0.014898406 0.18573032
-0.033098515 0.0090050213 0.18830238
-0.034565751 0.0023780363 0.1897296
-0.032162994 -2.1121208e-05 0.19092008
-0.030162608 -0.0026203273 0.19354858
-0.029983342 -0.004613332 0.19613956
-0.030128885 -0.0077016884 0.1994632
-0.03034584 -0.010937909 0.20419089
-0.032130979 -0.013453042 0.20759344
-0.033307489 -0.015835164 0.21076965
-0.034174971 -0.017820321 0.21367538
-0.034630928 -0.020084111 0.21626385
-0.034782931 -0.021566967 0.21928228
-0.034597721 -0.023247251 0.22252294
-0.035358731 -0.026127823 0.22587048
-0.028799748 0.04567061 0.17630315
-0.02838761 0.044103339 0.1771636
-0.027837906 0.041769497 0.17883815
-0.027477957 0.039274596 0.18100823
-0.027673388 0.035997674 0.18315284
-0.028357552 0.029396256 0.18447942
-0.029297726 0.01995481 0.18569431
-0.02957198 0.015752738 0.18636027
-0.029857488 0.01101002 0.18803342
-0.03187022 0.0055882907 0.18948616
-0.030413505 0.004269145 0.19053219
-0.028767535 0.0021646211 0.1924931
-0.027580068 -0.0010666003 0.19548909
-0.027688086 -0.0038133301 0.1980705
-0.02800318 -0.0097648818 0.20582819
-0.029014321 -0.011944847 0.20927709
-0.031023476 -0.014755851 0.212174
-0.030906128 -0.017192382 0.21535289
-0.031428572 -0.019538058 0.21782206
-0.031904243 -0.021011883 0.2203588
-0.032253738 -0.023407249 0.22291645
-0.032738175 -0.025328744 0.22447729
-0.033917237 -0.026300456 0.22642298
-0.025353158 0.045887567 0.17703606
-0.025168927 0.044358846 0.17796274
-0.02465914 0.042084161 0.17948785
-0.024395043 0.039355997 0.18112476
-0.025035074 0.036273949 0.18359619
-0.025715761 0.030186206 0.1853411
-0.026394395 0.020523265 0.18701003
-0.026463307 0.016718566 0.18828857
-0.026146427 0.014202278 0.1897503
-0.027580088 0.011248978 0.18962885
-0.027095642 0.0088682855 0.19082643
-0.026202438 0.0055295755 0.19264477
-0.024631923 0.0021757637 0.19535041
-0.02363837 -0.0016232609 0.19916756
-0.025214477 -0.0064994805 0.20461638
-0.027081752 -0.0096716881 0.20988907
-0.027563863 -0.013505221 0.21428145
-0.027872501 -0.017566752 0.21736409
-0.028821474 -0.02012868 0.21937962
-0.030186204 -0.022503316 0.22223932
-0.030471835 -0.02408018 0.22352546
-0.030858884 -0.02508262 0.22536372
-0.031337854 -0.026304793 0.22876419
-0.021910874 0.044445895 0.17903236
-0.021718727 0.042996697 0.18020098
-0.021775695 0.040471017 0.18151928
-0.022160549 0.038050964 0.18257999
-0.022931933 0.035532221 0.18460387
-0.023134097 0.029889889 0.1873008
-0.022920039 0.022282995 0.18924448
-0.022411382 0.018451512 0.19119035
-0.022728311 0.016711107 0.19215262
-0.021937579 0.015654035 0.19286318
-0.022169458 0.012294824 0.19353555
-0.022145914 0.0090321405 0.19459179
-0.02126334 0.0046570543 0.19688287
-0.020274848 -0.0010876396 0.20169391
-0.022339649 -0.0053429869 0.20598423
-0.023586005 -0.0080394763 0.21037839
-0.024232274 -0.010578481 0.21443522
-0.025219608 -0.014602508 0.21951547
-0.025543233 -0.018955162 0.22101469
-0.026514659 -0.021648737 0.2233531
-0.026971279 -0.022766991 0.22445649
-0.027330505 -0.024345152 0.22597352
-0.027646355 -0.026549302 0.22955433
-0.018892523 0.041943483 0.18173684
-0.019234147 0.039767809 0.18339713
-0.019577337 0.037125602 0.18451165
-0.019850276 0.034575179 0.18644591
-0.019481553 0.031250514 0.18940802
-0.01816112 0.025415581 0.19219477
-0.017140582 0.020294763 0.19278486
-0.018816682 0.017702954 0.1936886
-0.018238997 0.015325622 0.19556102
-0.018423958 0.012682352 0.19635531
-0.018486109 0.0094207581 0.19717738
-0.018058864 0.0048964643 0.20017101
-0.018002955 -8.1886079e-05 0.20411952
-0.019277712 -0.0039246064 0.20776081
-0.020524507 -0.0069303778 0.21267745
-0.021262135 -0.0097436272 0.21693534
-0.02238936 -0.013103772 0.22068645
-0.023182223 -0.01701533 0.22221343
-0.023594948 -0.020575821 0.2239881
-0.023684375 -0.022051772 0.22423938
-0.023877721 -0.024331514 0.22543237
-0.024093073 -0.026987508 0.23055737
-0.015994806 0.039083216 0.18469499
-0.01597207 0.036849149 0.18599558
-0.016133077 0.033994582 0.18804987
-0.016161233 0.030340103 0.19043857
-0.013336685 0.026088618 0.19353607
-0.013976795 0.021440709 0.19523735
-0.015577159 0.017558075 0.19579622
-0.0156707 0.014957191 0.19771683
-0.015516235 0.01274998 0.1984622
-0.015336783 0.0095963795 0.20015657
-0.015463434 0.0052718106 0.2036823
-0.015560676 0.00095261965 0.20688166
-0.016651502 -0.0026373055 0.20968795
-0.017517095 -0.0060497974 0.21514998
-0.018074952 -0.009374015 0.21961603
-0.018975163 -0.012630696 0.22218217
-0.019939814 -0.016532212 0.22346763
-0.019920398 -0.019741828 0.22427647
-0.020092249 -0.021922842 0.22447811
-0.020727443 -0.024729483 0.22740997
-0.020512749 -0.027333442 0.23261355
-0.012840062 0.036392763 0.1872917
-0.012802438 0.033689622 0.18942755
-0.012250877 0.030347079 0.1914465
-0.0094790384 0.026593935 0.19459555
-0.010587418 0.022320628 0.19730727
-0.012546702 0.018957289 0.19782944
-0.013088263 0.015424485 0.19981751
-0.012805012 0.01257255 0.20208965
-0.012642493 0.0092097586 0.20437725
-0.012672158 0.0059544463 0.20645484
-0.013046347 0.0025571855 0.20909336
-0.01396154 -0.0012354376 0.21255587
-0.014269833 -0.005227353 0.21741891
-0.014813554 -0.0086834654 0.22112428
-0.015414642 -0.012087894 0.22332552
-0.016726477 -0.015438724 0.22428843
-0.016655894 -0.018506436 0.22495343
-0.016639188 -0.021572072 0.22609675
-0.016515935 -0.025047354 0.2304313
-0.015978232 -0.028286522 0.23542637
-0.0096323965 0.033190787 0.19072799
-0.0075452169 0.030533826 0.19330256
-0.0063344957 0.026976541 0.19702218
-0.0067018466 0.02337669 0.19973682
-0.0087881284 0.020197686 0.20067148
-0.010622689 0.016545061 0.20227863
-0.010576188 0.013023638 0.20457028
-0.0098528722 0.0094993915 0.20596096
-0.0096907057 0.0068765329 0.20741282
-0.010445747 0.0043189405 0.21051426
-0.010367253 0.00059330702 0.21499676
-0.01067862 -0.0032946239 0.21890512
-0.011563713 -0.0064296476 0.22178499
-0.011439547 -0.010064739 0.223986
-0.012748966 -0.013584501 0.22458981
-0.013180621 -0.017461279 0.22655103
-0.012933731 -0.02136616 0.22849081
-0.011874286 -0.025470927 0.23366517
-0.004159688 0.029851684 0.19689925
-0.0028869316 0.026719518 0.19923411
-0.002548977 0.023495266 0.20021252
-0.0038809923 0.020350702 0.20169076
-0.0063323262 0.017539017 0.20361742
-0.0075252177 0.013601521 0.20561363
-0.007055237 0.010231541 0.20678747
-0.0069220578 0.0078161983 0.20851898
-0.0073764124 0.0054063089 0.21242073
-0.0067507434 0.0014059381 0.21658207
-0.0072239116 -0.002594525 0.2207765
-0.0075605344 -0.005745017 0.22207581
-0.0078607472 -0.009178401 0.22464278
-0.0082204808 -0.012582041 0.22584945
-0.0091066398 -0.016163135 0.22811067
-0.0097841648 -0.020732764 0.22958399
-0.0094333068 -0.024057528 0.23285075
-0.00068412756 0.028474903 0.19878368
0.00072951277 0.025864681 0.19831418
0.00087525533 0.022452207 0.19861689
-9.8528881e-06 0.019629613 0.20016225
-0.00095834851 0.017114172 0.20216624
-0.001501517 0.014781054 0.20447277
-0.0029659078 0.011297094 0.20719437
-0.0032355301 0.008494366 0.21037921
-0.0031933705 0.0056498544 0.21415143
-0.0027956176 0.0021904227 0.21741404
-0.0035503129 -0.0018576924 0.22144434
-0.0038096174 -0.0052797869 0.22260225
-0.0039427788 -0.0088212322 0.22452973
-0.0048871669 -0.012169888 0.22605078
0.003090787 0.024142729 0.19698639
0.0033326645 0.021663304 0.19722395
0.0027961654 0.019188544 0.19855173
0.0027915866 0.016991118 0.20069996
0.0032146818 0.014943289 0.20356151
0.0026412469 0.012335017 0.20716774
0.0017512838 0.0086549539 0.21035288
0.00089606969 0.0057379897 0.21435061
0.0005643802 0.0025221589 0.21760412
-0.00018372588 -0.0012502372 0.22081247
-0.001344692 -0.0048556612 0.2231393
0.0058465074 0.021055428 0.1968262
0.0057586478 0.018982576 0.19782329
0.006017359 0.016756566 0.19982553
0.0062084314 0.01471472 0.20310302
0.0054842075 0.012633108 0.20694809
0.0046934164 0.010276945 0.20913389
0 0 0 1 0 0 0 1 0 0 0 1 0 0 0 0 0 346 1 0 0
