ply
format ascii 1.0
comment PCL generated
element vertex 346
property float x
property float y
property float z
element camera 1
property float view_px
property float view_py
property float view_pz
property float x_axisx
property float x_axisy
property float x_axisz
property float y_axisx
property float y_axisy
property float y_axisz
property float z_axisx
property float z_axisy
property float z_axisz
property float focal
property float scalex
property float scaley
property float centerx
property float centery
property int viewportx
property int viewporty
property float k1
property float k2
end_header
-0.056344654 0.019278437 0.1890028
-0.056648318 0.016185099 0.19055082
-0.05369005 0.024867043 0.18385413
-0.054225538 0.022751573 0.18568499
-0.054664031 0.019624112 0.18722852
-0.054893475 0.016120577 0.18905044
-0.055187855 0.012526557 0.19093183
-0.054752734 0.0087804301 0.19300336
-0.053944986 0.0052755559 0.19486168
-0.051369805 0.02767856 0.18088076
-0.051546745 0.025688246 0.18165037
-0.051658083 0.023125976 0.1829938
-0.051791772 0.020114455 0.18438251
-0.051940329 0.016739082 0.18645406
-0.052663732 0.012359728 0.1889777
-0.052478082 0.0082583418 0.19159877
-0.052108131 0.0041409442 0.19473638
-0.050610401 -0.00010712878 0.19652131
-0.048107971 0.030856952 0.17871666
-0.048698924 0.029088674 0.17931916
-0.048811853 0.02647656 0.18005827
-0.048720427 0.023393868 0.18132043
-0.04925561 0.020382613 0.1833805
-0.049862824 0.016154779 0.18577352
-0.050480764 0.012307187 0.18804735
-0.049869861 0.0076352372 0.19092421
-0.049213164 0.0034372597 0.1936457
-0.046866488 -0.0031203178 0.19379874
-0.046645686 -0.0084804511 0.1929834
-0.046930324 -0.011757457 0.19307458
-0.046288803 0.031903118 0.17808282
-0.045967892 0.029757999 0.1786778
-0.045853984 0.026750123 0.17952445
-0.046236228 0.023431934 0.18144098
-0.046818081 0.020062553 0.18330793
-0.047379095 0.015926924 0.18491536
-0.047888774 0.011722411 0.18733574
-0.047582161 0.0071438802 0.1900626
-0.045317475 9.8698096e-05 0.19167918
-0.044244297 -0.0055895871 0.18965819
-0.044357784 -0.0096111009 0.1895016
-0.044939894 -0.013875956 0.1908517
-0.04560012 -0.01604097 0.19304575
-0.047793183 -0.014420337 0.19807619
-0.047559224 -0.012942614 0.2036262
-0.044191007 0.035369582 0.17686766
-0.043883946 0.033359889 0.17780106
-0.04339825 0.031246329 0.17888105
-0.04314151 0.028319992 0.18016963
-0.043450154 0.023830745 0.18151234
-0.043664407 0.019890135 0.18298157
-0.044325925 0.015612513 0.18403164
-0.04474869 0.011063925 0.18626864
-0.044390526 0.0052774879 0.18926303
-0.042113364 -0.0021429327 0.18853474
-0.041763224 -0.0068989014 0.18604901
-0.041486617 -0.010691049 0.18556723
-0.040158384 -0.014723462 0.18880768
-0.043796204 -0.015205227 0.19387433
-0.045323435 -0.01406739 0.19890159
-0.045686353 -0.01346887 0.2036729
-0.045563899 -0.013541 0.20806758
-0.045050941 -0.01339423 0.21379101
-0.041765209 0.036905445 0.17661931
-0.041072074 0.034699451 0.17828196
-0.040548023 0.032572079 0.17948402
-0.040198971 0.029928729 0.18058455
-0.040129732 0.02613879 0.18172884
-0.03980336 0.020451218 0.18265262
-0.04094319 0.015477158 0.18381791
-0.042360783 0.0098770559 0.18599105
-0.041220777 0.0029721044 0.18753073
-0.038988054 -0.0035619407 0.18539171
-0.038307909 -0.0082980609 0.18398677
-0.036767982 -0.011954442 0.18593884
-0.037080154 -0.013669042 0.19045427
-0.039948452 -0.015127492 0.19539784
-0.041810546 -0.013969699 0.20025015
-0.042043138 -0.013782939 0.20461929
-0.042322569 -0.014440591 0.20849316
-0.043199066 -0.015096094 0.21471056
-0.044236585 -0.019222088 0.21918507
-0.043897837 -0.022382447 0.22230247
-0.039496534 0.040739078 0.17577247
-0.03909792 0.039138656 0.17654684
-0.038053311 0.037429608 0.17820874
-0.037549153 0.034458261 0.1800006
-0.037352957 0.030875085 0.1810454
-0.036769725 0.02687723 0.18200502
-0.036279712 0.020734875 0.18234098
-0.037748314 0.014386318 0.18355192
-0.039424289 0.0078166425 0.18536697
-0.038270399 0.00070736033 0.18512785
-0.036404416 -0.0050767511 0.18348171
-0.034672976 -0.0085145226 0.18427353
-0.033693694 -0.010361538 0.18803647
-0.034536157 -0.012127759 0.19222775
-0.036428392 -0.014070532 0.1963736
-0.038439211 -0.014453519 0.20073807
-0.038955111 -0.014682616 0.20544189
-0.039712422 -0.015754936 0.20941971
-0.040325765 -0.016402943 0.21374191
-0.040531881 -0.019379828 0.21732599
-0.04131569 -0.02285219 0.2218169
-0.036527928 0.043902889 0.17489307
-0.035592612 0.042688914 0.17617279
-0.034635309 0.040430382 0.17830852
-0.03407082 0.037253208 0.1799392
-0.034312632 0.032256667 0.1813594
-0.033653941 0.027445419 0.18252231
-0.033393208 0.019909211 0.18237756
-0.034488741 0.01410131 0.1830581
-0.035746329 0.0080322791 0.18424228
-0.036222413 -9.8075776e-05 0.18395643
-0.033917647 -0.0045192013 0.18358135
-0.03193621 -0.0068058674 0.18559197
-0.031263001 -0.0084933201 0.18872201
-0.031831555 -0.010721667 0.19333249
-0.03318407 -0.013233957 0.19825542
-0.035014119 -0.014898229 0.20207749
-0.036016457 -0.015718181 0.20670623
-0.036831468 -0.01691623 0.21026044
-0.037488043 -0.018207379 0.21351647
-0.03718726 -0.020456709 0.2166324
-0.037406381 -0.022729695 0.22094537
-0.037688494 -0.025145093 0.22355402
-0.032120042 0.045303747 0.17708279
-0.031870555 0.043696001 0.17730153
-0.031384144 0.041323718 0.17865685
-0.030860534 0.03851676 0.18028341
-0.031037271 0.03413875 0.18184194
-0.031108329 0.028381491 0.1827269
-0.03110848 0.019628 0.1826086
-0.031504992 0.01468433 0.18281607
-0.032585476 0.008416893 0.18358988
-0.034281265 0.00099221815 0.18322992
-0.03177062 -0.0016595412 0.18411201
-0.029720347 -0.004331925 0.18677711
-0.029367717 -0.0063098264 0.18980691
-0.029764036 -0.0091966521 0.19373801
-0.030183261 -0.012709454 0.19930434
-0.031885505 -0.014753959 0.20362385
-0.033074655 -0.016263608 0.20748185
-0.033796102 -0.01782497 0.21099012
-0.034282736 -0.019318378 0.21400461
-0.034130041 -0.020419953 0.2171575
-0.033614576 -0.022150833 0.2201488
-0.034203373 -0.024932401 0.22364016
-0.029371973 0.046341315 0.17673652
-0.028856836 0.044684209 0.17732179
-0.028107086 0.042121388 0.17851323
-0.027522618 0.039355963 0.18015715
-0.027713217 0.035828948 0.18191145
-0.028348304 0.029295124 0.18295315
-0.028620018 0.01990563 0.18315154
-0.028762057 0.015587379 0.18320672
-0.029186327 0.010553095 0.18373005
-0.03129667 0.0042872648 0.18310936
-0.029617025 0.0030111109 0.18392202
-0.027845584 0.00086368719 0.18564987
-0.026615972 -0.0026548204 0.18859014
-0.026899993 -0.0056659477 0.19178642
-0.027217705 -0.01221891 0.20052475
-0.028106235 -0.014306261 0.20437261
-0.030309735 -0.016007688 0.20826823
-0.030165659 -0.018291097 0.21178821
-0.030814553 -0.019704908 0.21477765
-0.031031655 -0.020496976 0.21735533
-0.031098288 -0.022430766 0.22005858
-0.031572077 -0.024258655 0.22172277
-0.032581445 -0.025179595 0.22356555
-0.025757229 0.046481613 0.17716257
-0.025460115 0.044829238 0.17777862
-0.024759486 0.042347193 0.17881134
-0.024346583 0.039415363 0.17989856
-0.024933739 0.036000539 0.1819936
-0.02561206 0.029949619 0.18348366
-0.025715204 0.020342408 0.18417792
-0.025649693 0.016418055 0.18466434
-0.02524839 0.013780677 0.1853306
-0.027032459 0.010600008 0.18454668
-0.026487434 0.0081247007 0.18523325
-0.025424862 0.0046105133 0.18656118
-0.023782227 0.00105774 0.18892021
-0.022644509 -0.003134059 0.1933022
-0.024158193 -0.0081336265 0.1995029
-0.025279412 -0.012303709 0.20445244
-0.026269156 -0.016104436 0.20925897
-0.027269172 -0.019194145 0.21297051
-0.028185811 -0.02075005 0.21556343
-0.029155554 -0.0219923 0.21882625
-0.029390128 -0.02326422 0.22032523
-0.029593885 -0.024250638 0.22206487
-0.02975535 -0.025637073 0.22514084
-0.022121068 0.044758942 0.17881568
-0.021836122 0.043165363 0.17970629
-0.021818019 0.040515885 0.18049385
-0.022093931 0.037924442 0.18102509
-0.022732534 0.035033945 0.18246752
-0.022570966 0.029332558 0.18496005
-0.022017095 0.021894392 0.18626733
-0.021631267 0.018032646 0.18707858
-0.021920202 0.016290767 0.18758224
-0.021192541 0.015361422 0.18813391
-0.021280343 0.01203249 0.18842331
-0.021059295 0.0086617321 0.18911754
-0.020155543 0.0039208569 0.19153276
-0.018557515 -0.0024115217 0.19718479
-0.020352112 -0.0071473001 0.20126386
-0.021437773 -0.010440261 0.20526269
-0.022022614 -0.013439975 0.20867501
-0.023728402 -0.016575076 0.21354783
-0.02449432 -0.01988082 0.21581449
-0.02542969 -0.021545352 0.21887612
-0.025940554 -0.022383831 0.22031207
-0.02624999 -0.023749579 0.22195292
-0.026365763 -0.025718737 0.2255806
-0.019020468 0.042031627 0.18127103
-0.019211521 0.039524633 0.18238632
-0.019385276 0.036661223 0.18274151
-0.01938905 0.033737574 0.18405408
-0.018655058 0.030266313 0.18697031
-0.017151225 0.024669234 0.18981569
-0.016846394 0.020131776 0.18909045
-0.018271429 0.017392851 0.18929324
-0.017473852 0.014863169 0.19084989
-0.01748324 0.012208819 0.19140525
-0.017387662 0.0089303609 0.19204293
-0.016918506 0.0040873108 0.19545151
-0.016109781 -0.0014552516 0.19962277
-0.016935755 -0.0057746633 0.20310907
-0.018155791 -0.009611655 0.20720305
-0.019087162 -0.012519695 0.21094689
-0.020647211 -0.01505927 0.21468849
-0.021803837 -0.017892476 0.21613584
-0.022638639 -0.020501155 0.21882279
-0.022797374 -0.021781262 0.21951029
-0.023186184 -0.023733282 0.22118787
-0.023306899 -0.025888521 0.22643635
-0.015885796 0.038685348 0.18365237
-0.015629791 0.036263384 0.18441309
-0.015483017 0.033190802 0.18601811
-0.015262039 0.029524947 0.1882847
-0.012033348 0.025251601 0.19096084
-0.013002542 0.020680835 0.19120374
-0.014883111 0.01698865 0.19125463
-0.014638424 0.014253974 0.19287474
-0.014402919 0.012001866 0.19350977
-0.014155248 0.0088372845 0.19517593
-0.014095245 0.0044064261 0.19924292
-0.01348092 -0.00044897111 0.20241879
-0.014136759 -0.0044948529 0.2049434
-0.015050459 -0.0090330476 0.20929962
-0.015995452 -0.012029453 0.21378647
-0.017270364 -0.014457917 0.21621782
-0.018621299 -0.017276837 0.2172994
-0.018965473 -0.019755634 0.21889193
-0.019657547 -0.021457516 0.2199073
-0.020429505 -0.023711899 0.22338073
-0.020375898 -0.025784992 0.22888257
-0.012435555 0.035814364 0.18581748
-0.012093521 0.032901924 0.18742716
-0.011333267 0.029601377 0.18939066
-0.0082190428 0.025892511 0.19228482
-0.0090531167 0.02128003 0.19320187
-0.011408126 0.018104294 0.192992
-0.011657811 0.014430864 0.19453579
-0.010877023 0.011337022 0.19641913
-0.010689284 0.0081225224 0.19915284
-0.011015126 0.0052606878 0.20208119
-0.011163956 0.0013426591 0.20467012
-0.011403156 -0.003048508 0.20784849
-0.011924637 -0.0083697513 0.21155584
-0.012851574 -0.011472469 0.21539032
-0.0139844 -0.013975312 0.21758822
-0.015545863 -0.016264599 0.21833338
-0.016039098 -0.018721318 0.21975952
-0.016495211 -0.021099746 0.22180992
-0.016784264 -0.02375428 0.22701941
-0.016889198 -0.026584744 0.23252599
-0.0088578211 0.032444663 0.18887089
-0.0067951838 0.030088805 0.19177152
-0.0053600329 0.026365526 0.19515349
-0.0050966265 0.022253042 0.19659995
-0.0070455167 0.018981479 0.19579495
-0.0085991453 0.015202115 0.19630758
-0.0082420008 0.011705444 0.1985352
-0.0080835037 0.0087614413 0.20118925
-0.0082247406 0.0062871394 0.20343453
-0.0091866488 0.0033659302 0.20653194
-0.0089529445 -0.0013680586 0.21057637
-0.0090867104 -0.0058906446 0.21412201
-0.0097736344 -0.0091218306 0.21642761
-0.010023755 -0.012304137 0.21902801
-0.012044627 -0.014719849 0.21922919
-0.012998856 -0.017156256 0.22180252
-0.013324228 -0.020332528 0.22479592
-0.013041828 -0.023872571 0.23106708
-0.0036761153 0.02952138 0.19574939
-0.001878463 0.02625105 0.19815344
-0.00094588287 0.02308242 0.19915219
-0.0020031533 0.019762965 0.19958197
-0.004170368 0.016435722 0.19858089
-0.0055743414 0.012752289 0.2000065
-0.0055976519 0.0097374618 0.20263772
-0.005808556 0.0074619716 0.20498374
-0.0066951588 0.004472021 0.20901977
-0.0061134961 -0.00020509111 0.21297362
-0.0065506729 -0.0044622407 0.21711996
-0.0066267382 -0.007511904 0.2183983
-0.0072047263 -0.01065545 0.22113311
-0.0077649024 -0.013556724 0.22228645
-0.0093174176 -0.015701804 0.22396494
-0.010585908 -0.019331351 0.22662242
-0.010535705 -0.022529855 0.2305844
0.00010170578 0.028344417 0.19853166
0.0023147136 0.026142959 0.19910879
0.0030542056 0.022883939 0.19994937
0.0020892194 0.019966347 0.20094073
0.00082272611 0.017299972 0.20237806
-0.00030092994 0.014854749 0.20360874
-0.0021588376 0.011384104 0.20472814
-0.0028691117 0.008319282 0.20835893
-0.0030640299 0.0047883508 0.21189718
-0.0027286662 0.00098201144 0.21505854
-0.0034730001 -0.003062014 0.21887287
-0.0035215837 -0.0063603194 0.22028945
-0.0038976246 -0.0096726064 0.22248459
-0.0048332727 -0.012761041 0.22393462
0.0053654131 0.025023721 0.19949286
0.0059510865 0.022677099 0.20014118
0.0052952264 0.020125607 0.20110659
0.0046706926 0.017829996 0.20305467
0.0040348372 0.01563409 0.20562549
0.0026853662 0.012625122 0.20823087
0.0019296646 0.0089234551 0.21026918
0.0007332142 0.005392204 0.21341667
0.00022560939 0.0017637262 0.21628326
-0.00025394544 -0.0019524134 0.21922937
-0.0013625931 -0.0056310734 0.2215284
0.0083556669 0.022523068 0.20111996
0.0081856763 0.020444416 0.20199353
0.0078455312 0.018137604 0.20392251
0.0068626488 0.015821936 0.20669718
0.005261838 0.013340272 0.20921773
0.0046284804 0.010885784 0.21024594
0 0 0 1 0 0 0 1 0 0 0 1 0 0 0 0 0 346 1 0 0
