ply
format ascii 1.0
comment PCL generated
element vertex 346
property float x
property float y
property float z
element camera 1
property float view_px
property float view_py
property float view_pz
property float x_axisx
property float x_axisy
property float x_axisz
property float y_axisx
property float y_axisy
property float y_axisz
property float z_axisx
property float z_axisy
property float z_axisz
property float focal
property float scalex
property float scaley
property float centerx
property float centery
property int viewportx
property int viewporty
property float k1
property float k2
end_header
-0.057528198 0.019642578 0.19063382
-0.057917628 0.016856572 0.19196324
-0.054803193 0.025102586 0.18658628
-0.055375956 0.023001714 0.18783958
-0.055697434 0.019993411 0.18914098
-0.056001388 0.016855156 0.19068959
-0.056791127 0.013421689 0.19215934
-0.056749113 0.01012409 0.19395244
-0.05634895 0.0069879768 0.19550589
-0.052660357 0.028197806 0.18428674
-0.052767098 0.026159141 0.18484104
-0.052713137 0.023603164 0.18580778
-0.052637111 0.020647444 0.18699197
-0.052855048 0.017416483 0.18859388
-0.054206822 0.013211996 0.19029023
-0.054561034 0.0094645191 0.19263507
-0.054766294 0.0056524472 0.19511528
-0.054349516 0.0016491826 0.19605212
-0.049616206 0.031081965 0.18180685
-0.050281763 0.029583948 0.18256298
-0.05031997 0.027040116 0.18317032
-0.049985066 0.023948081 0.18431808
-0.050292142 0.020997111 0.1862119
-0.051001027 0.016848577 0.18801054
-0.052079272 0.012923345 0.18926094
-0.052177407 0.0087498538 0.19165216
-0.052280251 0.0046925517 0.19349423
-0.051827826 -0.00074895116 0.19288844
-0.051708952 -0.005499904 0.19309707
-0.05170843 -0.008436745 0.19417283
-0.048076667 0.031696893 0.18079163
-0.047817487 0.029923175 0.1811846
-0.047594808 0.027188461 0.18214007
-0.047785256 0.023976997 0.18404402
-0.048137054 0.020575883 0.18570495
-0.048611291 0.016677311 0.18714835
-0.049584836 0.012169588 0.18846197
-0.05024891 0.0080352155 0.19034895
-0.050117824 0.0018583307 0.19017959
-0.049883723 -0.0033849042 0.18828441
-0.049775239 -0.0072570262 0.18920581
-0.049902905 -0.010810388 0.19226128
-0.050184265 -0.01135153 0.19588493
-0.051759526 -0.0074190022 0.20179114
-0.05004441 -0.0046546473 0.20898655
-0.046351641 0.034727901 0.17905426
-0.045867044 0.032815196 0.17965847
-0.045322023 0.030862764 0.18031219
-0.044932745 0.028116988 0.18134265
-0.045277674 0.024247061 0.18326612
-0.045308881 0.020210067 0.18451653
-0.045725763 0.016149307 0.185844
-0.0465119 0.011399781 0.18687244
-0.0478792 0.0059670545 0.18792808
-0.047985699 -0.00027500454 0.18580195
-0.047535844 -0.0052868333 0.18417746
-0.047096625 -0.0089795394 0.18482964
-0.045301341 -0.011162877 0.19134454
-0.048449006 -0.0096829766 0.19694495
-0.04903958 -0.0062464173 0.20323268
-0.048232313 -0.0055492646 0.20886759
-0.047447823 -0.0067029321 0.21322916
-0.047393363 -0.010298683 0.21838874
-0.043981459 0.03600949 0.17807096
-0.043029495 0.033771541 0.17915772
-0.04240936 0.031780671 0.18001956
-0.042066257 0.029358117 0.18096556
-0.042059205 0.025974741 0.18221761
-0.042323135 0.020319264 0.18340412
-0.043067835 0.015516605 0.18460733
-0.044738762 0.010160088 0.18568388
-0.045564324 0.0038087135 0.18437037
-0.044688191 -0.0024836683 0.18272993
-0.043621983 -0.0070848716 0.18331265
-0.042083178 -0.0095037557 0.1874916
-0.042145576 -0.0089785112 0.19332203
-0.044696879 -0.0080559859 0.1992742
-0.045204159 -0.0061774072 0.20481688
-0.044831697 -0.0066251107 0.20924655
-0.044677809 -0.0086097158 0.21339148
-0.04647883 -0.01350763 0.21859473
-0.047813039 -0.020977272 0.21993043
-0.046945125 -0.025312582 0.22081916
-0.041506216 0.04046854 0.17580803
-0.041115317 0.038710181 0.17670582
-0.039799292 0.037122119 0.1778888
-0.039260391 0.033654623 0.17984192
-0.039202597 0.030343499 0.18105708
-0.038799278 0.026680868 0.18249588
-0.039354026 0.020740187 0.18322518
-0.040504389 0.014469316 0.18375957
-0.042450137 0.0081284642 0.18371449
-0.043277327 0.0014963956 0.18158886
-0.041473538 -0.0044831638 0.1823108
-0.039568607 -0.0069673317 0.18539244
-0.039023887 -0.0068576033 0.19018002
-0.039904915 -0.0068601551 0.19470762
-0.041105989 -0.0067702103 0.19990978
-0.042035688 -0.0070541133 0.20512708
-0.041839108 -0.0084972754 0.20984031
-0.042557888 -0.011284713 0.2135382
-0.043667007 -0.014226756 0.21703129
-0.044341955 -0.019590424 0.21952967
-0.044381142 -0.025031207 0.22088388
-0.037952863 0.043879967 0.1731935
-0.03690502 0.042892694 0.17461829
-0.035907451 0.040890627 0.17695065
-0.035190091 0.037317496 0.17913558
-0.035750579 0.031583164 0.18110482
-0.035522997 0.027162304 0.18289223
-0.036500819 0.020319816 0.18319499
-0.037269294 0.014285436 0.18307917
-0.038823344 0.0083207814 0.18229811
-0.041273985 5.5905763e-05 0.18077567
-0.038755838 -0.0039548422 0.18313217
-0.037093103 -0.0046998337 0.18658988
-0.036865879 -0.0049585802 0.19028236
-0.037348628 -0.0053197155 0.19542304
-0.037825882 -0.0060438802 0.20208482
-0.039050378 -0.0083420761 0.2064458
-0.039372321 -0.010574981 0.2105685
-0.040030926 -0.013491009 0.21346824
-0.040819705 -0.016620463 0.21596551
-0.040560193 -0.020096827 0.21822146
-0.040702462 -0.024105072 0.22090237
-0.040590588 -0.027398666 0.22189805
-0.033235852 0.045575384 0.17523336
-0.033011504 0.044034958 0.17562611
-0.032486234 0.041877296 0.17721857
-0.031847246 0.03909288 0.17925687
-0.031893656 0.033548921 0.18142243
-0.032864086 0.028055323 0.18298458
-0.034268156 0.020021586 0.18346675
-0.03444818 0.015028023 0.18300281
-0.035840366 0.0087611629 0.18216234
-0.039152466 0.00080790819 0.18036839
-0.036887739 -0.0011974901 0.18291125
-0.035385475 -0.001825056 0.18691151
-0.035035718 -0.0027333056 0.19091928
-0.03534089 -0.0043114522 0.19569097
-0.034950204 -0.0063304477 0.203214
-0.036043212 -0.0092691742 0.20773149
-0.036708463 -0.012126457 0.21093211
-0.037085067 -0.015248821 0.21419582
-0.037382152 -0.018034635 0.21645775
-0.037376907 -0.020310445 0.21865356
-0.03684897 -0.023086723 0.22070011
-0.036950089 -0.026410205 0.22274697
-0.030453239 0.046683431 0.1748407
-0.029899985 0.045219425 0.17565843
-0.029058464 0.042876329 0.17722005
-0.0284086 0.040391691 0.17928497
-0.028563753 0.036200784 0.1813758
-0.029821519 0.029221326 0.18325417
-0.031905115 0.020303784 0.18429033
-0.031872869 0.016094033 0.18383193
-0.032651447 0.011121687 0.1831564
-0.03589661 0.004625815 0.18145165
-0.034558658 0.0039039289 0.18288201
-0.033120949 0.0026850032 0.18557759
-0.03231217 0.00042648392 0.18961896
-0.032327052 -0.0022539902 0.19329344
-0.032072235 -0.0069326619 0.20460917
-0.032681338 -0.0098227002 0.20849562
-0.034132957 -0.012458822 0.21158351
-0.033570811 -0.015618652 0.21634816
-0.034222495 -0.018273486 0.21824133
-0.034496594 -0.020232493 0.22004457
-0.034038514 -0.02298405 0.22190271
-0.034145653 -0.024934402 0.22288312
-0.034959752 -0.026084015 0.22372755
-0.026595693 0.046919759 0.17568301
-0.026261047 0.045425192 0.17655328
-0.025419103 0.043170899 0.17812234
-0.025039637 0.040460896 0.17968138
-0.025860161 0.036939755 0.181831
-0.027137123 0.030258451 0.1841639
-0.029299472 0.020721095 0.18562651
-0.029270923 0.017022012 0.1854485
-0.028929872 0.014913986 0.18561099
-0.031246331 0.011581982 0.18376113
-0.030870033 0.0094512356 0.18374345
-0.030135162 0.0064030522 0.18574771
-0.028981805 0.0037248167 0.18917523
-0.02737629 0.0008018419 0.19502875
-0.029503351 -0.0050932881 0.20339142
-0.030407451 -0.0089533878 0.20910256
-0.030339686 -0.01303417 0.21533124
-0.031139426 -0.016930284 0.21849854
-0.031596057 -0.019322665 0.21964894
-0.032186437 -0.021834362 0.22173341
-0.031942155 -0.023222787 0.2225191
-0.032023616 -0.024315506 0.22372916
-0.031727389 -0.025701413 0.22635588
-0.022420075 0.045098692 0.17826793
-0.022174751 0.043565243 0.17945082
-0.022328066 0.041108277 0.18060684
-0.022797886 0.038698997 0.18145773
-0.023798147 0.036002263 0.18300407
-0.024502415 0.029992921 0.18626016
-0.025995515 0.022647252 0.18803729
-0.026156295 0.019569959 0.18810391
-0.026503179 0.018150017 0.18806547
-0.025855552 0.01794387 0.18847163
-0.025593048 0.015359974 0.1883685
-0.024942368 0.012361703 0.18907861
-0.023327174 0.0078356536 0.1922241
-0.022364011 0.0017952216 0.20121127
-0.025223188 -0.0048622196 0.2062677
-0.027162345 -0.0086049158 0.2109841
-0.027139597 -0.012469225 0.21543406
-0.027672833 -0.015669616 0.22048415
-0.027960274 -0.018538889 0.22087795
-0.028349021 -0.020862203 0.22208583
-0.028790569 -0.022040978 0.22284357
-0.028693322 -0.023424638 0.22397497
-0.028352927 -0.025697384 0.22684871
-0.01932976 0.042137895 0.18193473
-0.019848567 0.03996158 0.18330596
-0.020324552 0.037317354 0.18404719
-0.020825919 0.034803119 0.18571781
-0.020361446 0.031694859 0.18904659
-0.019679854 0.026304435 0.19208091
-0.021305338 0.023602461 0.19096462
-0.023321699 0.021115351 0.19054538
-0.022087945 0.019568954 0.19266872
-0.021586288 0.017296975 0.19319978
-0.020881221 0.014432751 0.19337738
-0.019296061 0.0086582126 0.19743271
-0.020101942 0.0028506606 0.20365067
-0.021545719 -0.002882157 0.20772289
-0.023421381 -0.0082466844 0.21294172
-0.023959313 -0.011839377 0.21765332
-0.024717815 -0.014868453 0.22154956
-0.025365867 -0.017809989 0.22210552
-0.025744032 -0.020069199 0.22264877
-0.02562697 -0.021068834 0.22246808
-0.025658462 -0.022986062 0.22337539
-0.025394026 -0.025677241 0.22753266
-0.017089613 0.039251536 0.18552324
-0.017099133 0.037102144 0.18659532
-0.017252969 0.034307484 0.18844754
-0.017288659 0.030738879 0.19089125
-0.014351978 0.027077077 0.19440235
-0.016195225 0.02472407 0.19475129
-0.019199325 0.021948004 0.19435483
-0.018581884 0.019372774 0.1957927
-0.017961934 0.017429203 0.1963376
-0.016826371 0.014351344 0.19739643
-0.016617211 0.0085858731 0.20184472
-0.017320778 0.0034235842 0.20623375
-0.018565986 -0.0013816467 0.20927568
-0.020113274 -0.0080212746 0.2149183
-0.020548347 -0.011514045 0.22015594
-0.021569122 -0.014250419 0.22269265
-0.022494612 -0.017468894 0.22334093
-0.022585286 -0.019628974 0.22362341
-0.022631502 -0.020819414 0.22310799
-0.022731176 -0.022977777 0.22472809
-0.022034839 -0.025710246 0.22985154
-0.014101474 0.036770508 0.18824987
-0.013997717 0.033874795 0.19005559
-0.013344451 0.030651418 0.19213985
-0.010160197 0.027089236 0.19552436
-0.011827926 0.024466258 0.19731736
-0.01493757 0.022557417 0.19660853
-0.015308228 0.019177239 0.19781965
-0.013866855 0.016021641 0.19999549
-0.013074094 0.012271344 0.20271654
-0.013819062 0.0087662991 0.20497392
-0.014479555 0.0045883916 0.20769455
-0.015171791 0.00010763816 0.21164291
-0.016756829 -0.0078231497 0.21709424
-0.017169392 -0.011094965 0.22096975
-0.018423593 -0.013709866 0.22313981
-0.020034159 -0.015999852 0.22367708
-0.020294709 -0.018574728 0.22403994
-0.019915391 -0.020698501 0.22453882
-0.018872274 -0.023526138 0.22843587
-0.018171044 -0.027242521 0.23413508
-0.010375137 0.033175185 0.19111706
-0.0078264503 0.030580375 0.19349214
-0.0062743616 0.026980622 0.19751187
-0.0069874586 0.023953784 0.20003131
-0.01012134 0.022487735 0.19960982
-0.012055753 0.01964204 0.19972844
-0.010977648 0.015730474 0.20278002
-0.010828885 0.012124801 0.20513226
-0.011148581 0.0090984777 0.20655699
-0.012083557 0.0058262767 0.20884365
-0.011701591 0.0003660795 0.21395443
-0.012080771 -0.0054935194 0.21855316
-0.013477931 -0.0091359252 0.22084934
-0.014166679 -0.012259781 0.22342187
-0.016695537 -0.014347265 0.2237259
-0.017493328 -0.017215954 0.22528554
-0.016918434 -0.02047749 0.2268203
-0.014706642 -0.024123935 0.2325298
-0.0038738584 0.029436326 0.19660841
-0.0020661782 0.026476352 0.19928491
-0.001577656 0.023822697 0.20088369
-0.0034087577 0.021426551 0.20217441
-0.0069630342 0.019667951 0.20229344
-0.0084628351 0.016286461 0.20464757
-0.0084872115 0.012319203 0.2065793
-0.008790643 0.0096194362 0.20801552
-0.0092735942 0.0059528048 0.21123385
-0.0079698795 0.00021458619 0.21583389
-0.0085631302 -0.004766142 0.22053753
-0.0091984058 -0.0080682486 0.22201391
-0.0099085253 -0.011288497 0.22460747
-0.011207033 -0.013928981 0.22594473
-0.013428826 -0.016044468 0.22686978
-0.014129242 -0.019670175 0.22869609
-0.012492477 -0.022734186 0.23209512
9.9071745e-05 0.027762402 0.198865
0.0019285565 0.025724823 0.19954486
0.0024127217 0.02314158 0.20091885
0.0013607419 0.020883681 0.20226276
0.00011685434 0.018784462 0.20396024
-0.0013612941 0.016310329 0.20562038
-0.0043593976 0.012769052 0.20779799
-0.0046304516 0.0084361872 0.21049638
-0.0044129151 0.0044374187 0.21366635
-0.0038534096 0.00035561519 0.21730664
-0.0048868572 -0.0038811411 0.22139306
-0.0053786123 -0.007529764 0.22310917
-0.0058190846 -0.010712274 0.22524802
-0.0072409729 -0.013572941 0.22693731
0.0047544506 0.024402732 0.19971174
0.0051636198 0.022550518 0.20045924
0.0043838159 0.020588966 0.20160043
0.0039981646 0.018603694 0.20334215
0.0036907466 0.016424105 0.20556077
0.0028416282 0.012190453 0.20808992
0.0013971312 0.007570385 0.21118
6.9736714e-05 0.0039584339 0.21459699
-0.0006336415 0.00054584502 0.21783765
-0.0015721034 -0.0033486341 0.22129184
-0.0027711894 -0.0070847496 0.22370921
0.0075088674 0.022045553 0.20057087
0.0073128357 0.020347031 0.20151031
0.0070825471 0.018368585 0.20313251
0.0067060869 0.016025655 0.20568426
0.0054702824 0.012541207 0.2083142
0.0045055156 0.0092223939 0.20969948
0 0 0 1 0 0 0 1 0 0 0 1 0 0 0 0 0 346 1 0 0
