ply
format ascii 1.0
comment PCL generated
element vertex 354
property float x
property float y
property float z
element camera 1
property float view_px
property float view_py
property float view_pz
property float x_axisx
property float x_axisy
property float x_axisz
property float y_axisx
property float y_axisy
property float y_axisz
property float z_axisx
property float z_axisy
property float z_axisz
property float focal
property float scalex
property float scaley
property float centerx
property float centery
property int viewportx
property int viewporty
property float k1
property float k2
end_header
-0.055984773 0.028405093 0.18756661
-0.057019871 0.02546699 0.18971565
-0.057921693 0.021941096 0.19197902
-0.058505666 0.018212426 0.19370101
-0.058509395 0.014966079 0.19495143
-0.051964179 0.033011097 0.18364319
-0.052708704 0.031232452 0.18444389
-0.053165052 0.028570332 0.18552618
-0.053540386 0.025865247 0.18707871
-0.054482989 0.022660054 0.1896306
-0.055625405 0.018632047 0.19196399
-0.056414194 0.014830315 0.1937692
-0.056674417 0.011266508 0.19496354
-0.056004725 0.0076762219 0.19676647
-0.048696674 0.03559548 0.18108295
-0.049225856 0.033800505 0.1818321
-0.049522642 0.031322528 0.18261905
-0.049843088 0.028606443 0.18399024
-0.050228182 0.025934761 0.18594705
-0.051194128 0.022689965 0.18877712
-0.05172348 0.01923335 0.19033681
-0.052788947 0.015437707 0.1917641
-0.053456713 0.01115841 0.19443785
-0.052866645 0.005146035 0.19838993
-0.05229805 -0.00056093448 0.19910669
-0.051885691 -0.0043353857 0.19978477
-0.046491012 0.036336131 0.17970279
-0.04653053 0.033971436 0.18083665
-0.046494376 0.031354383 0.18207677
-0.046672177 0.028504787 0.18375693
-0.047227245 0.025851127 0.18553559
-0.048018258 0.022797372 0.18807535
-0.048368648 0.019537298 0.18941447
-0.049030814 0.015806889 0.1908801
-0.049999263 0.010789716 0.19390817
-0.049140532 0.0032660826 0.1967096
-0.048835713 -0.0020854173 0.19756767
-0.048702855 -0.0053132372 0.20019482
-0.049261633 -0.0076966425 0.20231584
-0.050972525 -0.008651875 0.20401369
-0.04351097 0.038850326 0.17875381
-0.043727517 0.036870513 0.17974357
-0.043689955 0.034388248 0.18108521
-0.04360665 0.031727638 0.18269713
-0.043838218 0.028951129 0.18427745
-0.044413868 0.026031649 0.18562438
-0.045131605 0.022886341 0.18766546
-0.045410734 0.019691166 0.18867451
-0.045653347 0.015941557 0.18993042
-0.046116076 0.01014516 0.19285475
-0.046320077 0.0034462684 0.19494414
-0.045776155 -0.0022860344 0.19659881
-0.045611944 -0.0045923749 0.20044169
-0.046377685 -0.0065689036 0.20282383
-0.048713919 -0.0090107499 0.20511062
-0.050743993 -0.011618225 0.20876598
-0.052024521 -0.012743034 0.21382432
-0.052112136 -0.014341031 0.2171412
-0.041001625 0.03981369 0.17869277
-0.040992402 0.037314273 0.1801953
-0.040858347 0.034813173 0.18154831
-0.040930577 0.032282598 0.18305574
-0.041357398 0.029456822 0.18460561
-0.041618831 0.026321119 0.18629572
-0.042137913 0.022882158 0.18769607
-0.04229226 0.019562865 0.18832006
-0.042692918 0.015853135 0.18917038
-0.04291844 0.010970488 0.19140437
-0.043259148 0.0041746655 0.19343032
-0.042669553 -0.00084555137 0.19500564
-0.042170338 -0.0036033741 0.19910479
-0.042550426 -0.0062352703 0.20230083
-0.045333263 -0.0092055937 0.20595339
-0.047816802 -0.01106253 0.20995462
-0.049016014 -0.012462875 0.21459857
-0.049867254 -0.014466128 0.21785642
-0.050098967 -0.0167733 0.22172002
-0.049620856 -0.018923154 0.22484332
-0.037813675 0.042269889 0.17766134
-0.038070638 0.040570997 0.17919286
-0.038133264 0.038026109 0.18076184
-0.038071666 0.035559706 0.18204549
-0.038090296 0.032810483 0.18381661
-0.038505983 0.029947655 0.1855354
-0.038575698 0.02675223 0.18676488
-0.038952809 0.023068529 0.18810511
-0.039357938 0.01971763 0.18884201
-0.03935894 0.016070794 0.18932113
-0.03968633 0.011255941 0.19096522
-0.040448762 0.005400449 0.19282523
-0.039633699 0.00066475838 0.19406416
-0.038805339 -0.0026178292 0.19690748
-0.039219517 -0.005607211 0.20234799
-0.042084124 -0.0094623426 0.20679155
-0.044592835 -0.010853895 0.21053453
-0.045565356 -0.012260037 0.21515314
-0.046265069 -0.014837781 0.2183156
-0.046208527 -0.017410679 0.22122513
-0.046379726 -0.020041641 0.22395515
-0.046093516 -0.022181546 0.22640269
-0.034873165 0.042791825 0.17817383
-0.03493138 0.041186586 0.17962427
-0.034975596 0.03869503 0.18138668
-0.035143223 0.036121018 0.18281041
-0.034853246 0.033090066 0.18455745
-0.035065576 0.029854141 0.18653566
-0.035396315 0.026793228 0.18800038
-0.035834469 0.023492124 0.18923517
-0.03639622 0.020088118 0.18990447
-0.036344595 0.016172035 0.19066699
-0.036735617 0.011449559 0.19170751
-0.037447769 0.0059929327 0.19318937
-0.037389137 0.0021634069 0.19474314
-0.036482401 -0.0015426241 0.19689894
-0.036717687 -0.0052233837 0.20237945
-0.039481677 -0.0094247954 0.20757964
-0.041245606 -0.011075118 0.21103726
-0.04192277 -0.012573262 0.21543893
-0.04220821 -0.01535922 0.21819395
-0.042242289 -0.018086541 0.22095095
-0.042108886 -0.020719459 0.22306871
-0.042253621 -0.023259921 0.22564365
-0.031344287 0.043438461 0.17913587
-0.031435963 0.041719038 0.18018477
-0.031495798 0.039128803 0.18198346
-0.031564787 0.036279209 0.18447827
-0.031792514 0.033113379 0.18607906
-0.031848568 0.029938441 0.18804035
-0.031960521 0.026826058 0.18959922
-0.032318931 0.023657378 0.19079746
-0.033298429 0.020582955 0.19094709
-0.033390053 0.016438287 0.19166593
-0.033658467 0.011833227 0.19259538
-0.034550522 0.0063625434 0.19438362
-0.034694429 0.0026868724 0.19630866
-0.034338918 -0.00037740357 0.19868279
-0.035325896 -0.0041144202 0.20421055
-0.037200179 -0.0080952868 0.20848729
-0.038234711 -0.010698384 0.21148883
-0.038806483 -0.012780878 0.21578151
-0.038762622 -0.015541704 0.21851517
-0.038645256 -0.018205779 0.22097291
-0.03852161 -0.020897023 0.2225261
-0.038708493 -0.023524782 0.22509688
-0.028032232 0.043880329 0.17975767
-0.027897203 0.042082176 0.18087134
-0.027975971 0.039470367 0.18278512
-0.028336225 0.03640978 0.18589339
-0.02881524 0.033297498 0.18781656
-0.028807973 0.030247476 0.18947394
-0.028625868 0.027177708 0.19041659
-0.028414916 0.024227237 0.19166255
-0.028527787 0.020953013 0.19292067
-0.029890651 0.017128928 0.19339995
-0.030846586 0.011088116 0.19401796
-0.031202063 0.0067024156 0.19623648
-0.030463826 0.0034767084 0.19871524
-0.030586094 0.00023754976 0.20202526
-0.031896684 -0.0029724732 0.20633249
-0.03362846 -0.0065723932 0.20965616
-0.034901876 -0.0098024989 0.21255389
-0.036028385 -0.01229667 0.2169221
-0.035344265 -0.015136962 0.21908757
-0.035183068 -0.017667081 0.22167709
-0.035051059 -0.020581959 0.22361602
-0.034713313 -0.02359185 0.22702309
-0.033941388 -0.025763275 0.22979446
-0.024572963 0.044077538 0.18076734
-0.024652379 0.042425558 0.18183015
-0.024456607 0.039741442 0.18338765
-0.024943514 0.036938488 0.18609516
-0.025738098 0.033808194 0.18843561
-0.025712926 0.030761698 0.19045566
-0.025441386 0.027791282 0.19152044
-0.025120515 0.024513317 0.19314647
-0.024802558 0.021551462 0.19497164
-0.02563194 0.017965386 0.19603442
-0.025993826 0.012637204 0.19781385
-0.025890386 0.0080664335 0.19894992
-0.026249176 0.0042836987 0.20135191
-0.027121913 0.0010172221 0.20449747
-0.028601443 -0.0020186547 0.20787385
-0.030112159 -0.0053785583 0.21131095
-0.031335127 -0.0083361482 0.21504764
-0.032053269 -0.011143391 0.21909189
-0.031329654 -0.014129187 0.22062278
-0.031181373 -0.017033491 0.22387226
-0.030645419 -0.020234354 0.22623993
-0.030501671 -0.02343584 0.22844163
-0.030459577 -0.026799368 0.23074214
-0.021439074 0.044540878 0.18137793
-0.021403458 0.042806778 0.18239492
-0.021355636 0.04005998 0.18369381
-0.021356063 0.037511934 0.18547942
-0.022065919 0.034448508 0.18883006
-0.022319956 0.031606965 0.19140822
-0.022173667 0.02859995 0.19299163
-0.021813447 0.025493024 0.19480565
-0.022119055 0.022104181 0.19691542
-0.022944493 0.018321905 0.19891384
-0.022881322 0.013854348 0.20041363
-0.022599308 0.0096561695 0.20200904
-0.023201382 0.005675612 0.20406179
-0.023899952 0.0019428597 0.20664528
-0.025344269 -0.0012405362 0.20988902
-0.026553774 -0.0044243732 0.21307035
-0.027462807 -0.007306301 0.21693258
-0.027297582 -0.01028348 0.22123998
-0.02743567 -0.01341838 0.22290269
-0.027028384 -0.016495336 0.22627255
-0.026627159 -0.01993509 0.22785451
-0.026518885 -0.023525385 0.22938082
-0.026756609 -0.027070563 0.23180513
-0.01869758 0.042780876 0.18327786
-0.018267769 0.040467087 0.18468338
-0.01824761 0.037670389 0.18580274
-0.018488269 0.034655057 0.18887533
-0.01889509 0.031878669 0.19182831
-0.018963121 0.029129663 0.19367217
-0.018944927 0.026127735 0.19613919
-0.01951701 0.022372376 0.19840637
-0.020032154 0.018572967 0.20062107
-0.019977517 0.014528011 0.20236281
-0.019677989 0.010693075 0.20393558
-0.020218171 0.0069160652 0.20662434
-0.02087702 0.0031793255 0.20894971
-0.022089161 -0.00053662504 0.21276875
-0.022962308 -0.0036362682 0.21586576
-0.023588596 -0.0068027475 0.21891104
-0.02345187 -0.0097446097 0.22291787
-0.023373894 -0.013032978 0.22440478
-0.023372333 -0.016349632 0.22715677
-0.022648582 -0.019751482 0.22852571
-0.02267405 -0.023432944 0.22883311
-0.023042094 -0.027369354 0.23345637
-0.015449654 0.040656388 0.18537234
-0.015250847 0.037917309 0.18674834
-0.015237666 0.0348089 0.18895735
-0.015259818 0.031906866 0.19172613
-0.015401165 0.029234439 0.19406953
-0.01551344 0.026325801 0.19765712
-0.0166489 0.022315389 0.20069018
-0.016742116 0.018742282 0.20258997
-0.016746888 0.015228891 0.20387568
-0.016664473 0.011649442 0.20542428
-0.017195206 0.0079787178 0.20874611
-0.017285788 0.004940033 0.21154222
-0.018146018 0.0010186731 0.21458822
-0.019525707 -0.0030853567 0.21780166
-0.020166574 -0.0064798654 0.22129244
-0.019970888 -0.0094083017 0.22432028
-0.01964426 -0.012848528 0.22561018
-0.01960478 -0.016291359 0.22821413
-0.019072656 -0.019761356 0.22885181
-0.018974816 -0.023560338 0.23043008
-0.019283567 -0.028027792 0.23703764
-0.012639197 0.037822783 0.18799053
-0.012034995 0.03520887 0.1896535
-0.011944534 0.032204639 0.19224493
-0.011944402 0.029434826 0.19482556
-0.01226582 0.026343476 0.19819048
-0.01310134 0.022751378 0.20206158
-0.013155849 0.019496638 0.20428127
-0.013314486 0.016074149 0.20590694
-0.013881805 0.012399732 0.20789681
-0.013885909 0.0089457026 0.21099682
-0.014120399 0.0057365168 0.21324353
-0.014182891 0.0024515155 0.21602206
-0.015676327 -0.0024737783 0.21918027
-0.016559429 -0.005939886 0.22262403
-0.01649637 -0.0090033645 0.22495136
-0.016048359 -0.012379077 0.22676675
-0.015995078 -0.015762493 0.22935638
-0.015686845 -0.019526545 0.23066041
-0.015334358 -0.023774842 0.23395842
-0.015659148 -0.028306583 0.24017684
-0.0096195973 0.034810837 0.19050168
-0.0088630868 0.032578621 0.19311891
-0.0087243598 0.029772228 0.1960582
-0.0089714937 0.02665337 0.19916183
-0.0095902057 0.023590159 0.20285778
-0.0097639225 0.020365762 0.20575266
-0.0098699229 0.017035274 0.20804259
-0.010585692 0.013352232 0.21028455
-0.010446136 0.0097328126 0.2123398
-0.010435472 0.0063863047 0.2150159
-0.010217515 0.0031115157 0.21757649
-0.010518542 -0.0010074333 0.22011039
-0.012074362 -0.0052461978 0.22334139
-0.011859774 -0.0085320557 0.22536151
-0.01185314 -0.011905002 0.2279764
-0.012021587 -0.015544147 0.23061791
-0.01197187 -0.019321246 0.23268077
-0.011665703 -0.023894219 0.23652051
-0.01207867 -0.027404469 0.24094622
-0.005747525 0.032369547 0.19592693
-0.0057382053 0.029954724 0.19820251
-0.0059042396 0.026873294 0.20148093
-0.0062331585 0.023914341 0.20416494
-0.0064206887 0.02087 0.20656811
-0.0064451252 0.017353646 0.20923057
-0.006733689 0.013637414 0.21119963
-0.0066803871 0.010251527 0.21295409
-0.0066142455 0.0068602706 0.21555215
-0.0067548598 0.0033163235 0.21818979
-0.0066796602 -0.00046695638 0.22068936
-0.0068666874 -0.0046026558 0.22359385
-0.0072250864 -0.0084196506 0.22619943
-0.0077923997 -0.01206359 0.22846399
-0.0079306085 -0.015606176 0.23073968
-0.008041013 -0.019266881 0.23382072
-0.0083248327 -0.023023216 0.23629253
-0.0033455533 0.031904664 0.19797124
-0.002742325 0.029870754 0.1992515
-0.0026750939 0.026816465 0.20176783
-0.0027875488 0.023829341 0.2040965
-0.0028595915 0.020813083 0.20632339
-0.0031502817 0.01746651 0.2093014
-0.0032299787 0.01386928 0.21172968
-0.0030764551 0.01036719 0.21345654
-0.0030811375 0.00719854 0.21597663
-0.003101392 0.0035793583 0.21805665
-0.0031547311 -0.00049993017 0.22149487
-0.0030117489 -0.0042319237 0.22331215
-0.00340034 -0.008336883 0.22607191
-0.0037708182 -0.011916369 0.22793004
-0.004608355 -0.015188428 0.22992995
-2.336235e-05 0.029222602 0.20008644
0.00053778 0.026960509 0.20210168
0.00036987383 0.023821164 0.20405817
0.00051328843 0.020958843 0.20608976
0.00038501428 0.017529991 0.20847194
0.0004348337 0.014098997 0.21081975
0.00042940231 0.010757978 0.2132872
0.00040091673 0.0075511909 0.21585219
0.00069585716 0.0040722773 0.21716398
0.0005512365 6.7491113e-05 0.22054796
0.00091532519 -0.0037716436 0.22283833
5.6652683e-05 -0.0077202613 0.22557637
-0.0012519496 -0.0108982 0.22813602
0.0033592631 0.026749734 0.20282482
0.0036956973 0.024083082 0.20381764
0.003983085 0.021091562 0.20568405
0.0039305552 0.017581107 0.20801376
0.0040076692 0.014188154 0.21014364
0.0038817546 0.011007303 0.21232738
0.0034193252 0.0076021245 0.2156179
0.0031535807 0.004504486 0.21716362
0.0030551634 0.00040369623 0.21985796
0.0031254643 -0.0026445251 0.22223653
0.0054973122 0.024037253 0.20419648
0.006114142 0.020943768 0.20583938
0.0061452151 0.017756132 0.20787063
0.0060302243 0.01396502 0.21051393
0 0 0 1 0 0 0 1 0 0 0 1 0 0 0 0 0 354 1 0 0
