ply
format ascii 1.0
comment PCL generated
element vertex 354
property float x
property float y
property float z
element camera 1
property float view_px
property float view_py
property float view_pz
property float x_axisx
property float x_axisy
property float x_axisz
property float y_axisx
property float y_axisy
property float y_axisz
property float z_axisx
property float z_axisy
property float z_axisz
property float focal
property float scalex
property float scaley
property float centerx
property float centery
property int viewportx
property int viewporty
property float k1
property float k2
end_header
-0.056054749 0.028015736 0.18770656
-0.057042025 0.025110947 0.18989865
-0.057922237 0.021582799 0.19215211
-0.058494207 0.017858097 0.1938023
-0.058461107 0.014648098 0.19503738
-0.052048665 0.032586467 0.18372487
-0.052779928 0.030814204 0.18452698
-0.053242009 0.028178466 0.18563907
-0.053608105 0.025525272 0.18722735
-0.054543782 0.022331955 0.18977655
-0.05567782 0.018264836 0.1920009
-0.056465384 0.014418894 0.19382709
-0.056646548 0.010802701 0.19493583
-0.055858027 0.0072184135 0.19667019
-0.048793726 0.035162531 0.18112177
-0.04931033 0.033383138 0.18190172
-0.049603041 0.030920872 0.18270868
-0.049904577 0.028221846 0.18407172
-0.050302763 0.02558277 0.18600936
-0.051275339 0.022325689 0.18878436
-0.051807866 0.018837143 0.19028138
-0.052857347 0.014899357 0.19151108
-0.053465158 0.010622314 0.19423003
-0.052746724 0.0045695961 0.19817407
-0.052148968 -0.0011625075 0.19890659
-0.051706828 -0.0049555362 0.1996305
-0.046620216 0.035884954 0.17968605
-0.046633266 0.033542942 0.18085083
-0.046583369 0.030954758 0.18210509
-0.04673887 0.028111599 0.18376343
-0.047313858 0.025458872 0.1854941
-0.048107531 0.022380732 0.1879331
-0.048456591 0.019105295 0.18921784
-0.049116042 0.015160729 0.19049692
-0.050025724 0.010189093 0.1934572
-0.049000826 0.0025890076 0.19642706
-0.048682425 -0.0027959682 0.19730285
-0.048562612 -0.0059666629 0.19999222
-0.049250279 -0.0082547329 0.20213273
-0.051005721 -0.0090845544 0.20377338
-0.043662228 0.038410056 0.17871098
-0.043860279 0.036426034 0.17968084
-0.043796815 0.033947282 0.18103056
-0.043702088 0.031314466 0.18264551
-0.043930132 0.02854507 0.18419844
-0.044531401 0.025641462 0.18551658
-0.045249131 0.02245643 0.18745616
-0.045514114 0.019239746 0.18840207
-0.045717385 0.015288593 0.18937561
-0.046171453 0.0094412034 0.19222994
-0.046266217 0.0027529108 0.19449624
-0.045636613 -0.0030126621 0.19625764
-0.04551034 -0.0052223639 0.20020624
-0.046379052 -0.0071383244 0.20262377
-0.048876911 -0.0094987825 0.20490849
-0.051007964 -0.012041606 0.20858195
-0.052191556 -0.013309771 0.21342564
-0.052367114 -0.014860136 0.21678685
-0.041169588 0.039404426 0.17864947
-0.041129198 0.036886934 0.18011904
-0.040971916 0.034397937 0.18145062
-0.041042104 0.031873699 0.18293016
-0.041484527 0.029058456 0.18446092
-0.041756544 0.025931513 0.18615216
-0.042265579 0.022469083 0.18747751
-0.042403027 0.019118823 0.18801114
-0.042745352 0.015178813 0.18855263
-0.04298019 0.010264816 0.19076933
-0.043229975 0.0034616415 0.19276282
-0.042523257 -0.0015340484 0.19461653
-0.042056162 -0.0041321153 0.19891457
-0.042554848 -0.0067873416 0.20215309
-0.045523785 -0.0097319093 0.2057883
-0.048121393 -0.011503303 0.20979771
-0.049247645 -0.013011864 0.21422604
-0.050147932 -0.014948529 0.2175253
-0.050390191 -0.01712209 0.22152832
-0.049887616 -0.01915542 0.22477624
-0.038006041 0.041958638 0.17763752
-0.038255863 0.040237803 0.17914735
-0.038276359 0.037659217 0.18067265
-0.038197927 0.035174433 0.18191998
-0.038220447 0.032401223 0.18364021
-0.038635124 0.029535335 0.1853558
-0.038707957 0.026345093 0.18659867
-0.039084997 0.022653194 0.18789053
-0.039465334 0.01925892 0.18851002
-0.039332304 0.015357976 0.18870544
-0.039724179 0.01061706 0.19047798
-0.040406916 0.0046878853 0.1921804
-0.03946846 1.4049666e-06 0.19362025
-0.038619626 -0.0030776593 0.19676425
-0.039222829 -0.0060516 0.20226906
-0.042334337 -0.010028755 0.20665781
-0.044924714 -0.011304574 0.21040967
-0.045825705 -0.012785824 0.21481995
-0.046580601 -0.01528726 0.21806745
-0.046496212 -0.017747955 0.22113937
-0.04664081 -0.020303881 0.22394937
-0.046349835 -0.022380985 0.22644216
-0.035042509 0.042514872 0.17812346
-0.035087619 0.04090143 0.17955348
-0.035106119 0.038391855 0.18128797
-0.035264749 0.035758641 0.18266885
-0.034962438 0.032696798 0.18439966
-0.035143618 0.029435756 0.18635969
-0.035457257 0.026374221 0.18778749
-0.035911892 0.023053823 0.18897352
-0.036495611 0.019621015 0.18951966
-0.036311038 0.015469768 0.19006754
-0.036776472 0.010844027 0.19129789
-0.037393052 0.0053364295 0.19271967
-0.0372627 0.0015538654 0.19425316
-0.036310963 -0.0019695326 0.1966975
-0.036702324 -0.0056349798 0.20230523
-0.039733328 -0.0099706268 0.20752004
-0.041618742 -0.011521714 0.2109734
-0.042200945 -0.013084763 0.21517469
-0.042514887 -0.015800547 0.21804182
-0.042505465 -0.018460106 0.22089449
-0.042358503 -0.021029422 0.22309352
-0.042471275 -0.023489393 0.22572328
-0.031477112 0.043227557 0.17908683
-0.031547736 0.041501351 0.18013258
-0.031589027 0.038893059 0.18190737
-0.031651538 0.03597318 0.18436691
-0.031875905 0.032742716 0.18594535
-0.031887837 0.029543964 0.18783839
-0.031954903 0.02640143 0.18933019
-0.032293625 0.023215812 0.19047676
-0.033371806 0.020134984 0.19053033
-0.033370309 0.015743429 0.19108412
-0.033680525 0.011202267 0.19216762
-0.034515329 0.0057128472 0.19399896
-0.034595616 0.0021099728 0.19590309
-0.034197114 -0.00080763642 0.19845809
-0.035301417 -0.0047055972 0.20402607
-0.037460826 -0.0085747316 0.20850463
-0.038639836 -0.011137295 0.21151796
-0.03909 -0.013264539 0.21557964
-0.039038483 -0.015994744 0.21839142
-0.038885787 -0.018604914 0.22091442
-0.038746133 -0.021214206 0.22254786
-0.038914371 -0.023769844 0.22517456
-0.028124273 0.043721136 0.17974804
-0.027963448 0.041927043 0.18085116
-0.028029744 0.039302841 0.18274689
-0.028408494 0.036145914 0.18580157
-0.028876703 0.032952201 0.1876746
-0.028819969 0.029869698 0.18926705
-0.028598497 0.026791874 0.19015977
-0.028336305 0.023832731 0.19133689
-0.028459657 0.02053798 0.19253416
-0.029855689 0.016454326 0.19280832
-0.030886028 0.01046091 0.19364622
-0.031204594 0.0061118263 0.19591761
-0.030434864 0.0028887889 0.19841549
-0.030493578 -0.00051868462 0.20166029
-0.031831991 -0.0037729242 0.20606938
-0.033803232 -0.0071311393 0.20964609
-0.035296518 -0.010235087 0.21258433
-0.036346782 -0.012794126 0.21678515
-0.035605308 -0.015589397 0.21895939
-0.035394844 -0.01803441 0.22158243
-0.035248525 -0.020883786 0.22358754
-0.034870487 -0.0238044 0.22704928
-0.034041252 -0.025883155 0.22984129
-0.024638616 0.043956328 0.18080014
-0.024712648 0.042298079 0.1818441
-0.024492625 0.039607722 0.1833926
-0.024985127 0.03676717 0.18604626
-0.025803853 0.033513494 0.1882934
-0.025726561 0.030428367 0.19027315
-0.025403729 0.027452532 0.19129401
-0.025036516 0.02415395 0.19284467
-0.024701262 0.021188019 0.1945989
-0.025638161 0.017471647 0.19536722
-0.026028523 0.012113261 0.19720177
-0.025908742 0.0074803629 0.1985098
-0.026201967 0.0036620516 0.2009138
-0.026982376 0.00024906811 0.20405741
-0.028472381 -0.0028067406 0.20752303
-0.030145522 -0.0060143541 0.21118614
-0.031563256 -0.0087699806 0.21495008
-0.032374065 -0.011598036 0.21902002
-0.031596474 -0.014518743 0.22053869
-0.03136972 -0.017344523 0.22378288
-0.030785143 -0.020471662 0.22615059
-0.030624002 -0.023574123 0.22838341
-0.030545102 -0.026826736 0.23078248
-0.021501327 0.044440713 0.18142638
-0.021447036 0.042700473 0.1824227
-0.021386517 0.039952889 0.18370751
-0.021366518 0.037402965 0.18548015
-0.022090133 0.0342534 0.18878843
-0.022332687 0.03133883 0.19130704
-0.022141518 0.028305642 0.19282384
-0.021744205 0.025164634 0.19456442
-0.022055579 0.021737318 0.19655679
-0.022943923 0.017990265 0.19846992
-0.022883896 0.01348504 0.19995873
-0.022593144 0.0092505338 0.20156212
-0.023203125 0.0052534505 0.20366885
-0.023721905 0.0012580685 0.20616527
-0.025172802 -0.0019715584 0.20943615
-0.026495069 -0.0050379327 0.21279761
-0.027677126 -0.0076586166 0.21683955
-0.027569372 -0.010579316 0.2212695
-0.027717968 -0.013696563 0.22305891
-0.027210878 -0.016665049 0.22635846
-0.026749274 -0.019998794 0.22779454
-0.026613949 -0.023522103 0.22935329
-0.026817916 -0.027039396 0.23183672
-0.018728547 0.042689297 0.18330364
-0.01827943 0.040375184 0.18470575
-0.018256592 0.037586927 0.18582696
-0.018485432 0.034534417 0.18889448
-0.018879592 0.031660616 0.19180399
-0.018922728 0.028867112 0.19355509
-0.01886365 0.025807884 0.195924
-0.019461442 0.022003543 0.19800067
-0.019990997 0.018225996 0.20014672
-0.019940523 0.01416798 0.20186476
-0.019652527 0.01031633 0.20346598
-0.020217841 0.0065625785 0.20620389
-0.020883134 0.0027934241 0.2085986
-0.022128928 -0.00094428268 0.21244574
-0.023071852 -0.0039476515 0.21563026
-0.023765573 -0.0070601478 0.21874835
-0.023685416 -0.0099995965 0.22284955
-0.023625817 -0.013243805 0.22449112
-0.023539653 -0.016471682 0.22724971
-0.022773547 -0.019760016 0.22846197
-0.022789277 -0.023433652 0.22881313
-0.023106467 -0.027345831 0.23344512
-0.015459659 0.040582176 0.18538922
-0.01525055 0.037850391 0.1867657
-0.015235627 0.034719463 0.18898669
-0.015217432 0.03175376 0.19170211
-0.015318205 0.029014004 0.19394748
-0.015396242 0.026008103 0.1974037
-0.016549507 0.021937033 0.20019649
-0.016656611 0.018366577 0.20207389
-0.016677525 0.014867014 0.20335934
-0.016630482 0.011343181 0.20497285
-0.017175449 0.0076878062 0.20834814
-0.017264277 0.0046516233 0.21118441
-0.018167686 0.00071437337 0.21426603
-0.019647472 -0.0033586391 0.21755175
-0.020349659 -0.0067538181 0.22110794
-0.02018309 -0.0096548712 0.22413154
-0.019873563 -0.01304802 0.22554947
-0.019797765 -0.016373875 0.22817875
-0.019219885 -0.019777603 0.2287982
-0.019097442 -0.023558272 0.2303738
-0.019328084 -0.028043855 0.2369947
-0.012636513 0.037750635 0.18800028
-0.012025089 0.035140429 0.18965523
-0.011878616 0.032082003 0.19214195
-0.011834747 0.029270304 0.19464077
-0.012146934 0.026106456 0.19790301
-0.013021779 0.022451423 0.20164393
-0.013089814 0.019198587 0.20384836
-0.013266489 0.0158081 0.20548913
-0.013887062 0.012141169 0.2075388
-0.013888846 0.0087051932 0.21066785
-0.014117006 0.0055181617 0.21293998
-0.014183581 0.0022494628 0.21576425
-0.015786447 -0.0027276024 0.21893083
-0.016750563 -0.006205101 0.22236116
-0.016712788 -0.0092385542 0.22468059
-0.016289314 -0.012529272 0.22652563
-0.016244965 -0.015828438 0.22917119
-0.01585835 -0.019541055 0.23056188
-0.015437924 -0.023789687 0.2338686
-0.015701924 -0.028342593 0.24008019
-0.0095753456 0.034751549 0.19044209
-0.0087940181 0.032498837 0.19300458
-0.0086388309 0.029671084 0.19590014
-0.0088998163 0.026498633 0.19899277
-0.0095600495 0.023393579 0.20262453
-0.009768066 0.02016964 0.20548232
-0.0099079413 0.016853811 0.20779683
-0.010612688 0.013163088 0.21002178
-0.01046228 0.0095465453 0.21207717
-0.010459625 0.0062257703 0.21479329
-0.010226334 0.0029753719 0.21734022
-0.010529636 -0.0011793341 0.21986169
-0.012191895 -0.0054627927 0.22311874
-0.012051033 -0.0086942064 0.22508544
-0.012070555 -0.011992314 0.22775316
-0.012238592 -0.015584062 0.23048872
-0.012158917 -0.019321829 0.23259668
-0.011765925 -0.023904379 0.23641817
-0.012119113 -0.027433055 0.24084324
-0.0057058465 0.032323204 0.19583485
-0.0057032318 0.029875081 0.19812001
-0.0059045968 0.026744375 0.20141326
-0.0062438343 0.023771444 0.20403059
-0.0064404276 0.020736879 0.20639282
-0.0065061515 0.017236911 0.2090914
-0.0067903926 0.013510916 0.2110662
-0.006730454 0.010113431 0.21275637
-0.0066566686 0.0067442311 0.21536669
-0.0067860335 0.0032029485 0.21794002
-0.0066772187 -0.00059801497 0.22047557
-0.0068917396 -0.0047465856 0.2234948
-0.0073382128 -0.0085323872 0.22607397
-0.0079516144 -0.012138612 0.22832336
-0.0081039807 -0.015653027 0.23068096
-0.0082068117 -0.019270925 0.23377293
-0.0084508667 -0.023018928 0.23619238
-0.0033479624 0.031855363 0.19793002
-0.0027532983 0.029784875 0.19922777
-0.0027004185 0.026670439 0.20173222
-0.0028153497 0.02367219 0.20397648
-0.0029083034 0.020672968 0.20614935
-0.0032175989 0.017335651 0.20915656
-0.0033002114 0.013753341 0.21158797
-0.0031389943 0.010260462 0.21327834
-0.0031443913 0.0071233832 0.21579356
-0.0031288054 0.0034889122 0.21784659
-0.0031654083 -0.00063056167 0.22134835
-0.0030190093 -0.0043588215 0.22324806
-0.0034848205 -0.0084460163 0.22603674
-0.0038965277 -0.012001446 0.22789045
-0.0047645043 -0.015262494 0.22991066
-4.6727e-05 0.02908019 0.20003976
0.00049790711 0.026769483 0.20201674
0.00033402399 0.023631101 0.20390722
0.00045638025 0.020780364 0.20590824
0.00030295283 0.017370382 0.20831633
0.00034821872 0.013968985 0.21069011
0.00036274781 0.010675137 0.21312483
0.00033181027 0.0075084278 0.21569668
0.00065636798 0.0040310421 0.2170307
0.00053669099 -3.7505211e-05 0.22043476
0.00090265746 -0.0038722486 0.22279885
1.9363067e-06 -0.0078277159 0.22558573
-0.001368779 -0.010978883 0.22811857
0.0033091612 0.026515897 0.20269492
0.0036308439 0.023850327 0.2036579
0.0039094286 0.02088099 0.20549376
0.0038312937 0.017414894 0.20787783
0.0039098985 0.014062959 0.21002299
0.0038176724 0.010925057 0.21220495
0.0033466197 0.0075721899 0.21551265
0.0031064891 0.0044988259 0.21707585
0.003035323 0.0003118962 0.21978544
0.0031092691 -0.0027301528 0.22219178
0.0054270462 0.023784621 0.20400491
0.0060031433 0.020731222 0.20566383
0.0060387007 0.017599454 0.20774989
0.0059330533 0.013851176 0.21040657
0 0 0 1 0 0 0 1 0 0 0 1 0 0 0 0 0 354 1 0 0
