ply
format ascii 1.0
comment PCL generated
element vertex 354
property float x
property float y
property float z
element camera 1
property float view_px
property float view_py
property float view_pz
property float x_axisx
property float x_axisy
property float x_axisz
property float y_axisx
property float y_axisy
property float y_axisz
property float z_axisx
property float z_axisy
property float z_axisz
property float focal
property float scalex
property float scaley
property float centerx
property float centery
property int viewportx
property int viewporty
property float k1
property float k2
end_header
-0.056211222 0.027494613 0.18782647
-0.057113402 0.024647135 0.19006687
-0.057952162 0.021149695 0.19237582
-0.058505669 0.017448874 0.19398569
-0.058423165 0.014267175 0.19522291
-0.052219816 0.032046758 0.18380862
-0.052932557 0.030275321 0.18458846
-0.0534053 0.027654313 0.18571463
-0.053763844 0.025053712 0.18733816
-0.054661054 0.021908052 0.18993558
-0.055768553 0.017827349 0.19212088
-0.056560457 0.013917415 0.19399919
-0.056681354 0.010236801 0.19499679
-0.055791881 0.0067536384 0.19683234
-0.048978746 0.034660477 0.18122013
-0.049475741 0.032885 0.18199684
-0.04976042 0.030424761 0.18278033
-0.050030455 0.027722171 0.18407287
-0.050458115 0.025089849 0.18597247
-0.051423337 0.021846149 0.18874833
-0.051944152 0.018351825 0.19025715
-0.053032037 0.01432391 0.19137783
-0.053546987 0.010044711 0.19419989
-0.052574474 0.0040586316 0.19848561
-0.051849727 -0.0017273185 0.19928218
-0.05135525 -0.0055866898 0.20001248
-0.046848577 0.035394955 0.17976721
-0.046822358 0.033056933 0.18090805
-0.046747711 0.030480731 0.18210268
-0.046863075 0.027622296 0.18366751
-0.047473051 0.024946075 0.18533866
-0.048266996 0.021835096 0.18770793
-0.048595477 0.018560611 0.18898374
-0.049314015 0.014539774 0.19036825
-0.050106823 0.0096056927 0.19333728
-0.04873962 0.0019696185 0.19674173
-0.048392277 -0.0034662541 0.19752951
-0.048269145 -0.006617188 0.20022397
-0.049090467 -0.0088743176 0.20211335
-0.050877102 -0.0097210323 0.20352736
-0.043914318 0.037931673 0.17876752
-0.044081878 0.035935055 0.17968935
-0.04398277 0.033444893 0.18100525
-0.043868486 0.030825507 0.18256639
-0.044091053 0.028049435 0.18404678
-0.044728555 0.025153756 0.18532182
-0.045442943 0.021915536 0.18715772
-0.045680091 0.018674433 0.18806821
-0.045896355 0.014715652 0.18923095
-0.046236478 0.0088257268 0.19217865
-0.046108369 0.0021702687 0.1946449
-0.04541954 -0.0036879089 0.19637476
-0.045262657 -0.0058766715 0.20034209
-0.046243358 -0.0077610784 0.20263822
-0.048919331 -0.010228708 0.20458947
-0.051162727 -0.012975223 0.20797543
-0.052343067 -0.014062468 0.21300028
-0.052639209 -0.015635036 0.21643864
-0.041436519 0.038952157 0.178688
-0.041346367 0.036398742 0.18009022
-0.041157756 0.033907816 0.18136522
-0.041219991 0.031383123 0.18277328
-0.041679066 0.028574925 0.18425433
-0.041973274 0.025455605 0.18592353
-0.042469986 0.021956947 0.18716167
-0.042585693 0.018565955 0.1876113
-0.042931426 0.014616938 0.18841822
-0.043111648 0.0096547613 0.19065468
-0.043113161 0.0028596404 0.192692
-0.042311642 -0.0021243133 0.19471709
-0.041841038 -0.0046701808 0.19905756
-0.042430941 -0.0073696114 0.20222652
-0.045613758 -0.010459333 0.20555072
-0.048382509 -0.01243075 0.20929165
-0.04951594 -0.013746219 0.21383207
-0.0504678 -0.015642747 0.21715444
-0.050717339 -0.017677022 0.22130737
-0.050174925 -0.019547045 0.22471489
-0.038286842 0.041612823 0.17767091
-0.038526259 0.039855056 0.17914322
-0.038493428 0.037224077 0.18059888
-0.038385771 0.034700897 0.18178415
-0.038402591 0.031892791 0.18340376
-0.038818393 0.029023444 0.18510848
-0.038910072 0.025843721 0.18635695
-0.039299179 0.022140078 0.1875647
-0.039641831 0.018687524 0.18806659
-0.039612014 0.014793092 0.18857615
-0.039898332 0.010089397 0.19040079
-0.040321905 0.0040419153 0.19199297
-0.039226238 -0.00056922104 0.19368203
-0.038403414 -0.0034504097 0.19699755
-0.039105739 -0.0064905551 0.202391
-0.042524088 -0.010744265 0.20646229
-0.045235191 -0.012188113 0.21001591
-0.046140019 -0.013476486 0.2144787
-0.04694476 -0.015926406 0.21779457
-0.046815448 -0.018239947 0.22106202
-0.046910401 -0.020696631 0.22396864
-0.046603937 -0.022698129 0.22651276
-0.035282623 0.042182494 0.17810278
-0.035310175 0.040550429 0.17949548
-0.035287749 0.038011704 0.18116726
-0.035435878 0.035291836 0.18247226
-0.035100464 0.032194238 0.18416013
-0.03525269 0.028921412 0.18610515
-0.035561442 0.025865782 0.18749645
-0.036054049 0.022525763 0.18862161
-0.036662862 0.019043496 0.18904795
-0.036556661 0.014934229 0.18981941
-0.036950808 0.010352828 0.19113941
-0.037301119 0.0047134748 0.19243152
-0.03708541 0.0010166782 0.19411297
-0.036119845 -0.0023075156 0.19686773
-0.036654491 -0.006122882 0.20251688
-0.039888006 -0.010681229 0.2074727
-0.041937906 -0.012355258 0.21071586
-0.042532202 -0.013727085 0.21492717
-0.04286721 -0.01638614 0.21790378
-0.042786311 -0.018945601 0.22087897
-0.042609371 -0.021440692 0.22316359
-0.042670272 -0.023815924 0.2258334
-0.031642485 0.042945255 0.17904691
-0.031688251 0.041208234 0.18008187
-0.031700023 0.038571406 0.18181492
-0.031745698 0.035566095 0.18418656
-0.031974122 0.032272749 0.18573518
-0.031940628 0.029058283 0.18755259
-0.031964395 0.025893433 0.18898112
-0.032300696 0.022697022 0.19009019
-0.03351666 0.019594926 0.19005004
-0.033591043 0.015232371 0.19069457
-0.033820737 0.010708797 0.1918482
-0.034439005 0.0051118964 0.19369425
-0.034432489 0.0016222956 0.19574273
-0.034047119 -0.0011292777 0.19856517
-0.035338704 -0.0052082068 0.20402481
-0.037657566 -0.0092387125 0.20847829
-0.039004147 -0.01186489 0.21140315
-0.039427694 -0.013855958 0.21541724
-0.039339703 -0.016560029 0.21830174
-0.039131388 -0.019115411 0.22088103
-0.038957212 -0.021633992 0.22258718
-0.039092779 -0.024111634 0.22526325
-0.028221061 0.043480549 0.17973615
-0.028028717 0.041687906 0.18082003
-0.028073328 0.03904365 0.18269105
-0.028468365 0.035784654 0.18564971
-0.028940547 0.032516696 0.18746851
-0.028836453 0.029398076 0.18898769
-0.028572768 0.026313223 0.18985008
-0.028255736 0.023347404 0.19096769
-0.028408516 0.020032145 0.19212621
-0.029998561 0.01598479 0.1922511
-0.030964416 0.0099722892 0.19328751
-0.031160902 0.0056038052 0.1956524
-0.030448699 0.0024436971 0.19825315
-0.030585507 -0.0010138196 0.20151322
-0.031990089 -0.0042555956 0.20604979
-0.034058131 -0.0076377313 0.20974617
-0.03572176 -0.010854603 0.21260552
-0.036693968 -0.0134626 0.21665747
-0.03587646 -0.016207846 0.21879241
-0.035594184 -0.018538926 0.22146018
-0.03542082 -0.021307575 0.22353193
-0.034991272 -0.024139546 0.22703819
-0.034078438 -0.026125479 0.22983599
-0.024687691 0.043741982 0.18080343
-0.024755711 0.042074915 0.18182591
-0.024504866 0.039381657 0.18336256
-0.025011061 0.036517318 0.18595034
-0.025876308 0.033134576 0.18810464
-0.025744408 0.029999169 0.19004181
-0.025363104 0.02701864 0.19103149
-0.024941998 0.0236967 0.19251494
-0.024579607 0.020728802 0.19418989
-0.025760999 0.017047847 0.19487749
-0.026120383 0.011671906 0.1966335
-0.025954729 0.0069249156 0.19801058
-0.026278932 0.0031425518 0.20049843
-0.027077928 -0.00022887024 0.20377222
-0.028605539 -0.0032174536 0.2074348
-0.030407341 -0.0063490043 0.21132825
-0.031820871 -0.0093591809 0.21487962
-0.032702602 -0.012281365 0.21890616
-0.031866994 -0.015108731 0.22038981
-0.031534415 -0.017818419 0.22362283
-0.030881377 -0.020843176 0.22597352
-0.030710803 -0.023817897 0.22824539
-0.030598979 -0.02695212 0.23072596
-0.021542307 0.044248786 0.18142661
-0.021465059 0.042505875 0.18240544
-0.021400599 0.039768782 0.18368565
-0.021362802 0.037239023 0.18546794
-0.022119304 0.033996377 0.18873839
-0.022353949 0.030980233 0.19118303
-0.02210978 0.027921896 0.1926315
-0.021663845 0.024741527 0.19429824
-0.021969493 0.021262648 0.19615331
-0.022950593 0.01756661 0.197964
-0.022956925 0.013034582 0.1995054
-0.022703687 0.0087889247 0.2011376
-0.023329316 0.0047722296 0.20330743
-0.023767874 0.00082028657 0.20577677
-0.025282612 -0.002316555 0.20917869
-0.02672838 -0.0052597835 0.21278784
-0.027956212 -0.0081596952 0.21675426
-0.027911359 -0.011070176 0.22125483
-0.028040638 -0.014171771 0.22318749
-0.027411742 -0.016981333 0.22636324
-0.026856964 -0.020148112 0.22761561
-0.02671472 -0.02355412 0.22925803
-0.026874853 -0.02704588 0.23180129
-0.018733405 0.042523861 0.18329042
-0.018273335 0.040229522 0.18470876
-0.018258389 0.037467368 0.18586747
-0.018487247 0.03438374 0.18892941
-0.018872438 0.031375442 0.19177052
-0.018882504 0.028525883 0.19341803
-0.01876411 0.02540208 0.19567581
-0.01938292 0.021520896 0.19753459
-0.019957054 0.017776007 0.19961339
-0.019966314 0.013722165 0.20135444
-0.019739565 0.00988968 0.20302349
-0.020356866 0.006178787 0.2058129
-0.021024227 0.002375935 0.20829386
-0.022286955 -0.0014073921 0.2121416
-0.023287479 -0.004320371 0.21540141
-0.024037952 -0.0074090036 0.21855631
-0.024005709 -0.010394576 0.22273949
-0.02395888 -0.013594886 0.22457483
-0.023733176 -0.016695727 0.22729519
-0.0228993 -0.019830041 0.22830144
-0.022909788 -0.023467293 0.22876567
-0.023181845 -0.027349535 0.23337954
-0.015447716 0.040465616 0.18540128
-0.015242385 0.037755195 0.18680109
-0.015241852 0.034604337 0.18903491
-0.015184471 0.031556387 0.1916735
-0.015233935 0.028733512 0.19379729
-0.015279613 0.025616199 0.1971141
-0.01645121 0.021454392 0.19963776
-0.016595531 0.0178876 0.20150687
-0.016675361 0.014423725 0.20282274
-0.01670208 0.010999748 0.20453908
-0.017253805 0.0073674191 0.20798106
-0.017329702 0.0043370547 0.21085569
-0.018271698 0.00036861 0.21394686
-0.019873722 -0.0036816339 0.21726991
-0.020626049 -0.0071185362 0.22088434
-0.020476457 -0.01000628 0.22389033
-0.02018505 -0.013337959 0.22548331
-0.020035865 -0.016522771 0.22809345
-0.019381799 -0.01984364 0.22868194
-0.019246386 -0.023564713 0.23029535
-0.019405277 -0.028081186 0.23690347
-0.012620702 0.037644379 0.18802184
-0.012020517 0.035046235 0.18965593
-0.011815669 0.031932127 0.19200523
-0.011719664 0.029069247 0.19441022
-0.012047901 0.025825549 0.19756122
-0.012983413 0.02208266 0.20115453
-0.013066372 0.018832762 0.20335034
-0.013279523 0.015492881 0.2050357
-0.013979902 0.011840575 0.20720275
-0.013972681 0.0084310155 0.2103693
-0.014185594 0.0052762269 0.2126701
-0.014228727 0.0020008138 0.21552572
-0.015988899 -0.0030240878 0.2186442
-0.017032323 -0.0065321308 0.22204532
-0.017004641 -0.009533762 0.22436084
-0.016598931 -0.012709479 0.22625144
-0.016551934 -0.015923372 0.22891758
-0.016069906 -0.019582761 0.23039198
-0.015590367 -0.023811502 0.23374997
-0.015799729 -0.028408023 0.23991767
-0.0095362775 0.034679245 0.19035155
-0.0087239742 0.032402709 0.19284214
-0.008543998 0.029552925 0.19569458
-0.0088448999 0.026298622 0.19875871
-0.0095655769 0.023132296 0.20231421
-0.0098115662 0.019914871 0.20515019
-0.0099966172 0.016612973 0.20751739
-0.010699449 0.012933623 0.20979188
-0.010542735 0.00933317 0.21185528
-0.010531143 0.0060372734 0.21459241
-0.010254189 0.0028066202 0.21710043
-0.010570698 -0.0013887956 0.21961278
-0.012366428 -0.0057202042 0.22290494
-0.012298365 -0.0088690091 0.2247971
-0.012342732 -0.012085895 0.22750758
-0.012512392 -0.015646899 0.23032406
-0.012406636 -0.019345919 0.23246841
-0.011929295 -0.023938777 0.23627885
-0.012216796 -0.027499842 0.24069206
-0.0056569567 0.032259207 0.1956777
-0.0056654797 0.029766923 0.19797963
-0.0059497212 0.026531352 0.20125277
-0.0062930058 0.023538655 0.20379426
-0.0064931912 0.020537518 0.20613131
-0.0066197184 0.017067671 0.20893894
-0.0069029913 0.013350496 0.21098824
-0.0068374644 0.0099551054 0.21260422
-0.006731051 0.0066012884 0.21518417
-0.0068404684 0.0030542689 0.21765895
-0.006684355 -0.00079171726 0.22024773
-0.0069388011 -0.0049691084 0.22343577
-0.0074810586 -0.0086754709 0.22598547
-0.0081527131 -0.012227876 0.22819409
-0.0083320271 -0.015728658 0.2306291
-0.0084401881 -0.019307302 0.23371445
-0.0086509483 -0.023042759 0.23606092
-0.0033542188 0.031777281 0.19782047
-0.0028034009 0.029657651 0.19914289
-0.0028031818 0.02643273 0.20161146
-0.0029185233 0.023407314 0.20373426
-0.0030346501 0.02045499 0.20586684
-0.0033413428 0.017147867 0.20896573
-0.0034232708 0.013598359 0.2114581
-0.0032551242 0.010125336 0.21311982
-0.0032420568 0.0070009013 0.21556407
-0.0031795786 0.0033438855 0.21755522
-0.00319235 -0.00085787696 0.22116785
-0.0030474665 -0.0045900969 0.22319429
-0.003607874 -0.0086156623 0.22604148
-0.0040675285 -0.01211905 0.22789064
-0.0049777268 -0.015379479 0.22993127
-0.00014248487 0.028879978 0.19993758
0.00036446829 0.026474882 0.20183004
0.00020414665 0.0233145 0.20361403
0.00031654982 0.020484902 0.20559083
0.00014711739 0.0171264 0.20807622
0.00020399388 0.013785101 0.21050988
0.00025475011 0.010560161 0.21290465
0.00024044821 0.0074067195 0.21542995
0.00058127637 0.003905524 0.21676368
0.000495026 -0.00025723677 0.22024237
0.00086399936 -0.0040927422 0.22272128
-8.4274005e-05 -0.0080283163 0.22561559
-0.0015338267 -0.011117388 0.22813852
0.0031537244 0.02614052 0.20243593
0.003453932 0.023466023 0.20333761
0.0037350873 0.020522792 0.20511658
0.0036447111 0.01714275 0.20761961
0.0037355244 0.013865317 0.20981479
0.003707662 0.010797298 0.21198155
0.0032559959 0.0074787918 0.2152614
0.0030446865 0.0044136522 0.2168151
0.0029803861 9.3528193e-05 0.2196072
0.0030661423 -0.0029468948 0.22206615
0.0052437065 0.02336611 0.20362388
0.0057798633 0.020356353 0.20529169
0.0058491859 0.017322352 0.20748511
0.0057694935 0.013669014 0.21018486
0 0 0 1 0 0 0 1 0 0 0 1 0 0 0 0 0 354 1 0 0
