ply
format ascii 1.0
comment PCL generated
element vertex 354
property float x
property float y
property float z
element camera 1
property float view_px
property float view_py
property float view_pz
property float x_axisx
property float x_axisy
property float x_axisz
property float y_axisx
property float y_axisy
property float y_axisz
property float z_axisx
property float z_axisy
property float z_axisz
property float focal
property float scalex
property float scaley
property float centerx
property float centery
property int viewportx
property int viewporty
property float k1
property float k2
end_header
-0.056798991 0.026463963 0.18788154
-0.057560809 0.023609135 0.19005613
-0.058282875 0.020185059 0.1926084
-0.05870124 0.016567675 0.19450912
-0.058473717 0.013410742 0.195797
-0.052705448 0.031135958 0.18398868
-0.053449012 0.029335175 0.18467541
-0.053984877 0.026646806 0.18568228
-0.054386716 0.024017097 0.18723583
-0.055176344 0.020901838 0.19001231
-0.056103181 0.016886359 0.19249864
-0.056863111 0.012889578 0.19460639
-0.056930501 0.0094135767 0.19598104
-0.055763815 0.0055092 0.19796669
-0.049386099 0.033866234 0.18148284
-0.049898781 0.032104179 0.18225764
-0.050197121 0.029630551 0.18293466
-0.050454121 0.026878549 0.18394487
-0.051006339 0.024054252 0.18564449
-0.051942207 0.020793762 0.18850213
-0.052406993 0.01735639 0.1902536
-0.053343855 0.01357367 0.19234291
-0.053952735 0.0091530234 0.19507292
-0.052855205 0.0027888548 0.19928958
-0.051925182 -0.0029012556 0.20021749
-0.050873239 -0.0070359637 0.20120737
-0.047292292 0.03463196 0.18004473
-0.047268916 0.032301724 0.18114179
-0.047160786 0.02975682 0.18217151
-0.047239903 0.026841305 0.18346287
-0.047969449 0.023987923 0.18499592
-0.048752137 0.020679662 0.18717237
-0.049009021 0.017420257 0.18852526
-0.049663063 0.013691505 0.19078633
-0.050499979 0.0085279383 0.19373155
-0.048967905 0.00075322035 0.19727646
-0.048428115 -0.0048090308 0.1983293
-0.048301011 -0.0078310752 0.20110004
-0.049201585 -0.010013394 0.20264609
-0.050852384 -0.010998301 0.20381658
-0.04438531 0.03707657 0.1789358
-0.044511486 0.035120744 0.17983037
-0.044391893 0.032665327 0.18111792
-0.044317 0.030073555 0.18257049
-0.044563632 0.027273986 0.18380517
-0.045303538 0.02426316 0.18489532
-0.045971595 0.020793086 0.18650532
-0.046176016 0.017480789 0.18740056
-0.04629444 0.013735489 0.18905056
-0.046494104 0.0075353547 0.19202439
-0.04635017 0.00082339731 0.19494215
-0.045586195 -0.005012895 0.19723655
-0.045442343 -0.0069598695 0.20123382
-0.046458017 -0.008758706 0.20329247
-0.049074389 -0.011451387 0.2046977
-0.051216085 -0.014402648 0.20777605
-0.052630298 -0.015676642 0.21233554
-0.053069677 -0.017323077 0.21606615
-0.041916668 0.038045235 0.17871228
-0.041777439 0.035542108 0.18016937
-0.041616593 0.033131763 0.1814497
-0.041728403 0.030673768 0.18276836
-0.042236544 0.027871914 0.18403353
-0.042599183 0.024598701 0.18537505
-0.043015979 0.020877825 0.18635707
-0.04312573 0.017387202 0.18672758
-0.043307759 0.013421059 0.18793373
-0.043343656 0.008378204 0.19021015
-0.043372545 0.001407069 0.19286545
-0.042621464 -0.0033650191 0.19556928
-0.042225264 -0.0055255233 0.20012461
-0.042737972 -0.008114473 0.20311205
-0.045822661 -0.011532233 0.20574903
-0.048626982 -0.013888268 0.20913704
-0.05007004 -0.015390093 0.21321064
-0.051117565 -0.017148186 0.21660203
-0.051304188 -0.018838061 0.22101317
-0.050714146 -0.020323247 0.22472738
-0.038704764 0.04069332 0.17746502
-0.038995806 0.038947947 0.17895573
-0.038959093 0.036375087 0.18052882
-0.03887355 0.033931222 0.18186688
-0.03893169 0.031193238 0.18339054
-0.039373998 0.028204145 0.18485735
-0.039494835 0.024925254 0.18583421
-0.039853252 0.021061284 0.18659775
-0.040097084 0.017456621 0.18697704
-0.039792914 0.013520682 0.18774273
-0.040139209 0.00882049 0.18977639
-0.040598955 0.0027181602 0.19208173
-0.03958096 -0.0019245642 0.19446416
-0.039118972 -0.0041762069 0.19804227
-0.039601743 -0.0069298805 0.20349969
-0.042792257 -0.011613915 0.20663592
-0.045739051 -0.01359318 0.20991378
-0.046819214 -0.015110674 0.2139276
-0.047645934 -0.017369097 0.21737726
-0.047427949 -0.019290904 0.22103386
-0.047441144 -0.021481011 0.2241576
-0.047102477 -0.023285018 0.22682224
-0.035636213 0.041351415 0.17798735
-0.035700314 0.039737605 0.17937694
-0.035674103 0.037227929 0.18106657
-0.035921324 0.034492996 0.182494
-0.035502151 0.031379238 0.18407442
-0.035617579 0.02805667 0.1858383
-0.035942502 0.024965504 0.18704258
-0.036467358 0.021476053 0.18784098
-0.03704847 0.017786145 0.18804044
-0.036826391 0.01385356 0.18910287
-0.037215505 0.0091652563 0.19052722
-0.03759161 0.0033622149 0.19237766
-0.037531186 -0.00028020274 0.1943249
-0.036771156 -0.0031745662 0.19765715
-0.037284434 -0.0066503258 0.20335506
-0.040264752 -0.011508773 0.20792218
-0.042204678 -0.013531761 0.21075949
-0.043182541 -0.015291751 0.21451814
-0.043548353 -0.017742831 0.21776314
-0.043337841 -0.019957962 0.22102284
-0.043097418 -0.022271646 0.22349127
-0.043058295 -0.024415109 0.22623666
-0.031861022 0.042298224 0.17905578
-0.031916454 0.040584691 0.18013504
-0.031926677 0.037963495 0.18191057
-0.032024864 0.034837328 0.18410966
-0.032295909 0.031463526 0.18562526
-0.032185964 0.028209392 0.18723851
-0.032150541 0.025047427 0.18857288
-0.032497458 0.021833224 0.1896479
-0.033934943 0.018470205 0.18929605
-0.033985596 0.014235179 0.19022138
-0.034166623 0.0096712429 0.1914632
-0.034753684 0.0036480818 0.19362845
-0.03490999 0.00020547069 0.19582944
-0.034759719 -0.0024155185 0.19902201
-0.036062937 -0.0062989965 0.20450668
-0.037900299 -0.010133499 0.20871077
-0.039313842 -0.013092213 0.21143997
-0.040084824 -0.01537572 0.2151071
-0.039912403 -0.017855208 0.21824291
-0.039574169 -0.020239225 0.22095142
-0.03931848 -0.022555573 0.22281602
-0.039404098 -0.024767501 0.22559695
-0.028301693 0.042957325 0.17991212
-0.028084986 0.041193184 0.18100367
-0.028105684 0.038552158 0.1828852
-0.02862639 0.035107486 0.18560418
-0.02916396 0.031687547 0.18727821
-0.028992899 0.028494719 0.18862511
-0.02867434 0.025432587 0.18950607
-0.028263593 0.022448596 0.19057384
-0.028438149 0.019066533 0.19173263
-0.030655837 0.01523728 0.19220085
-0.031420019 0.0088451738 0.19332211
-0.031514782 0.0039814091 0.19572838
-0.030926768 0.00077691715 0.19820985
-0.031258825 -0.002578404 0.20147307
-0.032620359 -0.0057649179 0.20626618
-0.034371682 -0.0091314856 0.20994531
-0.03591964 -0.01255733 0.21239522
-0.037308108 -0.015389421 0.21634535
-0.036407314 -0.017836256 0.2183093
-0.03595937 -0.019803291 0.22112361
-0.035683852 -0.022283554 0.22338317
-0.035138652 -0.024804879 0.22703153
-0.033988874 -0.026523495 0.22986937
-0.024707979 0.043231271 0.18098864
-0.024741955 0.041563928 0.18201509
-0.02445031 0.03885401 0.18351158
-0.025044506 0.035949446 0.18591452
-0.026090093 0.032318018 0.18787257
-0.025861084 0.029075958 0.18968169
-0.02537239 0.026104514 0.19068286
-0.024828013 0.02278503 0.19210309
-0.024399307 0.01990629 0.19367906
-0.025949536 0.016433965 0.19491355
-0.026702527 0.01100844 0.19681895
-0.026668681 0.0058688829 0.19808812
-0.02688377 0.0020412789 0.2003051
-0.027685931 -0.0014696224 0.20365977
-0.029251287 -0.0046273107 0.2075361
-0.030769542 -0.0078909388 0.21143672
-0.032260574 -0.011224034 0.21473333
-0.03319997 -0.014388485 0.21837394
-0.032269277 -0.016849099 0.21964557
-0.031673096 -0.019130638 0.22289127
-0.030891964 -0.021803495 0.22530706
-0.030734969 -0.024376916 0.22785375
-0.030645946 -0.027237603 0.23040552
-0.021534188 0.043730654 0.18151864
-0.021417625 0.042005263 0.18249287
-0.021362884 0.039272718 0.18375154
-0.021300076 0.036764853 0.18546507
-0.022184892 0.033251714 0.188511
-0.02240493 0.030104309 0.19079664
-0.022075735 0.027079409 0.19225933
-0.021500621 0.023920318 0.19389734
-0.021799853 0.020447562 0.19561577
-0.022983246 0.016905559 0.19717939
-0.023238638 0.012297384 0.19887702
-0.023154279 0.0080290409 0.20047705
-0.023812715 0.0038562953 0.20262173
-0.024520891 -0.00010324417 0.20573787
-0.026000625 -0.0034645929 0.20916568
-0.027268933 -0.0064964676 0.21283881
-0.02838972 -0.0097864447 0.21650583
-0.028519668 -0.012673213 0.22077732
-0.028564509 -0.015697928 0.22276266
-0.027794803 -0.018125091 0.22568741
-0.027021624 -0.020778563 0.22679359
-0.026924273 -0.023661401 0.22883299
-0.027081886 -0.027008349 0.23148338
-0.01866156 0.042018358 0.18331023
-0.018188719 0.039773859 0.18471427
-0.018214848 0.03701916 0.18592101
-0.018508324 0.033810806 0.18876468
-0.01891483 0.030627538 0.19143204
-0.018839657 0.027782451 0.19307542
-0.018574832 0.024669278 0.19527903
-0.01921905 0.020756977 0.19686066
-0.019961346 0.017059075 0.1987962
-0.020198014 0.013022749 0.20064883
-0.020193119 0.0092409542 0.20242518
-0.020971639 0.0055494132 0.20521353
-0.021609446 0.0015826486 0.20780139
-0.022837829 -0.0025110869 0.21166223
-0.02380117 -0.0052991691 0.21495003
-0.024521505 -0.0084701665 0.21805876
-0.024661245 -0.011564652 0.22225691
-0.024721755 -0.014677509 0.22439478
-0.024153214 -0.017467106 0.22685331
-0.023147283 -0.020227233 0.22748992
-0.023171989 -0.023578024 0.22849903
-0.023427926 -0.027223259 0.23302072
-0.015365408 0.040046517 0.18540767
-0.015179412 0.037327725 0.18681814
-0.015285636 0.034103826 0.18892597
-0.01523249 0.030927943 0.19134347
-0.015200526 0.028089801 0.19342525
-0.015167285 0.025008721 0.19673803
-0.016352825 0.020721538 0.19887777
-0.016592072 0.017122678 0.20067975
-0.016897511 0.013743972 0.20204398
-0.017144194 0.010429094 0.20391096
-0.017672326 0.0067668422 0.20739894
-0.017743157 0.0038087764 0.21032566
-0.01876992 -0.00019839064 0.21350288
-0.020432949 -0.0044531277 0.2167162
-0.021153891 -0.0080390591 0.22035286
-0.021078574 -0.010893632 0.22337368
-0.020969475 -0.014037882 0.22530742
-0.020586528 -0.016994221 0.22756524
-0.019716898 -0.020121213 0.22797115
-0.019600328 -0.023540517 0.22992972
-0.019700509 -0.027971068 0.23659553
-0.012547795 0.037233166 0.18800481
-0.012052773 0.034658562 0.18953758
-0.011832586 0.031551164 0.19163117
-0.011656337 0.028665608 0.1939988
-0.012050753 0.025449462 0.19720355
-0.013103553 0.021549402 0.20054413
-0.013217986 0.01827782 0.20262043
-0.013520758 0.014946775 0.20432462
-0.014312003 0.011208219 0.20659401
-0.014269828 0.0078461682 0.20976792
-0.01453255 0.0048122685 0.21218535
-0.014539586 0.0016307589 0.21521787
-0.016536219 -0.0035809588 0.21813865
-0.017574744 -0.0072089974 0.2214863
-0.017574701 -0.010058841 0.22383
-0.017212752 -0.012944483 0.22585967
-0.017104624 -0.016081745 0.22832131
-0.016476484 -0.01972395 0.22954999
-0.016021805 -0.023807131 0.23322389
-0.016153565 -0.028377077 0.23942564
-0.0095934831 0.034477685 0.19018516
-0.0087421741 0.032244463 0.19256864
-0.0085160751 0.029430257 0.19546476
-0.00892697 0.026148258 0.19871166
-0.0097704474 0.022779388 0.20208816
-0.010088961 0.019512564 0.20478728
-0.010379146 0.01613158 0.20709394
-0.010929541 0.012345211 0.20925157
-0.010779362 0.0087944483 0.21134669
-0.010744813 0.0055933055 0.21414858
-0.010374811 0.0024835563 0.21675277
-0.010660074 -0.0016674796 0.21937908
-0.012608985 -0.0061356695 0.22262253
-0.012646568 -0.0091445716 0.22437169
-0.012713805 -0.012238186 0.22706237
-0.012929519 -0.015830675 0.22984806
-0.012882452 -0.019493425 0.23185834
-0.012381958 -0.023995876 0.23567902
-0.012556745 -0.027559211 0.24022239
-0.0057330932 0.032253727 0.1954626
-0.0056900666 0.029781858 0.19795828
-0.0061113783 0.026365194 0.20137729
-0.0065522487 0.023157392 0.2036528
-0.0067887125 0.020126404 0.20580921
-0.0070111617 0.016595544 0.20868239
-0.0072093238 0.012813139 0.21068911
-0.0071386308 0.0094737615 0.21221825
-0.0069312542 0.0062500695 0.2148336
-0.0069534178 0.0027948418 0.2172659
-0.0066435197 -0.0010989934 0.21997349
-0.0068982439 -0.0054194462 0.22338076
-0.0075987419 -0.0090201758 0.22578262
-0.0084188795 -0.012489062 0.22785282
-0.0087624658 -0.016022928 0.23034938
-0.0089722667 -0.01949843 0.23332967
-0.0091731725 -0.02317162 0.23552224
-0.0034696304 0.031813744 0.19775473
-0.0029315078 0.02963363 0.1992363
-0.0030374632 0.026155503 0.20170842
-0.0032558448 0.02290838 0.20345265
-0.0034568673 0.019956717 0.20539862
-0.0037682848 0.016647033 0.20863122
-0.0038010818 0.01311831 0.2111821
-0.003582387 0.009713456 0.21285199
-0.0035007375 0.0066517936 0.21509539
-0.003288043 0.0030560757 0.21703997
-0.0031783006 -0.0012645754 0.22078006
-0.0029487952 -0.0050774594 0.22296768
-0.0037699717 -0.0090610571 0.22590281
-0.0043669692 -0.012495305 0.22775839
-0.0053727822 -0.015784714 0.22987543
-0.00029156945 0.02865248 0.20000847
4.0484196e-05 0.025930015 0.20168148
-0.00023193289 0.022635181 0.2031838
-0.00012111333 0.019782839 0.20511653
-0.00037669527 0.01651036 0.20767853
-0.00026519195 0.013246145 0.21016139
-8.2774008e-05 0.010134318 0.21246283
1.7274038e-05 0.0069816555 0.21473254
0.00037382203 0.0034969789 0.21608739
0.00045693744 -0.00073138555 0.21967003
0.00093202566 -0.0046022651 0.22228667
-0.00015145591 -0.0085375765 0.22543266
-0.0018321108 -0.011584282 0.22799282
0.0026808348 0.025278365 0.20208231
0.0029236963 0.022570243 0.20286956
0.0032010565 0.019692333 0.2045445
0.0030675482 0.016471105 0.20718373
0.003199429 0.013272179 0.20938125
0.0033418818 0.010282227 0.21139847
0.0030135098 0.0069418373 0.21444131
0.0028737253 0.0039498922 0.21594353
0.0028445155 -0.00042421956 0.21895196
0.0030550365 -0.0034617884 0.2214634
0.0046672099 0.022359317 0.20303562
0.0051540951 0.01946817 0.20473605
0.0052892552 0.016615713 0.20703956
0.0052712923 0.013105122 0.20966265
0 0 0 1 0 0 0 1 0 0 0 1 0 0 0 0 0 354 1 0 0
