ply
format ascii 1.0
comment Automatically gnerated by model-converter
element vertex 764
property float x
property float y
property float z
element face 0
property list uchar int vertex_indices
end_header
-0.029410884 0.018539546 0.088478076
-0.02991624 0.017136167 0.090019954
-0.030053988 0.015553268 0.090511456
-0.03021617 0.013907667 0.090856187
-0.030513299 0.012280707 0.091613265
-0.031008063 0.010924253 0.092697034
-0.031379535 0.0096093387 0.093704247
-0.031742431 0.0083436049 0.094556102
-0.032579142 0.0071606979 0.096168034
-0.033706305 0.0062942573 0.099031662
-0.034958815 0.0048733992 0.10225407
-0.035428231 0.0030981574 0.1033089
-0.035584808 0.0013320886 0.10346903
-0.035655306 -0.00046275042 0.10370722
-0.035892828 -0.002493958 0.10428739
-0.036403065 -0.0047152648 0.10565538
-0.037109195 -0.0071960105 0.10829009
-0.028411205 0.018687779 0.089666626
-0.028690228 0.017302813 0.090851256
-0.028814841 0.015674786 0.091170135
-0.028972312 0.01400864 0.09147298
-0.029344216 0.012429408 0.09232765
-0.029797871 0.011050698 0.093355494
-0.030288146 0.0098398 0.094703727
-0.030860398 0.0085898824 0.095810976
-0.031556279 0.0074258786 0.097500773
-0.032541486 0.0064017974 0.10005532
-0.033563076 0.0047287686 0.102798
-0.034011882 0.0029503346 0.10406073
-0.034203957 0.0012462989 0.10427011
-0.0343231 -0.00068601386 0.10475866
-0.034629279 -0.0028012944 0.10552372
-0.03503151 -0.0050926899 0.10671815
-0.035592501 -0.0073888193 0.10830798
-0.02666775 0.018677754 0.088585872
-0.027156577 0.017424415 0.090455548
-0.027524734 0.015671064 0.091655594
-0.027684345 0.014026885 0.092153311
-0.02804331 0.012617592 0.093061872
-0.028384351 0.011186559 0.093952036
-0.028826929 0.0098578418 0.095180492
-0.029422196 0.008699884 0.096374246
-0.030255515 0.0075894564 0.09865859
-0.031100801 0.0063947052 0.10100339
-0.031924021 0.0046797172 0.10315153
-0.032500256 0.0027928088 0.10479918
-0.032665259 0.00096724338 0.10556372
-0.03283069 -0.0010040503 0.10587582
-0.033169025 -0.002998649 0.10665197
-0.033550994 -0.0053645962 0.10784196
-0.033862886 -0.0075083126 0.10889024
-0.025011338 0.018680807 0.087993862
-0.025598726 0.017518799 0.090097769
-0.026229883 0.015875151 0.092185687
-0.026389821 0.01413948 0.092934885
-0.026937791 0.012904246 0.094401661
-0.027207645 0.011413718 0.095093071
-0.027535206 0.0099832069 0.095981073
-0.028009587 0.0087571619 0.097204961
-0.028735138 0.0075841171 0.099218178
-0.029542849 0.0063568879 0.10193189
-0.030264313 0.0046765017 0.10353931
-0.030762674 0.0028376738 0.10506236
-0.031068981 0.00071528552 0.10635232
-0.031270968 -0.0013119146 0.10702483
-0.03154329 -0.0031402556 0.10762279
-0.03195421 -0.0051106368 0.10854741
-0.032219539 -0.0073612414 0.10962677
-0.023494525 0.01865869 0.087918412
-0.024139748 0.01755954 0.090226358
-0.024855118 0.016105102 0.092320816
-0.024906194 0.01451278 0.093359357
-0.025375388 0.012932448 0.094620296
-0.025618558 0.01144056 0.095414951
-0.026160047 0.010066911 0.096850502
-0.026591931 0.0088451174 0.098277889
-0.027153465 0.0074753846 0.099606362
-0.027771539 0.0061869849 0.10198844
-0.028404704 0.0046358653 0.1032558
-0.028764402 0.0027572897 0.1048143
-0.029449488 0.00071022796 0.10662581
-0.029630527 -0.0014688046 0.10765804
-0.029925021 -0.0033370251 0.10844682
-0.030223765 -0.0051928248 0.10923295
-0.030401225 -0.007088192 0.1100649
-0.021900623 0.018569798 0.087537611
-0.02275437 0.017453888 0.090383945
-0.023216651 0.016152932 0.092365202
-0.023364046 0.014761897 0.093285601
-0.023654838 0.013041831 0.094513187
-0.023981667 0.011429258 0.095653613
-0.024648628 0.010109391 0.097445807
-0.025038136 0.0086863955 0.098522148
-0.02544092 0.0073488504 0.099848693
-0.025940532 0.0059457409 0.10145687
-0.026231733 0.0042669523 0.10273598
-0.026846165 0.0025201824 0.10444901
-0.027440678 0.00036220784 0.10622219
-0.027840274 -0.001501189 0.10778072
-0.028067691 -0.0034347979 0.10867404
-0.028207212 -0.0052661272 0.1095202
-0.028402021 -0.0071203987 0.11036629
-0.020243632 0.018335574 0.08707399
-0.021150342 0.01742661 0.090152876
-0.021539345 0.016220298 0.092179517
-0.021792278 0.014829562 0.093469971
-0.02206201 0.013340592 0.094617495
-0.022433564 0.011583454 0.095962412
-0.023086766 0.010110486 0.097764886
-0.023362799 0.0086799258 0.098738908
-0.023630786 0.0072426217 0.099822616
-0.023946637 0.0058053984 0.10108668
-0.024229323 0.0041248048 0.10213427
-0.024712159 0.002308061 0.10396392
-0.025494401 0.00033145091 0.10603964
-0.026007446 -0.0015520792 0.10774031
-0.026226683 -0.0033667055 0.10882226
-0.02626499 -0.0052178332 0.10978892
-0.026690286 -0.0069094511 0.11029566
-0.018898243 0.018065123 0.08722604
-0.019514551 0.017366432 0.089816137
-0.019925613 0.016223934 0.092103474
-0.020154684 0.014854717 0.093388666
-0.020483158 0.013417003 0.094883223
-0.020753543 0.011769353 0.095987859
-0.021300407 0.010148784 0.097655573
-0.021599807 0.0086030544 0.09876065
-0.021859771 0.0070521887 0.099650563
-0.022177379 0.0056352126 0.10086742
-0.022389185 0.0039208763 0.10164926
-0.022794995 0.0022531503 0.10331915
-0.023332168 0.00036210541 0.10538691
-0.024003091 -0.0014721507 0.10730195
-0.024315349 -0.0032868523 0.10843278
-0.024399287 -0.0051927589 0.1093853
-0.024377916 -0.0070017542 0.11021155
-0.017339189 0.018055109 0.086936685
-0.017757944 0.017187162 0.089274575
-0.018156948 0.016203195 0.091603963
-0.018465735 0.014881565 0.093390763
-0.01881055 0.01342471 0.09495025
-0.019019174 0.011718935 0.095891521
-0.019432542 0.010077974 0.097295777
-0.019871453 0.008619929 0.098913942
-0.020145173 0.007043014 0.099834509
-0.02032994 0.0054569522 0.10056364
-0.02055904 0.0038328247 0.10140763
-0.020789496 0.0022261836 0.10284194
-0.021071314 0.00053727117 0.10433154
-0.021571118 -0.0014165052 0.10589224
-0.022050947 -0.0032935927 0.10742964
-0.022442148 -0.005087274 0.10833716
-0.022385075 -0.0069447344 0.109193
-0.022289821 -0.0089549878 0.10998276
-0.015785287 0.017932822 0.086123827
-0.016148862 0.017056843 0.088580117
-0.016350136 0.016141499 0.090719045
-0.01670306 0.014855336 0.09287181
-0.017020314 0.013354529 0.094694081
-0.017172413 0.011731552 0.095869241
-0.017645382 0.01002099 0.097124929
-0.018117551 0.0086654256 0.0988837
-0.018375385 0.0070760035 0.099794194
-0.018468774 0.0054270837 0.10037741
-0.018715816 0.0038478788 0.10119192
-0.018845397 0.0022715175 0.10221832
-0.01908558 0.00053289082 0.10360326
-0.01938172 -0.0013157504 0.10466967
-0.019604725 -0.0032117755 0.10570843
-0.019907306 -0.0050979269 0.10668317
-0.020171498 -0.0071245969 0.10742726
-0.020384722 -0.0090126557 0.10864626
-0.020669665 -0.010990945 0.11041768
-0.014216205 0.017939639 0.085489468
-0.014568381 0.016940851 0.087810048
-0.014727677 0.015834136 0.089887082
-0.014921316 0.014735111 0.092451901
-0.015118273 0.013183589 0.094264595
-0.015189022 0.01157109 0.095649064
-0.015795517 0.0099946394 0.097154321
-0.016335958 0.0085709656 0.098819184
-0.016534977 0.0070601038 0.099801411
-0.016650918 0.0055034384 0.10035172
-0.016776719 0.003925113 0.10084572
-0.016927825 0.0022738552 0.10161184
-0.017162283 0.00054984154 0.10274003
-0.017226591 -0.0012631095 0.103196
-0.017310053 -0.0031248651 0.10383827
-0.017367737 -0.0048180377 0.10475895
-0.017807575 -0.0069478704 0.1059647
-0.017970499 -0.0089021153 0.10719893
-0.018306853 -0.010935831 0.10918186
-0.018432956 -0.012520149 0.11088462
-0.012691544 0.01797538 0.085046284
-0.013049741 0.016851995 0.087483239
-0.013103209 0.01571526 0.08923173
-0.01313189 0.014587121 0.091827658
-0.013271599 0.013114827 0.093607739
-0.013158913 0.011604937 0.095127126
-0.012814651 0.010176985 0.096652346
-0.01328094 0.0087151201 0.09844244
-0.014590163 0.0071576444 0.099592866
-0.01450671 0.0057100822 0.10019121
-0.014786647 0.0039989472 0.10066286
-0.014913943 0.0022210113 0.10093414
-0.015070944 0.00051023636 0.10153773
-0.015152488 -0.0011882893 0.10219679
-0.015176807 -0.0029713865 0.10257202
-0.015271559 -0.0047261788 0.10340884
-0.015584277 -0.0067114461 0.10465313
-0.015777544 -0.008639653 0.10596033
-0.016115641 -0.010634831 0.10789589
-0.016496921 -0.012718943 0.11056135
-0.011249573 0.017894577 0.084656846
-0.011442128 0.016757933 0.086618029
-0.011539663 0.015599841 0.088656317
-0.011457586 0.014339464 0.090604631
-0.011372391 0.013122905 0.092827356
-0.01113544 0.011667429 0.093800692
-0.010658025 0.010328534 0.095027628
-0.010058229 0.0090697596 0.096435695
-0.0094329793 0.00781947 0.097864568
-0.012422127 0.0057004902 0.099324822
-0.012919791 0.0039073951 0.10004762
-0.0131071 0.0021866811 0.10052404
-0.013187559 0.00042445326 0.10076827
-0.013261218 -0.0013362628 0.10110736
-0.013427392 -0.0030917313 0.10174473
-0.013435253 -0.0047860747 0.10270049
-0.013542937 -0.0066076866 0.10361324
-0.013724656 -0.0084144174 0.10493616
-0.014057481 -0.010452444 0.10693522
-0.014406135 -0.012484755 0.10957624
-0.0098304833 0.01780063 0.084134715
-0.0099621671 0.016691469 0.086227182
-0.010116489 0.01540833 0.088009504
-0.010053596 0.014075899 0.089691118
-0.0096649645 0.012978968 0.091422138
-0.0093551269 0.01169831 0.092598867
-0.0088375939 0.010384328 0.093509382
-0.0083297773 0.0090193843 0.094417449
-0.0076223907 0.0077133453 0.095411631
-0.0074852626 0.0061843498 0.096737186
-0.009074388 0.0042786453 0.098980407
-0.01098369 0.0022267617 0.099720098
-0.011353757 0.00039450194 0.10012654
-0.011547966 -0.0013759076 0.10031056
-0.011606374 -0.0031466208 0.10101823
-0.011646985 -0.0048556957 0.10231693
-0.011712189 -0.0065164151 0.1033071
-0.011724247 -0.0083043888 0.1042458
-0.011961516 -0.010196944 0.10620789
-0.012312881 -0.012321194 0.10866091
-0.0083729954 0.017785852 0.083958895
-0.0085131023 0.016653234 0.085714684
-0.0087614255 0.015333696 0.087176121
-0.0086245009 0.014001452 0.088764348
-0.008234986 0.01287379 0.090264743
-0.0078812968 0.011527426 0.090728561
-0.007473403 0.010189151 0.09137762
-0.0072239712 0.0087686279 0.091995808
-0.006839155 0.0072525328 0.093043009
-0.0067174092 0.0057653724 0.094119367
-0.007052671 0.0040673156 0.095845543
-0.0077537853 0.0022968396 0.097687351
-0.0086205009 0.00054621066 0.099120281
-0.0092812736 -0.0012623906 0.099645298
-0.0098106372 -0.0031648581 0.10049811
-0.0097809825 -0.0046951252 0.10190298
-0.0097959834 -0.00636428 0.10280689
-0.0098543673 -0.0081471939 0.10409645
-0.010125709 -0.010094542 0.1058728
-0.010298217 -0.012198949 0.10791216
-0.010532555 -0.014159684 0.11087312
-0.0069841873 0.017766152 0.08353357
-0.0070165489 0.016647577 0.084976426
-0.0072116984 0.015322361 0.086424787
-0.007264989 0.013883478 0.087590964
-0.0071470669 0.012590508 0.088686735
-0.0065907047 0.011497734 0.089624706
-0.0064930557 0.0097538843 0.089098159
-0.0062978689 0.0081815557 0.089778072
-0.0061075292 0.0067862424 0.091015284
-0.0059895852 0.0052820779 0.092152684
-0.0059814692 0.0036238945 0.093566254
-0.0063205009 0.0019079713 0.095261583
-0.0070100465 0.00014953847 0.097205297
-0.0074191026 -0.0016058709 0.098845703
-0.0078029123 -0.0031856524 0.10045362
-0.0078739685 -0.0046775343 0.10171075
-0.0079963359 -0.0063452456 0.10262578
-0.0080534945 -0.0080006294 0.10392536
-0.00826557 -0.010195799 0.10554062
-0.0084397956 -0.012248426 0.10747506
-0.008636306 -0.014413117 0.11076044
-0.0055290342 0.017812992 0.08286448
-0.0055524706 0.016645747 0.084261072
-0.0057027582 0.015314485 0.085579971
-0.0058341144 0.013898947 0.086495926
-0.0059789695 0.012393391 0.087229467
-0.0060866686 0.01094257 0.087157921
-0.0058867019 0.0095360591 0.087303063
-0.0058119978 0.0078793623 0.087598968
-0.0057386069 0.0062474098 0.088441539
-0.0054784467 0.0047508708 0.08993101
-0.0050685537 0.0029086831 0.091419546
-0.0052476909 0.0013498159 0.092958455
-0.0054253585 -0.00031476615 0.095141299
-0.0056998556 -0.001823304 0.098141723
-0.00606558 -0.0034286164 0.099993531
-0.0061340829 -0.0048577169 0.10133844
-0.0062444425 -0.006512175 0.10228091
-0.0062398857 -0.0081043158 0.10373793
-0.0064098053 -0.010214387 0.10530151
-0.0065253086 -0.012218558 0.1074041
-0.0067150478 -0.014462826 0.11068297
-0.0040650453 0.016656121 0.083533934
-0.0042861693 0.015351051 0.085108935
-0.0044006417 0.014068588 0.086274088
-0.0045388681 0.012533831 0.086978063
-0.0045401282 0.011008744 0.086868058
-0.0046066381 0.0094008578 0.086500293
-0.0050290592 0.0076871563 0.086060055
-0.0049605977 0.0060142215 0.086388317
-0.0047481725 0.0043685951 0.087350793
-0.0037533558 0.0024418988 0.090143329
-0.003813643 0.00068239482 0.091351321
-0.0039868823 -0.00090725633 0.093343598
-0.0040461731 -0.0021039827 0.097658321
-0.0043441146 -0.0036317472 0.099479327
-0.0044394355 -0.0050219113 0.10064065
-0.0044949419 -0.0065180323 0.10197234
-0.0045139429 -0.0081948848 0.10349814
-0.0045724078 -0.010209668 0.10527396
-0.0046706385 -0.012277886 0.10767186
-0.004750122 -0.014515026 0.11072418
-0.0022434979 0.016752349 0.083140772
-0.0025989082 0.015657987 0.08532735
-0.0029260332 0.014201083 0.086614903
-0.0030182428 0.012661416 0.087099827
-0.0030476653 0.011100147 0.087252426
-0.0030655221 0.0094290469 0.086634045
-0.0032898309 0.007476059 0.085850862
-0.0033082444 0.00581344 0.085696814
-0.0030671857 0.0042450959 0.08668632
-0.0013847762 0.0014836748 0.089563373
-0.0015925009 3.6142561e-05 0.090889021
-0.0018516525 -0.0014676569 0.092511569
-0.0023764001 -0.0022549419 0.097050596
-0.0026035535 -0.0036333551 0.099412194
-0.0026583363 -0.0051079832 0.10066531
-0.0027177644 -0.0066260453 0.10182276
-0.0027740617 -0.0082084541 0.10351176
-0.0027959886 -0.010160379 0.10512741
-0.0027717897 -0.012332135 0.10757548
-0.0029099847 -0.014647887 0.11034225
-0.00084806259 0.016725813 0.083367327
-0.0011541251 0.015567674 0.085362848
-0.0013759187 0.014176694 0.087019619
-0.0015230545 0.012694677 0.087470191
-0.0015736022 0.011132639 0.08771436
-0.0015268995 0.0095452849 0.087636893
-0.0013750767 0.0073736543 0.086672069
-0.0014681694 0.0058316981 0.086280813
0.00028484324 0.0032387528 0.087710881
0.00068923979 0.0013423252 0.089522914
0.00037321998 3.8893257e-05 0.091310724
0.00011196012 -0.0013186936 0.093231946
-0.00071181547 -0.0022911534 0.096863641
-0.00087936618 -0.0036231937 0.099332866
-0.00092090632 -0.0051136444 0.10078262
-0.00092615291 -0.0066844336 0.10213297
-0.0010323313 -0.0083696487 0.10343041
-0.0010387378 -0.010247857 0.10566323
-0.00101791 -0.012559617 0.10792
-0.00090232003 -0.014967725 0.11056369
0.00057936451 0.016701326 0.08349461
0.00029362594 0.015513004 0.085580067
0.00017433672 0.014188179 0.087083003
-1.8976273e-05 0.012647408 0.087998055
-4.7025015e-05 0.011000012 0.088273055
0.00039428558 0.0089958402 0.088374403
0.00085263738 0.0071400787 0.08853669
0.001544146 0.0051160258 0.088705282
0.0020247715 0.0032406996 0.089918228
0.0019657556 0.0017811634 0.091071776
0.001980937 0.00032301374 0.09229913
0.0015422233 -0.0010697648 0.094150069
0.0010004696 -0.0021741101 0.0972329
0.00080758292 -0.003658883 0.099214612
0.00079325351 -0.0051391415 0.10081824
0.00076008723 -0.0067439853 0.10212643
0.00074035456 -0.0085347091 0.10323565
0.000777999 -0.010378808 0.1055961
0.00086532849 -0.012596447 0.10782904
0.00097512935 -0.015025445 0.11034779
0.0019789313 0.016669667 0.083697279
0.0017454142 0.015503144 0.08576568
0.0016293738 0.014170979 0.087411688
0.0015263553 0.012627197 0.08851408
0.0015496111 0.010807418 0.088845923
0.0019986301 0.0088091013 0.089303662
0.0022870792 0.007024729 0.090223624
0.0027879759 0.0053123933 0.090670167
0.0030099167 0.003833189 0.091675918
0.0031706098 0.0023091786 0.092648057
0.0031544074 0.00089248199 0.093760284
0.002870249 -0.00071033475 0.095381428
0.0026553361 -0.0020296725 0.098119989
0.0025570977 -0.0035606704 0.099517788
0.0025418346 -0.0052105121 0.10068333
0.0024844645 -0.0068120306 0.10213506
0.0025297508 -0.0086336836 0.1031542
0.0026516686 -0.010487717 0.10535865
0.0027714688 -0.012680614 0.10765584
0.0028663271 -0.015075384 0.11003721
0.0033795315 0.01662546 0.083764822
0.0031815248 0.01543724 0.085728473
0.0030426144 0.014062321 0.08775334
0.0029608739 0.012540189 0.088603662
0.0030519903 0.010865229 0.089130538
0.0034024346 0.009057769 0.089757035
0.0035561664 0.0073538866 0.091005092
0.0038856948 0.0058676117 0.092044946
0.0040580303 0.0044371157 0.092885173
0.0041440736 0.0029027475 0.093887534
0.0042387014 0.0014203936 0.095089644
0.0040561346 -0.00019158352 0.096911147
0.0042095814 -0.0018533962 0.098918076
0.0042444722 -0.0034650176 0.10012849
0.0042102197 -0.0051731164 0.10113041
0.0042694428 -0.0068376871 0.10225992
0.004317149 -0.0086911978 0.10333498
0.0043714149 -0.01066774 0.10545658
0.0046221793 -0.012876209 0.10770218
0.0048539704 -0.015109721 0.11027597
0.0047575931 0.016583274 0.084155918
0.0045477494 0.015481641 0.086027122
0.0044446885 0.014105502 0.087669396
0.0044466686 0.01264189 0.088433073
0.004472922 0.011063466 0.089425001
0.0048079106 0.0094126815 0.090367743
0.0049581481 0.007868129 0.091457419
0.0050387195 0.0064548549 0.092909725
0.0053131077 0.0049437462 0.093921505
0.0053422334 0.0034953848 0.095110316
0.0051747125 0.0019826829 0.096771907
0.0053823995 0.00019261495 0.098515185
0.0059028246 -0.0017152952 0.099773125
0.0059506633 -0.0033425484 0.10074582
0.0060541081 -0.0051263019 0.10158307
0.0060077464 -0.0068661837 0.10263608
0.0060744949 -0.0086821469 0.10384449
0.0061588307 -0.010950524 0.10539392
0.0065056135 -0.013259131 0.10773342
0.0059855214 0.016459478 0.084767707
0.0060013514 0.015499294 0.086147782
0.0059411462 0.014100106 0.087472182
0.0059310679 0.01263734 0.088166448
0.0059298157 0.011178521 0.089387245
0.0062894361 0.0097754768 0.090357653
0.0064949484 0.0083129715 0.091776711
0.0064632771 0.0069178958 0.093315394
0.0066038835 0.0054527069 0.094734997
0.0068012155 0.0036373242 0.096430974
0.0068073441 0.0021950268 0.098260923
0.0073565209 0.00023286536 0.099712101
0.0076368923 -0.0016317944 0.10041087
0.0077248754 -0.0033646044 0.10131902
0.007799122 -0.0051087701 0.10233577
0.0077823018 -0.0068908049 0.10335788
0.0079114411 -0.0089769978 0.10423435
0.0081195388 -0.011360928 0.10585123
0.0083681823 -0.013796879 0.10768669
0.0087915178 -0.015905773 0.10913779
0.0073512346 0.017298636 0.083492716
0.0074423116 0.016476906 0.085022684
0.0074235917 0.015459025 0.086392745
0.0074216416 0.014106788 0.087660358
0.0073692387 0.012633916 0.088165253
0.0074200392 0.011039738 0.089415874
0.0076167156 0.0097025298 0.090408515
0.0079289955 0.0085620222 0.091667242
0.0078034059 0.0073555217 0.094186805
0.0082717066 0.005509134 0.095256036
0.0084642821 0.0037051651 0.096878766
0.0086417346 0.0020998074 0.09909025
0.0089759108 0.00030213965 0.10023937
0.009277971 -0.0015498632 0.10108182
0.0094441891 -0.0032900176 0.10208399
0.0095315315 -0.0051423077 0.10285482
0.0096573793 -0.0070940123 0.10394456
0.0098361619 -0.0092138887 0.1048861
0.010015896 -0.01169875 0.10613878
0.010141811 -0.014312535 0.10735208
0.0087415492 0.017323763 0.083569887
0.0088412948 0.016427252 0.085076894
0.0088648792 0.015358142 0.086406473
0.0088380537 0.014025005 0.087670998
0.0088973556 0.01248376 0.088436832
0.0089796404 0.010982951 0.089510348
0.0090502074 0.0095673108 0.090332782
0.0092040516 0.0080978081 0.091407454
0.009560063 0.0073510086 0.094381007
0.010014697 0.0053727071 0.095330327
0.010224481 0.003782049 0.097745806
0.010372523 0.0021671521 0.099484121
0.010595172 0.00040949582 0.10032382
0.010820315 -0.0013293042 0.10156961
0.011131325 -0.0031831701 0.10262525
0.011281122 -0.0050836981 0.10329406
0.011489949 -0.0070755746 0.10458644
0.01167216 -0.0092601702 0.10562943
0.011843054 -0.012010516 0.1067421
0.011930174 -0.014608733 0.10781772
0.010107235 0.017388268 0.083658467
0.010192404 0.016505739 0.084907203
0.010155523 0.015398531 0.086221344
0.010288768 0.014014612 0.087355898
0.010410433 0.012574499 0.088141204
0.010499418 0.011085262 0.089319151
0.010574736 0.0097078132 0.090340492
0.010653432 0.0082842943 0.091381037
0.011257266 0.0069929282 0.093930875
0.011583849 0.0052729556 0.095723636
0.01184957 0.0038193368 0.098019901
0.012130912 0.0022019897 0.099661128
0.012400702 0.00051160032 0.10054526
0.012578249 -0.0012576594 0.10169554
0.012847355 -0.0030578127 0.10281728
0.01309982 -0.0049358892 0.10386082
0.013342505 -0.0069805453 0.10525277
0.013437027 -0.009621788 0.10662285
0.01365131 -0.012379478 0.10769739
0.013791676 -0.014588295 0.10850797
0.011543241 0.017726732 0.084304783
0.011610716 0.016688858 0.085134184
0.011541985 0.015498434 0.086346164
0.011771439 0.014056366 0.08745454
0.011930677 0.012611242 0.088117217
0.011963837 0.011161944 0.089141896
0.012051848 0.0097973879 0.090136938
0.012122509 0.008359976 0.09116232
0.012312074 0.007147295 0.093667475
0.013139511 0.005151051 0.095835938
0.013522612 0.0036812265 0.097908683
0.013869659 0.0021849192 0.099780961
0.014137118 0.00061393148 0.10087377
0.014389853 -0.0010855281 0.1016543
0.014641945 -0.0029156661 0.10312363
0.014872675 -0.0048578988 0.10415572
0.015143673 -0.0070633372 0.10619906
0.015295008 -0.010231492 0.10791387
0.015628199 -0.012599682 0.10918808
0.012931423 0.017769018 0.084373617
0.012970888 0.016858157 0.085523986
0.013002527 0.015605913 0.08641955
0.01326211 0.014062041 0.087780395
0.013413999 0.012638625 0.088374487
0.013435148 0.011245345 0.08931761
0.013523088 0.0098795058 0.090217374
0.013643356 0.0084689904 0.091324477
0.013811026 0.0071114148 0.093184668
0.014658479 0.0050058991 0.095746028
0.015339022 0.0036414742 0.098313037
0.015708402 0.0021476805 0.099818602
0.016024085 0.00053582681 0.10126482
0.016111509 -0.0011036997 0.1019361
0.01642699 -0.0029031926 0.10347199
0.016809483 -0.0049206034 0.1052304
0.017215174 -0.0073857423 0.10753997
0.017484334 -0.010173946 0.10940861
0.014456937 0.017906646 0.084793145
0.01453826 0.016987191 0.085915702
0.014579581 0.015797594 0.086898017
0.01477896 0.014227484 0.087677658
0.014899492 0.012848131 0.088650909
0.015013416 0.011378345 0.089652208
0.015077041 0.0099121792 0.090592877
0.015204175 0.0085479086 0.092158238
0.015609802 0.007171999 0.093873522
0.01614051 0.0052299592 0.095709426
0.016994803 0.0036254545 0.098420846
0.017436602 0.0021080481 0.099907387
0.017753546 0.00053943932 0.10130213
0.017997804 -0.0010828438 0.10239866
0.018300836 -0.0029574277 0.10391713
0.018878753 -0.0051052325 0.106372
0.019641696 -0.0077877287 0.10961023
0.016070853 0.018173018 0.085544461
0.016140222 0.017106176 0.086524216
0.016178568 0.015793358 0.087396321
0.016343137 0.014460737 0.08824612
0.01646404 0.013009646 0.089014362
0.016620646 0.011527418 0.090262822
0.01663122 0.0099789304 0.091084985
0.016914174 0.0085790447 0.092472805
0.017436058 0.0070834654 0.094617059
0.017733488 0.0054075646 0.095806776
0.018608389 0.0037427717 0.098349649
0.019143491 0.002170517 0.099757615
0.019558178 0.00064965981 0.10136172
0.02002949 -0.0011849708 0.10298175
0.02045329 -0.003198296 0.10486304
0.021149072 -0.0054705635 0.10768647
0.021964849 -0.0077055142 0.11061047
0.017678104 0.018306897 0.086197494
0.017759232 0.017181872 0.08711065
0.017760328 0.01586516 0.087778013
0.017933387 0.01458843 0.08884499
0.018094639 0.013173722 0.089731592
0.018406702 0.011670973 0.090623279
0.018278145 0.010043194 0.091255459
0.018430013 0.0085239616 0.092353264
0.019146251 0.0070352808 0.095083003
0.019545654 0.0054557191 0.096378891
0.020635082 0.0037875387 0.098900801
0.021061317 0.0022137195 0.10031061
0.021550558 0.00049707074 0.10181196
0.022092725 -0.0016065381 0.10356967
0.023007596 -0.003710415 0.10618436
0.023474811 -0.0056143878 0.10898346
0.019152344 0.018301016 0.086233339
0.019388949 0.017191336 0.087392222
0.019484464 0.015923677 0.088215498
0.019683129 0.014592165 0.089111419
0.019834927 0.013035499 0.089691769
0.020032081 0.011506061 0.090559229
0.019940335 0.009960194 0.091345598
0.020084087 0.0084883267 0.09248772
0.020824536 0.0069776095 0.095192023
0.021309855 0.0054674625 0.096525012
0.022465239 0.0037076566 0.098980347
0.022918753 0.002098187 0.10061927
0.023536094 0.0002172804 0.10223973
0.02431899 -0.0018152579 0.10437711
0.025187559 -0.00371947 0.10715214
0.025926094 -0.0057579068 0.11034161
0.020613969 0.018209746 0.086192778
0.020969001 0.017107995 0.087446053
0.021307242 0.015753564 0.088316839
0.021424283 0.014423052 0.089235675
0.021427587 0.012940327 0.089615493
0.021579397 0.011421606 0.090335377
0.021534259 0.0098765345 0.091163772
0.021850014 0.0084144332 0.092913205
0.022358203 0.0068917287 0.094815805
0.023062288 0.0051918333 0.096022939
0.024215326 0.0036257279 0.098861554
0.025150202 0.0019238161 0.10171451
0.025618183 3.8277109e-05 0.10297628
0.026371216 -0.0017447856 0.10505574
0.027374607 -0.0037162216 0.10858536
0.022250179 0.018118755 0.086392202
0.022519841 0.01692035 0.087293789
0.022851158 0.015646106 0.088250515
0.022993406 0.014271967 0.088972488
0.023008056 0.012833438 0.089441482
0.023211944 0.011395159 0.090346815
0.024059978 0.0098934565 0.092230361
0.024123624 0.0083927556 0.093550709
0.024447308 0.006662279 0.094756318
0.025725537 0.0051159676 0.097284092
0.026590846 0.0036267773 0.099763207
0.027695836 0.0016908895 0.10288307
0.02808924 0.00015060879 0.10459727
0.028667506 -0.0016707266 0.10657224
0.029645215 -0.0038058229 0.11005712
0.023815883 0.017969469 0.086374235
0.024155306 0.016843133 0.087448875
0.024401407 0.015554409 0.088307973
0.024516768 0.014168324 0.088826264
0.024618134 0.012772106 0.089452896
0.024989322 0.011448875 0.090459591
0.025644724 0.010050143 0.091724244
0.025917311 0.0085692999 0.092685606
0.026351001 0.0069425263 0.09433507
0.027665776 0.0052998604 0.097489436
0.028832587 0.0035639922 0.10104297
0.03019707 0.0017793177 0.1040375
0.030612567 0.00011765518 0.10612561
0.030980643 -0.0015693921 0.10813723
0.031796704 -0.0036049577 0.11070198
0.025273135 0.017846237 0.086098628
0.025684194 0.016739076 0.087379733
0.025949985 0.015463185 0.088322694
0.02606613 0.014130215 0.088824846
0.026174073 0.012688772 0.089368321
0.026614392 0.011358229 0.089921453
0.026941466 0.010024991 0.090778713
0.027302776 0.008627919 0.091908087
0.027711475 0.0070280646 0.093245366
0.029252414 0.0054469609 0.097082319
0.031270117 0.0035435437 0.10238639
0.032286557 0.0018541752 0.10528651
0.03264929 0.00018381249 0.10688784
0.033160935 -0.0014404778 0.10917218
0.026810932 0.017797897 0.086250618
0.027171111 0.016700749 0.087322053
0.027520951 0.015474485 0.088147996
0.027811856 0.014253822 0.089063027
0.028080346 0.012774677 0.08942718
0.028197416 0.011374309 0.08978403
0.028383508 0.01003496 0.090470811
0.028785301 0.0086421661 0.091782012
0.030176221 0.00734478 0.095074141
0.030954918 0.0055669748 0.097277608
0.03367932 0.0034475228 0.10370539
0.034425118 0.0020037868 0.10660212
0.034887135 0.00036367311 0.10839655
0.035581235 -0.0013964599 0.1105412
0.027959949 0.01762992 0.085377075
0.028645775 0.016728136 0.087226551
0.029071412 0.015570393 0.088178265
0.029397173 0.014230948 0.088831414
0.029550499 0.012745691 0.089163575
0.029667831 0.011358551 0.089643492
0.02977993 0.010004379 0.090213148
0.030389895 0.0087128344 0.092021285
0.031713676 0.0073978617 0.094951356
0.032362053 0.0056651185 0.096569529
0.036433427 0.0035589273 0.1064925
0.037032667 0.0017706767 0.10818573
0.037358149 4.2457133e-06 0.10945809
0.038344435 -0.0019329199 0.11101274
0.02888716 0.017308106 0.08393404
0.029812501 0.016590886 0.086301209
0.030355679 0.015396257 0.087567447
0.030796804 0.014127365 0.088521347
0.030967501 0.012668781 0.088874079
0.03114997 0.011311791 0.089510403
0.031528877 0.01000746 0.090654726
0.03186047 0.0087140205 0.09165933
0.032857787 0.007268542 0.093842274
0.035037223 0.0052019558 0.098645214
0.039014726 0.003525535 0.10748156
0.039486898 0.0017827979 0.10915241
0.040097029 -0.00018166587 0.1104137
0.04049432 -0.0018335463 0.11138061
0.03072833 0.016244309 0.084802852
0.031466798 0.015135451 0.086395797
0.032030239 0.013876188 0.08742967
0.032295815 0.012487938 0.088288894
0.032529163 0.01108016 0.089085126
0.032953473 0.0096911779 0.090307028
0.03342055 0.0083797297 0.091643279
0.034410582 0.0070056193 0.09391735
0.039427847 0.0047432369 0.10360234
0.040968763 0.003523713 0.10776168
0.041686127 0.0017461095 0.10966631
0.04216063 -0.00024907082 0.11060502
0.042879858 -0.0019206725 0.11152351
0.032432534 0.01494841 0.084535798
0.033069126 0.013675177 0.085809449
0.033714221 0.012379876 0.08782286
0.034070064 0.010799828 0.088759144
0.034373106 0.0094188644 0.089870206
0.034865909 0.0081613534 0.091229277
0.037091057 0.0065253267 0.095927494
0.041342796 0.004740177 0.10399782
0.04268006 0.0035918618 0.10760357
0.043413963 0.0018319688 0.10910314
0.044004566 -0.00019845091 0.1102133
0.044327993 -0.0020886569 0.11069818
