ply
format ascii 1.0
comment Automatically gnerated by model-converter
element vertex 764
property float x
property float y
property float z
element face 0
property list uchar int vertex_indices
end_header
-0.029437308 0.018628008 0.088482077
-0.030019415 0.017469627 0.090140856
-0.030264409 0.016075696 0.090915549
-0.030501543 0.014578663 0.091537294
-0.030924059 0.013102507 0.092585425
-0.03135835 0.011622401 0.093599101
-0.031528375 0.010059945 0.094223317
-0.031721812 0.0085927974 0.094801918
-0.032272156 0.0070252576 0.096059963
-0.032827931 0.0053733313 0.097888648
-0.033759287 0.0036014143 0.10003831
-0.034262539 0.0019149394 0.1011497
-0.034389432 0.00018722614 0.10157567
-0.034725208 -0.0014252896 0.10232777
-0.035305207 -0.0031281397 0.10351183
-0.036111749 -0.0048725895 0.10535752
-0.037302687 -0.0064899564 0.10847438
-0.02849955 0.018926855 0.089762803
-0.028864854 0.017737134 0.091065739
-0.029054018 0.016243251 0.091618068
-0.029300148 0.014724645 0.092223978
-0.029763157 0.013229025 0.093338812
-0.030121331 0.011698971 0.094180603
-0.030402741 0.010210258 0.095201337
-0.030734828 0.0086517745 0.095976195
-0.031175124 0.0071086051 0.097242262
-0.031850825 0.0055000943 0.099025241
-0.032569604 0.0037160825 0.10096851
-0.033006633 0.0020245641 0.10216647
-0.033108519 0.00027992112 0.10258553
-0.033517308 -0.0014252127 0.10353199
-0.034140755 -0.0031874849 0.10489014
-0.034884185 -0.0049982196 0.10659198
-0.035708615 -0.0067872211 0.10857493
-0.026730465 0.018737067 0.088720181
-0.027262098 0.017728679 0.090685148
-0.027781857 0.016263641 0.092155228
-0.028058007 0.014815529 0.093010145
-0.028423075 0.013366467 0.093988223
-0.028664769 0.011802643 0.094688699
-0.028939905 0.010248443 0.095634645
-0.029252317 0.0087625437 0.096485828
-0.029857823 0.0071769664 0.09830333
-0.030609887 0.0055747252 0.10014985
-0.031135358 0.0038412503 0.10179847
-0.031643117 0.0020032402 0.10320325
-0.031840429 0.00027324521 0.10409033
-0.032193598 -0.0014862783 0.10492999
-0.03268596 -0.0032584908 0.10603742
-0.033521065 -0.0051109145 0.10790962
-0.034045088 -0.0069277274 0.10931031
-0.025096423 0.018658905 0.0881755
-0.025671745 0.017689816 0.090291125
-0.02644789 0.0164425 0.092701779
-0.026815072 0.014956337 0.093948273
-0.027266817 0.013520145 0.095395054
-0.027457305 0.01192088 0.095858576
-0.027649997 0.010345737 0.096447087
-0.027837115 0.0088246476 0.097297707
-0.028368577 0.0072503564 0.098914787
-0.029183768 0.0056771177 0.10130947
-0.029660723 0.0039002564 0.10255699
-0.030005144 0.0021172052 0.10372357
-0.030445605 0.00017658031 0.10519349
-0.030808683 -0.0015607473 0.10635585
-0.03116797 -0.0033252007 0.10717358
-0.031775407 -0.0050350961 0.10843892
-0.032378682 -0.0068895544 0.11007819
-0.023586731 0.018626873 0.088084031
-0.024199014 0.017705851 0.09040036
-0.024948414 0.016438227 0.092663366
-0.025198846 0.01506742 0.093939569
-0.025679443 0.013536101 0.095392479
-0.025860145 0.011953842 0.096034333
-0.026267944 0.01038715 0.09730699
-0.026506677 0.0089227523 0.098490078
-0.026853847 0.0073082352 0.099426119
-0.027496981 0.0057059324 0.10159373
-0.027921047 0.0039805064 0.10258749
-0.028112909 0.0021217606 0.1038161
-0.028892717 0.00024626004 0.10576599
-0.029275186 -0.0016123004 0.10725277
-0.029647657 -0.0033974378 0.10819897
-0.030070955 -0.0051171386 0.10921936
-0.030488425 -0.0068828071 0.1103833
-0.021993156 0.018499713 0.087651555
-0.022806192 0.017568278 0.090476391
-0.023308702 0.016356725 0.092530255
-0.023505453 0.01497444 0.093356606
-0.02390015 0.013524829 0.094855043
-0.024214273 0.01192877 0.096071879
-0.02469281 0.01042048 0.097836997
-0.025012538 0.0088921552 0.098849973
-0.025260563 0.0073093129 0.099779709
-0.025673597 0.0056990595 0.10114716
-0.026000115 0.0040088153 0.10225944
-0.026601477 0.0022144349 0.10390515
-0.027062602 0.00014315762 0.10597693
-0.02753543 -0.0016545049 0.10754434
-0.027908838 -0.0035332785 0.10858656
-0.028228553 -0.0053741765 0.10952085
-0.028579647 -0.0071796952 0.11047581
-0.02029585 0.018297758 0.087087637
-0.021199022 0.017480143 0.090166834
-0.021624936 0.016318654 0.092182245
-0.021932109 0.014971603 0.093474613
-0.022238565 0.013560806 0.094683338
-0.022636685 0.011897217 0.096168777
-0.023122154 0.010495495 0.098133094
-0.023383779 0.008969503 0.099248199
-0.023565184 0.0073649728 0.09996287
-0.023820029 0.0057258914 0.10086969
-0.024096271 0.0040552539 0.10187255
-0.024590271 0.0022607731 0.10378511
-0.025173722 0.00025213209 0.1059478
-0.025713088 -0.0017430814 0.10762041
-0.026101584 -0.003604167 0.1088314
-0.026385225 -0.0054537948 0.10985462
-0.026905741 -0.0070686659 0.11039188
-0.018756054 0.018182921 0.087157388
-0.01957937 0.017386513 0.089839121
-0.020017312 0.01626302 0.092012042
-0.020281557 0.014919006 0.0932568
-0.020659733 0.013552757 0.094881305
-0.020954462 0.011943708 0.096047527
-0.021387251 0.010484275 0.097855121
-0.021648093 0.0089947035 0.09921271
-0.021792181 0.0073592599 0.09992316
-0.022053835 0.005738437 0.10088604
-0.022255353 0.0040357677 0.10159919
-0.022626319 0.0023528692 0.10328584
-0.023152209 0.00049664112 0.10538031
-0.023729769 -0.0015775811 0.10722572
-0.024065918 -0.003533698 0.10838649
-0.024385847 -0.0055082783 0.10946263
-0.024621883 -0.0073480629 0.11036573
-0.017174303 0.018123523 0.086876965
-0.017716509 0.017219897 0.089206339
-0.018267513 0.016181809 0.091482
-0.018622248 0.014927622 0.093245875
-0.019012303 0.013561918 0.094933164
-0.019228293 0.011900058 0.095857446
-0.019559818 0.01041737 0.097396062
-0.019939544 0.009032835 0.099274571
-0.02013145 0.0074084162 0.10006757
-0.020300686 0.0056955107 0.10066478
-0.020461193 0.0040360622 0.10144685
-0.020724832 0.0023760519 0.10283614
-0.021018419 0.00061039887 0.10429334
-0.021415082 -0.0013258438 0.1058258
-0.021837624 -0.0034268703 0.10738992
-0.022317386 -0.0054700122 0.10843373
-0.022465057 -0.007402071 0.10933284
-0.022595568 -0.0093197431 0.11023057
-0.015605264 0.017922816 0.086106253
-0.016064948 0.017081035 0.088556362
-0.016472465 0.015993702 0.090571232
-0.016893722 0.014840027 0.09267624
-0.017316607 0.013523805 0.094686471
-0.017514436 0.0119924 0.095890051
-0.017838433 0.010391464 0.097193096
-0.018227712 0.0090435857 0.099106839
-0.018373828 0.0074344904 0.0998493
-0.018467755 0.0056731064 0.10037711
-0.018669998 0.0040302927 0.10128342
-0.018815384 0.0023913785 0.10221617
-0.01907135 0.00062029337 0.10362069
-0.019342822 -0.0012276953 0.10465545
-0.019534544 -0.0031240914 0.10574301
-0.019785402 -0.0050426802 0.10669866
-0.020074133 -0.0071065706 0.10759125
-0.020342057 -0.0090463855 0.10872102
-0.020705855 -0.011093116 0.11046433
-0.01398912 0.017778035 0.085384297
-0.014458633 0.016921347 0.087801846
-0.014751255 0.015795824 0.089797147
-0.01516832 0.014733525 0.092271731
-0.0155129 0.013383525 0.094177022
-0.015756134 0.011916926 0.09566983
-0.01608453 0.010439788 0.097190519
-0.016429581 0.0089916696 0.098874681
-0.016579748 0.0073919869 0.099747748
-0.016699971 0.0057151861 0.10032038
-0.016821974 0.0040559719 0.10100921
-0.016923797 0.0023646356 0.10170825
-0.017147162 0.0006339775 0.10279448
-0.017235598 -0.0011791379 0.10328766
-0.017312661 -0.0030275314 0.10384588
-0.017445068 -0.0048825224 0.10460504
-0.017820623 -0.0069749771 0.10603165
-0.018003464 -0.0089479496 0.10727206
-0.018341226 -0.011015794 0.10916775
-0.018465043 -0.012664796 0.11082159
-0.0124535 0.017712861 0.084963181
-0.012933833 0.016839221 0.087571452
-0.013103922 0.015697573 0.089244409
-0.013413508 0.014684214 0.091838062
-0.013712279 0.013339652 0.093634316
-0.013877852 0.011909717 0.095104905
-0.013986603 0.010449547 0.096590271
-0.014296789 0.0089879329 0.098179931
-0.014741329 0.0073948699 0.099330587
-0.014805731 0.0057783154 0.10003136
-0.014983486 0.0040988443 0.10078225
-0.015016448 0.0023427792 0.10107348
-0.01511832 0.00061724153 0.10165233
-0.015234303 -0.0011531393 0.10227762
-0.015287296 -0.0029745758 0.10242555
-0.015409902 -0.0048190569 0.10323215
-0.015683336 -0.0068211126 0.10455891
-0.015871328 -0.0087632112 0.10590391
-0.016182913 -0.010756464 0.10783425
-0.01657569 -0.012935666 0.11047774
-0.010998746 0.017634707 0.084672225
-0.011278906 0.016731487 0.086757278
-0.011501857 0.015567199 0.088767486
-0.011642539 0.01449834 0.090791151
-0.01185288 0.013338476 0.09299505
-0.011870404 0.011841554 0.093859703
-0.011876653 0.01038011 0.094888517
-0.011809253 0.0089817961 0.096218751
-0.011748987 0.0075642438 0.097601008
-0.012840228 0.0056942246 0.098954561
-0.013101268 0.0040232591 0.10011113
-0.013195003 0.0023358244 0.10073539
-0.013213423 0.0005701357 0.10105209
-0.013252785 -0.0011981239 0.1013729
-0.013409317 -0.0029815255 0.10185095
-0.013563851 -0.0048230439 0.10270614
-0.013645168 -0.0067189553 0.10342547
-0.013828661 -0.0085656157 0.10469887
-0.014129704 -0.010594878 0.1067407
-0.014503009 -0.012752071 0.10929274
-0.0095366792 0.017505763 0.084183358
-0.0097680416 0.01671207 0.08651022
-0.0099380972 0.015539599 0.088396855
-0.010084727 0.014296032 0.090079247
-0.010027667 0.013159291 0.09164815
-0.01005747 0.011789821 0.092808615
-0.0099667055 0.010317346 0.093566899
-0.0098028006 0.0088726312 0.094443744
-0.0096788994 0.0074735957 0.095548162
-0.0096991355 0.0060324744 0.09688742
-0.010499118 0.004209069 0.099097858
-0.011231805 0.0023345671 0.099776594
-0.011353253 0.00060064486 0.10052678
-0.011457622 -0.0011617365 0.10080184
-0.011539306 -0.0029635896 0.1013746
-0.011720859 -0.00483681 0.10241329
-0.011818578 -0.0066360413 0.10315286
-0.011862906 -0.0084963776 0.1038697
-0.012064468 -0.010455658 0.10588505
-0.012419835 -0.012651741 0.10828452
-0.0080858074 0.01747013 0.084087531
-0.0082370071 0.016613374 0.086117928
-0.0083725504 0.015479817 0.087797119
-0.0085276074 0.0142242 0.089450379
-0.0084800697 0.012992532 0.090815248
-0.0083320343 0.0115017 0.091191724
-0.0081118653 0.010190605 0.091979368
-0.0080248834 0.008763067 0.09275662
-0.0079919706 0.007324826 0.093716595
-0.0081356536 0.0057570769 0.09472947
-0.0083642094 0.0041909495 0.096293265
-0.0088470521 0.0023973403 0.098003913
-0.0093625497 0.00060576072 0.099673887
-0.0096580698 -0.0012022904 0.1002413
-0.009790424 -0.0029425853 0.101177
-0.0098705405 -0.0047296363 0.10206856
-0.0099100405 -0.0065319104 0.10260888
-0.010007015 -0.0083975345 0.10368619
-0.010247859 -0.010398414 0.10550889
-0.010378278 -0.012450981 0.10755008
-0.010704179 -0.014573617 0.11050476
-0.0066807392 0.017398651 0.083751072
-0.0067261868 0.016488413 0.085420755
-0.006853528 0.015385917 0.087175211
-0.0069607092 0.014105099 0.08852302
-0.0069600636 0.012790252 0.089715683
-0.0068077373 0.011460405 0.090328337
-0.0064432497 0.0099023514 0.090730114
-0.0063803345 0.0084569745 0.091402835
-0.0064969092 0.0070603786 0.092487209
-0.006611366 0.0055361673 0.093328928
-0.0067980994 0.0039372709 0.094409793
-0.0070543997 0.0022477318 0.095963088
-0.0075252922 0.0005017018 0.097923837
-0.0077691336 -0.0012390364 0.099608566
-0.0079889577 -0.0029302974 0.10103619
-0.008035038 -0.0046279267 0.10192088
-0.008073236 -0.0063864367 0.10252843
-0.0081697184 -0.0082519028 0.10358446
-0.0083245958 -0.010247937 0.10538808
-0.0084950233 -0.01237517 0.10730412
-0.0087728117 -0.014701461 0.11050597
-0.0052105455 0.017334241 0.083101109
-0.0052459702 0.016355319 0.084699077
-0.0053224652 0.015234326 0.086301589
-0.0053937321 0.013959726 0.08766847
-0.0054443704 0.012605026 0.088928191
-0.0053938705 0.011127978 0.089394078
-0.0051450228 0.009710713 0.089820733
-0.0050923218 0.008220622 0.090210525
-0.0051570581 0.006714191 0.090740513
-0.0052445967 0.0052199887 0.091759274
-0.0054135604 0.0035793916 0.092973503
-0.0055639605 0.00197389 0.094310662
-0.0057057326 0.0003112443 0.096243616
-0.0059693705 -0.0012476648 0.099188829
-0.0062044016 -0.0029411157 0.10092972
-0.0062874363 -0.0045881396 0.10193351
-0.0062833363 -0.0063130242 0.10256221
-0.0063553578 -0.0080993972 0.10387332
-0.0064643389 -0.010184769 0.10534144
-0.00662588 -0.012331073 0.10750986
-0.0068152077 -0.014689058 0.11052666
-0.0037795789 0.016195182 0.083862723
-0.0038408698 0.015190961 0.085985745
-0.0038778568 0.013951594 0.087413314
-0.0039037471 0.012593954 0.08865779
-0.0038833253 0.011114505 0.089087925
-0.003827558 0.0096115043 0.089344837
-0.0038233952 0.0080442323 0.089396824
-0.0038855816 0.0065104976 0.089621366
-0.0039564635 0.0049901049 0.090555722
-0.0039271417 0.0033268385 0.092038377
-0.0040365122 0.0016641473 0.093285711
-0.0041356854 7.9471508e-06 0.095118344
-0.0042404895 -0.0013000081 0.098692696
-0.0044418134 -0.0029497576 0.10047683
-0.004489539 -0.0045245414 0.10138737
-0.0045476044 -0.0061935864 0.10248804
-0.0045751974 -0.0080311106 0.10381752
-0.0046213412 -0.010149681 0.10540175
-0.0047431605 -0.012292292 0.10773725
-0.0048668935 -0.01468114 0.110648
-0.0021873696 0.016296061 0.083783864
-0.0022806226 0.015278417 0.085898059
-0.0023772654 0.014001172 0.087486404
-0.0023829229 0.012603696 0.088384062
-0.002366983 0.011149792 0.089013176
-0.0023556196 0.00956348 0.089182252
-0.0023570268 0.0079268796 0.089377915
-0.002411501 0.0063577959 0.08946115
-0.0024386303 0.0049309941 0.090624713
-0.0023634742 0.0030757218 0.092048692
-0.0023823745 0.0014706937 0.093194779
-0.0024655423 -0.00016501626 0.094689561
-0.0025610151 -0.0013809462 0.098131575
-0.0026883228 -0.0029467643 0.10036525
-0.0027114782 -0.0045832706 0.10139739
-0.0027527751 -0.0062252624 0.1023856
-0.0027879875 -0.0079333798 0.10395191
-0.0028258694 -0.01003528 0.10533349
-0.0028379533 -0.012299649 0.1077053
-0.0029894433 -0.014743251 0.11031426
-0.00076821114 0.016309869 0.08384158
-0.00082834692 0.015244747 0.085788375
-0.00084251817 0.014037175 0.087556388
-0.00087708344 0.012664614 0.088442359
-0.00085573547 0.011201893 0.089131702
-0.00086514666 0.009652885 0.089444585
-0.00089418973 0.0079179644 0.089811153
-0.00094529205 0.0063815477 0.089865962
-0.00094280696 0.0048768268 0.091047897
-0.00083218262 0.0032588022 0.092253225
-0.00079265022 0.0016201089 0.093565846
-0.00078974596 -2.7587474e-05 0.095177167
-0.00099322507 -0.0014742183 0.098127036
-0.00095739159 -0.0029226327 0.10027083
-0.00097034261 -0.0045704875 0.10153517
-0.00095412884 -0.0062817175 0.10269222
-0.0010381955 -0.0080875788 0.10381899
-0.0010469246 -0.010117597 0.10590464
-0.0010426261 -0.012500678 0.1080592
-0.00094604061 -0.014985557 0.11063081
0.00065375907 0.016311439 0.083781559
0.00064336873 0.015233306 0.08585166
0.00063181046 0.014060196 0.087365318
0.00062287436 0.012694134 0.088720406
0.00064075099 0.01117152 0.089391732
0.0005064031 0.009527373 0.089922294
0.00041414989 0.0080098866 0.090723231
0.00037073811 0.0064756045 0.091444289
0.00049955579 0.0049747366 0.092641173
0.00066424857 0.0033958448 0.093658463
0.00078368107 0.001751002 0.094360855
0.00078926482 0.00011188464 0.095758164
0.00075876678 -0.0013724699 0.098392646
0.00075123843 -0.0029681617 0.10013344
0.00075112319 -0.0045880905 0.10156487
0.00075673979 -0.0063722471 0.10261969
0.00074105443 -0.008227086 0.10361626
0.00077720218 -0.010213493 0.10585673
0.00084841442 -0.01249573 0.10801483
0.00094755525 -0.014982657 0.11047543
0.0020639932 0.016331837 0.083838002
0.0021078641 0.01521995 0.085859517
0.0021230872 0.014063557 0.087559439
0.0021162709 0.012762831 0.088960166
0.0019925343 0.011197797 0.089546839
0.00200013 0.009483639 0.090489806
0.0020572829 0.0081275392 0.09220414
0.0020550013 0.0066381349 0.093036875
0.0021730254 0.0050847308 0.093877802
0.0022534195 0.0035054768 0.094659459
0.0023208812 0.0019286517 0.095372569
0.0023196666 0.00022767467 0.096694576
0.00250632 -0.0013240721 0.098940257
0.0025389574 -0.0030342139 0.10013986
0.0025358578 -0.0047318611 0.10118492
0.0024848156 -0.0064625313 0.10256824
0.0025365138 -0.0083064974 0.10350146
0.0026556992 -0.010283993 0.10563248
0.0027611461 -0.012522524 0.10790014
0.0028536971 -0.01497117 0.11022551
0.0034745895 0.016309976 0.083713767
0.0035591349 0.015138194 0.085668481
0.0035899263 0.013992205 0.087662363
0.0035869696 0.01263666 0.088728198
0.0035120968 0.011196166 0.089452505
0.0034911831 0.0095518833 0.090552897
0.003522804 0.0081723994 0.092331958
0.0036328697 0.0066857713 0.093461659
0.0037379106 0.0051911534 0.094269728
0.0037487348 0.0037281362 0.095221733
0.0038505579 0.0021009205 0.096108208
0.0039717193 0.00037875647 0.097798242
0.0042496103 -0.0014270366 0.099378548
0.0043368082 -0.0031173047 0.10046798
0.0043151287 -0.0048105932 0.10137131
0.0043137518 -0.0065420926 0.10255812
0.004326389 -0.0084079479 0.10364805
0.0044185978 -0.010435099 0.10574605
0.0046438459 -0.012651853 0.10800645
0.0048504192 -0.014940594 0.1105365
0.0049035603 0.016267462 0.083882381
0.0049786986 0.015118039 0.085483104
0.0050220183 0.01395609 0.087356569
0.005067776 0.012610177 0.088289482
0.0050312058 0.011225737 0.089494487
0.005045834 0.0096918222 0.090737721
0.0050686544 0.0082873739 0.091978875
0.0051529805 0.0068705413 0.093675254
0.0053051537 0.0053134558 0.094583835
0.005369057 0.0038702795 0.095811049
0.0054236546 0.0022617804 0.097437919
0.0056713222 0.00044288114 0.098777807
0.0060665303 -0.0014930595 0.099846125
0.006099154 -0.0031065419 0.10096136
0.0061135641 -0.004871573 0.1016454
0.006136359 -0.0066234605 0.10271054
0.0061142702 -0.008464492 0.10407704
0.0062252048 -0.010701225 0.1056821
0.0065643618 -0.012979498 0.10807049
0.0063345869 0.016246048 0.084267901
0.0064190098 0.015089972 0.085413877
0.0064904507 0.013868461 0.086932187
0.0065204045 0.012515082 0.08777357
0.006563315 0.011202978 0.089276716
0.0066082925 0.0097573371 0.090451803
0.0066554521 0.0083516922 0.091886934
0.0067360649 0.0069556395 0.093508435
0.0069355671 0.0054743527 0.094918651
0.0071047242 0.0037043429 0.096494312
0.0072732256 0.0021814507 0.098242647
0.0076672119 0.00014523668 0.099242775
0.0077903859 -0.0015145251 0.10024626
0.0078878644 -0.0032050762 0.1013451
0.0079445606 -0.0049319061 0.10228632
0.0079995575 -0.006778301 0.10324718
0.0079671146 -0.0087449101 0.10445038
0.0081956447 -0.01108514 0.10614128
0.0084935376 -0.013451995 0.10810008
0.0087646458 -0.015479479 0.10979739
0.0076504494 0.017391996 0.083308131
0.0077755257 0.016292669 0.084599522
0.0078772885 0.015111536 0.085609214
0.0079781363 0.013890819 0.086952956
0.0079761478 0.012502434 0.08760554
0.0080443385 0.011154299 0.089184746
0.0081055394 0.0097531923 0.090309321
0.0082090381 0.0084089233 0.091518511
0.0083489858 0.007127505 0.094030939
0.0085785593 0.0054276651 0.095073801
0.0087938197 0.0037293247 0.096718225
0.0090901518 0.0020385968 0.098750845
0.009339788 0.00019043362 0.099655758
0.0095329597 -0.001536432 0.10067521
0.0097020292 -0.0031542112 0.10198548
0.0097825399 -0.0050322973 0.10258543
0.0099290236 -0.0070672271 0.10332792
0.010027707 -0.0091072143 0.10475698
0.010192015 -0.011435806 0.10639066
0.010362686 -0.013904253 0.10789916
0.0090592237 0.017421767 0.083413637
0.0092036186 0.016320486 0.084697525
0.009283133 0.015088725 0.085638188
0.0093644224 0.013904549 0.086962496
0.0094781867 0.012538942 0.088046792
0.0095658485 0.011192498 0.089303584
0.0096528363 0.00977558 0.090237749
0.0097761913 0.0083227476 0.091306897
0.010017855 0.0071132783 0.094206341
0.010246465 0.0054078245 0.094999612
0.010627913 0.0037777023 0.097427737
0.01079762 0.002067633 0.098919968
0.010964925 0.00025740716 0.099670742
0.011163267 -0.0014823191 0.10077655
0.011466075 -0.0033243344 0.1020043
0.011589675 -0.0051607272 0.10264718
0.011817483 -0.0071786672 0.10380658
0.011995529 -0.0092625921 0.10522717
0.012128138 -0.011734834 0.10695407
0.012231218 -0.014186195 0.10832686
0.010452236 0.017429659 0.083459937
0.010575151 0.016319116 0.084392779
0.010621968 0.015048852 0.085348856
0.010803835 0.013872385 0.086712888
0.010923785 0.012566471 0.087696776
0.011081866 0.011244547 0.089111757
0.011181363 0.0098551118 0.090186851
0.011311611 0.0084391921 0.091267769
0.011643689 0.0070434919 0.093805096
0.011946727 0.005430234 0.09539084
0.012260436 0.0038446754 0.097607144
0.012515747 0.0021135893 0.099038105
0.012724552 0.00037216336 0.099952179
0.01289022 -0.0014245451 0.10091966
0.013190971 -0.0032434778 0.10204347
0.013440585 -0.0051404568 0.10298391
0.013701528 -0.0072388833 0.10437836
0.013845204 -0.009525037 0.10639434
0.014052531 -0.011995048 0.10793441
0.014188117 -0.014148671 0.10890448
0.011947256 0.017578708 0.08412748
0.012025602 0.016359579 0.084600801
0.012050999 0.015079986 0.085365803
0.012276887 0.013879566 0.086812074
0.012420278 0.01256492 0.087607598
0.012563102 0.011216908 0.088918538
0.012677068 0.0098392813 0.089949475
0.012795138 0.0084272008 0.090946529
0.01312486 0.0071382053 0.093569341
0.013614863 0.0054204816 0.095498238
0.013929258 0.0038467507 0.097519211
0.014259235 0.0021982518 0.09926801
0.014449632 0.00050891802 0.10031783
0.014713518 -0.0012385849 0.10090004
0.014983418 -0.0031251036 0.10229865
0.015245834 -0.0050998245 0.10308673
0.015604196 -0.0073905436 0.10528917
0.015807609 -0.0098838888 0.1077505
0.016167815 -0.012192772 0.10923737
0.013345452 0.017590235 0.084154288
0.013432365 0.016413659 0.084832816
0.013514514 0.015120593 0.085378499
0.013795013 0.013932198 0.087191422
0.013976018 0.012538963 0.088000139
0.014062671 0.01123786 0.089027423
0.014198351 0.0098736347 0.089984064
0.014325761 0.0084480462 0.091035036
0.014636276 0.0070859098 0.092850803
0.015240089 0.0053655503 0.095507339
0.015773515 0.0038780037 0.098216679
0.016078182 0.0022924116 0.099592338
0.016340366 0.00052889227 0.10076283
0.016453386 -0.0012440721 0.10122695
0.016762588 -0.0030459828 0.10270907
0.01722856 -0.0052125227 0.1043503
0.017671163 -0.0074280185 0.10690986
0.018035895 -0.0099357047 0.10910211
0.014832409 0.017766352 0.084673896
0.014957206 0.016593178 0.085407614
0.015087615 0.015284036 0.086145975
0.015326591 0.013913324 0.087122671
0.015480785 0.012588696 0.088089658
0.015654325 0.011281371 0.089273727
0.015767144 0.0099157733 0.090246278
0.016003834 0.0085414717 0.091768739
0.016473653 0.0071290712 0.093518146
0.016885426 0.0054358227 0.095339932
0.017511999 0.0038739595 0.098235399
0.01781223 0.0022890535 0.09964075
0.018085037 0.00058148213 0.10083306
0.018301805 -0.0011051764 0.10183798
0.018616577 -0.0030222863 0.10336332
0.019269706 -0.0052103857 0.10567896
0.020020012 -0.0075516591 0.10925895
0.016378156 0.017963037 0.085494567
0.016519991 0.016717702 0.086087268
0.016653824 0.015351334 0.086681345
0.016916583 0.014024691 0.087482322
0.0170372 0.012644259 0.088254018
0.017270773 0.011355957 0.089750039
0.017336185 0.0099754728 0.090668653
0.017720663 0.0085393664 0.092043681
0.01828674 0.0071247799 0.094235689
0.018525954 0.0055151314 0.095393714
0.019164238 0.0039190741 0.097984263
0.019512149 0.0023113183 0.099440652
0.019848081 0.00070454245 0.1009738
0.020281351 -0.0010909198 0.10267919
0.020712073 -0.0030427812 0.10461609
0.021473822 -0.0051888133 0.10735307
0.022230683 -0.0073004556 0.11048808
0.017949979 0.018059547 0.086105568
0.018097419 0.016794581 0.086644436
0.018200592 0.015420191 0.087062432
0.01848591 0.014118888 0.088032199
0.018690352 0.012724181 0.088931794
0.019048102 0.01143525 0.090268969
0.019061184 0.0099738801 0.090862279
0.019260054 0.0085079668 0.091988166
0.020004164 0.0071328913 0.09475858
0.020308191 0.0055686829 0.096036801
0.021046839 0.00396782 0.098596938
0.021396272 0.0023436532 0.10006063
0.021850504 0.00062736587 0.10152603
0.022335891 -0.0012701484 0.10348987
0.023206252 -0.0032288047 0.10620152
0.023659006 -0.0051652954 0.10890856
0.019372199 0.018073386 0.086004513
0.019665205 0.016844369 0.086955463
0.019854728 0.015511146 0.087600325
0.020118058 0.014219982 0.088476697
0.020357754 0.012828021 0.089315921
0.02066364 0.011418338 0.090349868
0.020717973 0.0099449969 0.091065191
0.02090789 0.0085215573 0.092149163
0.021668784 0.0071487564 0.09500747
0.022014827 0.0056395805 0.096370797
0.022895779 0.0039755736 0.098939118
0.023243037 0.0023491202 0.10041501
0.023797362 0.00060202868 0.10225125
0.024538668 -0.0013307071 0.10441813
0.025291022 -0.0031889193 0.10713409
0.026018106 -0.0052884586 0.11039573
0.020791299 0.017983716 0.085760583
0.021200918 0.016852395 0.087008387
0.021541319 0.015564126 0.087893162
0.021752451 0.01425384 0.088766229
0.021897575 0.012813368 0.089250363
0.022164132 0.011380773 0.090085893
0.022274143 0.0098863876 0.09089624
0.022661048 0.0085165928 0.092568811
0.023208563 0.0070877476 0.094563092
0.023675552 0.0055083776 0.095997392
0.024561036 0.0039755898 0.098738422
0.025397137 0.0023326378 0.10175399
0.025837483 0.00054903519 0.10305461
0.026616621 -0.0013146071 0.10513801
0.027538424 -0.0032805263 0.10863482
0.022426095 0.017986803 0.086080854
0.022720102 0.01681197 0.086972833
0.023082679 0.015589123 0.08798184
0.023286114 0.014191671 0.088656597
0.023404848 0.012750933 0.089067839
0.023731313 0.011370571 0.090057456
0.024458071 0.010007997 0.091814645
0.024686863 0.0085981423 0.093300357
0.025010264 0.0069559521 0.094580069
0.025943621 0.0055112069 0.097236531
0.026735334 0.0040653709 0.099775815
0.027784999 0.0023093059 0.10303559
0.028313846 0.00056598155 0.10456752
0.02881667 -0.0013130584 0.1064157
0.029795449 -0.0034187106 0.1100791
0.023975506 0.017954271 0.086142193
0.024333388 0.01682985 0.08717639
0.024636739 0.015541323 0.088081774
0.024810579 0.01414341 0.088559714
0.0249593 0.012723737 0.089064492
0.025382791 0.011341961 0.090016289
0.025988891 0.010039043 0.091408691
0.026225769 0.0086140336 0.092386069
0.026676306 0.0071231058 0.094246051
0.027792466 0.005568187 0.097456432
0.028907045 0.0039926074 0.10093469
0.030246815 0.002327249 0.10433168
0.030693419 0.00051453871 0.10622209
0.0311285 -0.0013261288 0.10794249
0.031937356 -0.0032886841 0.11066723
0.025409115 0.017905869 0.085846732
0.025847708 0.01676875 0.087061461
0.026164197 0.015484 0.088036899
0.026341882 0.014145032 0.088527462
0.026505952 0.012691791 0.089014037
0.026887099 0.011267806 0.08953013
0.027184247 0.0099284619 0.090377398
0.027538519 0.0085145997 0.091522512
0.027930017 0.0070491824 0.09294986
0.02929979 0.0055736052 0.096788386
0.031265461 0.0040347702 0.10229658
0.032342526 0.0023184879 0.10538433
0.032689696 0.00049647277 0.10673394
0.033388181 -0.0013237387 0.10880814
0.026954485 0.017962272 0.086191863
0.027322041 0.016797554 0.087180546
0.027655848 0.015469418 0.087873414
0.027960872 0.014174115 0.088667655
0.028219581 0.012610379 0.088910029
0.028382667 0.011161618 0.089297587
0.028563793 0.0097957813 0.089958152
0.02901572 0.0084452061 0.091321312
0.030116676 0.007120966 0.094493766
0.030966096 0.0055752728 0.096881871
0.033732459 0.0039409105 0.10377459
0.034557088 0.0023229884 0.10658391
0.035084426 0.00050570128 0.1082094
0.035820417 -0.0014623773 0.11018182
0.028107969 0.017845164 0.085359556
0.028805436 0.016824873 0.087184821
0.029171668 0.015530776 0.087952293
0.029443449 0.01408595 0.088388832
0.029626554 0.012548837 0.088606197
0.029779939 0.011086882 0.089031427
0.029896513 0.0096797091 0.089548785
0.030504928 0.0083428578 0.091297724
0.03161465 0.0070312824 0.094251806
0.032254475 0.0055707633 0.095955124
0.03641006 0.0039989154 0.10635376
0.037141287 0.002065052 0.10810885
0.037570306 0.00013575299 0.10919822
0.038551029 -0.00189751 0.11048543
0.029012942 0.017603373 0.083838007
0.029940694 0.016726538 0.086205771
0.030449206 0.015409202 0.087354616
0.03085135 0.014051406 0.088193747
0.031052204 0.0125598 0.088455886
0.031227314 0.011095508 0.088936837
0.03157946 0.0096255575 0.089946011
0.031874117 0.0082194597 0.090785054
0.032767182 0.0068485401 0.093117398
0.034869787 0.0054659836 0.09808311
0.039046276 0.003857462 0.10735672
0.039597046 0.0019701286 0.10883629
0.040254777 -4.8655272e-05 0.10984329
0.040691517 -0.0017681798 0.11073556
0.030817224 0.016464084 0.084676503
0.031511957 0.015221305 0.086174796
0.032072796 0.013903159 0.087203106
0.032381429 0.012470822 0.087983129
0.032630696 0.010994745 0.088663537
0.033050402 0.0095178668 0.089820685
0.033504441 0.008133973 0.091080484
0.034350385 0.0067357648 0.093285279
0.039049556 0.0053475045 0.10287123
0.04095533 0.0037974695 0.10734409
0.041752252 0.0019468521 0.10908476
0.042288016 -9.514487e-05 0.10989403
0.043077819 -0.0018159739 0.11074778
0.032424096 0.015132154 0.084381482
0.033001041 0.013767627 0.085551394
0.033760486 0.012427914 0.087545567
0.034172284 0.010875926 0.088514067
0.034513083 0.0094155272 0.089519116
0.035024002 0.0080789973 0.090847797
0.036920068 0.0066515204 0.095432529
0.041148123 0.0052989173 0.10361223
0.042677433 0.0038643249 0.10708223
0.043472068 0.0020777525 0.10845879
0.044129111 -2.33109e-06 0.10944755
0.044518773 -0.0019230783 0.10990838
