ply
format ascii 1.0
comment Automatically gnerated by model-converter
element vertex 764
property float x
property float y
property float z
element face 0
property list uchar int vertex_indices
end_header
-0.029308572 0.018144986 0.087974094
-0.029834907 0.016787188 0.089503209
-0.029994365 0.015281543 0.090112436
-0.030173388 0.013692919 0.090513547
-0.030517057 0.012155764 0.091328412
-0.031071505 0.010914715 0.09247989
-0.03148359 0.0096744169 0.093532607
-0.031863023 0.0084378859 0.094395394
-0.032694332 0.0072355528 0.095950288
-0.033682872 0.0061512081 0.098565293
-0.034717171 0.0044371791 0.10141383
-0.035146817 0.0026520315 0.10242623
-0.035234733 0.0008864115 0.1025611
-0.035270747 -0.00090230167 0.10281422
-0.035574107 -0.0028712957 0.10354833
-0.036156658 -0.0049881918 0.10505461
-0.03701004 -0.0072520855 0.10788703
-0.028344604 0.018320465 0.08916267
-0.028633553 0.016968001 0.090349468
-0.02876317 0.015409099 0.09076862
-0.028935227 0.013797104 0.091138639
-0.029338995 0.012304891 0.092022864
-0.029854088 0.011011598 0.093126009
-0.030397487 0.0099003573 0.094547271
-0.030982557 0.008680835 0.095633117
-0.031664055 0.0074780916 0.097267817
-0.032561896 0.0062285369 0.099597178
-0.03334274 0.0043259445 0.10199595
-0.03376487 0.0025352681 0.103226
-0.033872924 0.0008575608 0.10338069
-0.033974063 -0.0010843857 0.10390745
-0.034378339 -0.0031410704 0.1048602
-0.034816076 -0.0053106613 0.10615799
-0.035516446 -0.0074105836 0.10800177
-0.026588057 0.018345167 0.088195466
-0.027115956 0.017095693 0.090046018
-0.027487749 0.015400098 0.091267479
-0.027657589 0.013836032 0.091853298
-0.028039223 0.012494232 0.092781273
-0.028437963 0.011121649 0.093740421
-0.028943018 0.0098942118 0.09504961
-0.029564426 0.0087954691 0.096236651
-0.030363936 0.0075891288 0.098440983
-0.031147919 0.006235768 0.10057858
-0.031737615 0.0042859091 0.10236402
-0.032257392 0.0023796162 0.1039575
-0.032329673 0.00052673026 0.10464181
-0.032511586 -0.0013546076 0.1050507
-0.032897962 -0.0032917465 0.10597183
-0.033391375 -0.0054580167 0.10735627
-0.033829077 -0.0074631876 0.10868853
-0.02493124 0.018401758 0.087696217
-0.025570255 0.017228597 0.089784843
-0.026223998 0.015597309 0.09181805
-0.026354989 0.013955493 0.092638955
-0.026919429 0.012793046 0.094103967
-0.027251554 0.01136272 0.094865524
-0.027643165 0.010007087 0.09584448
-0.028170742 0.0088598949 0.097099493
-0.028846367 0.0075985699 0.099007547
-0.029632467 0.0061715532 0.1015551
-0.030138975 0.0043070948 0.10283271
-0.030505778 0.0024543337 0.10420679
-0.03077371 0.00035022174 0.1054936
-0.031010237 -0.0016043733 0.10625578
-0.031318178 -0.0034100939 0.10691206
-0.031794922 -0.0052304488 0.10798874
-0.032206251 -0.0072696822 0.10945106
-0.023440117 0.018433866 0.087700879
-0.024152262 0.017326518 0.089992238
-0.024912337 0.01586821 0.092057397
-0.024938297 0.014349827 0.09315082
-0.02538235 0.012805547 0.094391396
-0.025671935 0.011363263 0.095234528
-0.026266948 0.010085804 0.096732887
-0.026710992 0.0089005586 0.098163473
-0.027273103 0.0075184124 0.099405669
-0.02789314 0.0060897496 0.10168237
-0.028426759 0.0044099433 0.10274119
-0.028555811 0.0024290782 0.10407004
-0.029254756 0.00043266245 0.1059924
-0.029441112 -0.001704251 0.10699129
-0.029742395 -0.0035362321 0.10780713
-0.030075057 -0.0053200455 0.10873265
-0.030349825 -0.0071012834 0.10971949
-0.021856973 0.018379202 0.087360799
-0.022801371 0.017263075 0.09021392
-0.023300357 0.015986052 0.092203885
-0.023462456 0.014620913 0.093177793
-0.023708701 0.012883305 0.09434473
-0.024012346 0.011343677 0.095502309
-0.024743909 0.010112804 0.097308683
-0.02516528 0.0086577969 0.098329956
-0.025580318 0.0073396635 0.099682607
-0.026073356 0.0059195274 0.1012534
-0.026315049 0.004174234 0.10241623
-0.026917581 0.002344968 0.10403676
-0.027400279 0.00033244872 0.10603744
-0.02775176 -0.0016321717 0.10741534
-0.027929005 -0.0036288823 0.10810516
-0.028066288 -0.0054564096 0.1089299
-0.028257353 -0.0072921982 0.10980793
-0.02021343 0.018222712 0.086925668
-0.021213589 0.017267105 0.090023786
-0.021641133 0.016097786 0.092094898
-0.021896148 0.014707391 0.09338103
-0.022160327 0.013193513 0.094471105
-0.022549753 0.01143797 0.095746281
-0.023230797 0.010066321 0.097586558
-0.023487672 0.0086368881 0.098505947
-0.02377288 0.0072002428 0.099584145
-0.024087815 0.0057565084 0.10082233
-0.024346447 0.0041092425 0.10184309
-0.024799228 0.0022620152 0.10364949
-0.025470906 0.00033615551 0.10578127
-0.025947927 -0.0016056418 0.10743535
-0.026151807 -0.0034920135 0.1083218
-0.02611798 -0.0053985903 0.10919124
-0.02653906 -0.0070924255 0.10968482
-0.018851551 0.017978395 0.086977715
-0.019580886 0.017215381 0.089687305
-0.020030326 0.016119524 0.092016928
-0.020272238 0.014759097 0.093329027
-0.02058864 0.013285831 0.094750703
-0.02091389 0.01158409 0.095717704
-0.021471368 0.010013285 0.0974308
-0.021775559 0.008510227 0.098497354
-0.022029719 0.006992058 0.099396954
-0.022299831 0.0055565348 0.1005862
-0.022506791 0.003909787 0.10139838
-0.022888483 0.0022650529 0.10307047
-0.023379672 0.00037193119 0.10513235
-0.023967227 -0.0015018041 0.1070055
-0.024227939 -0.0033263938 0.10806694
-0.02427755 -0.0052956842 0.1089133
-0.024223019 -0.0071253145 0.10966256
-0.017273063 0.017909102 0.086668995
-0.017795399 0.017111445 0.089084605
-0.018273529 0.016092828 0.09146932
-0.018592949 0.014799704 0.09328139
-0.018939345 0.013324354 0.094801684
-0.019165196 0.011510278 0.095604244
-0.019629821 0.009880132 0.097009885
-0.020045184 0.0084661878 0.098603087
-0.020317615 0.0069502451 0.099547741
-0.020484108 0.0053770232 0.10031374
-0.020692474 0.0037930259 0.10117618
-0.020905279 0.0022034494 0.10260519
-0.021191262 0.00051682441 0.10405539
-0.021691899 -0.0014370082 0.10562311
-0.022050832 -0.0033125113 0.10702151
-0.022316567 -0.0051277649 0.10786989
-0.022200935 -0.0069931893 0.10867962
-0.022202461 -0.0090594 0.10955602
-0.01570298 0.017726401 0.085921958
-0.016164879 0.016929162 0.088393855
-0.016475092 0.015980567 0.090527028
-0.016880241 0.014751832 0.092743717
-0.017235128 0.013267387 0.094514208
-0.017430859 0.011588544 0.095595511
-0.017845188 0.0097933219 0.096753665
-0.018293221 0.0085098762 0.098550168
-0.018558438 0.0069961921 0.099550788
-0.018622556 0.0053771923 0.10016305
-0.01885206 0.0037958821 0.10093297
-0.018988621 0.0022145375 0.10196128
-0.019217972 0.00047264175 0.10328576
-0.019555363 -0.0013878113 0.10435754
-0.019794942 -0.0032909433 0.10534015
-0.020115711 -0.0052166498 0.10624328
-0.020245237 -0.0073321469 0.10707777
-0.020459859 -0.0092329066 0.10828961
-0.02073671 -0.01123326 0.11004113
-0.014112597 0.017676705 0.085366602
-0.01456706 0.016765883 0.08769135
-0.014780915 0.01565576 0.089692515
-0.015111726 0.014644212 0.092314465
-0.015403906 0.013192689 0.09416716
-0.015577123 0.011667277 0.09554292
-0.016062779 0.0098652082 0.096806837
-0.016508489 0.0084517663 0.098497259
-0.016730507 0.0069977196 0.099568665
-0.016799303 0.0054842393 0.10009757
-0.016925414 0.0038633636 0.10055432
-0.01706292 0.0022213106 0.1013711
-0.017313628 0.00047527099 0.10245332
-0.017380645 -0.0013379903 0.10289634
-0.01750294 -0.0032210494 0.1035082
-0.017562344 -0.0050444314 0.10433653
-0.017909411 -0.0072648652 0.10551659
-0.018055427 -0.0092061305 0.1067164
-0.018401155 -0.011224443 0.10874123
-0.018511766 -0.012784858 0.11047649
-0.012547431 0.017656753 0.084939383
-0.013022209 0.01665081 0.087412064
-0.013155933 0.015521448 0.089168161
-0.013317372 0.014492966 0.091732072
-0.013570396 0.013126686 0.093588479
-0.013618747 0.011730898 0.09508081
-0.013653714 0.010271968 0.096320895
-0.014196326 0.0086904072 0.097993607
-0.014818877 0.0071241246 0.099263514
-0.01472927 0.0056385974 0.099659004
-0.014951033 0.0039476962 0.10028684
-0.015043623 0.0021821118 0.10071545
-0.015193635 0.00046671555 0.10136538
-0.015282151 -0.0012584889 0.10197702
-0.015328361 -0.003101487 0.10223872
-0.01543416 -0.0049446076 0.10297003
-0.015695134 -0.0070126726 0.10417381
-0.015884466 -0.0089411149 0.10548231
-0.016200212 -0.010917513 0.10746986
-0.01660119 -0.0130197 0.11014479
-0.011087918 0.017532633 0.084619952
-0.0113691 0.016551964 0.086663445
-0.011551911 0.015436332 0.088691619
-0.01149531 0.014300117 0.090648917
-0.011629147 0.013113132 0.092872548
-0.011559352 0.011679781 0.093860437
-0.011576926 0.010214318 0.09486074
-0.011660143 0.0086621279 0.095965517
-0.011809935 0.0070569569 0.097075745
-0.012720936 0.0055621083 0.098785298
-0.013102037 0.0038426052 0.099682577
-0.013256482 0.0021310201 0.10024986
-0.01330132 0.00040201395 0.10062693
-0.013322559 -0.0013492147 0.10104709
-0.0134763 -0.0031103937 0.10159324
-0.013545718 -0.0049627631 0.10239192
-0.013630788 -0.0068562045 0.10320677
-0.013825413 -0.0087261988 0.10448525
-0.014139831 -0.01074781 0.10650748
-0.01449749 -0.012789092 0.10920695
-0.0096636452 0.017343032 0.084170232
-0.0098787525 0.016404504 0.086311311
-0.010051905 0.015287109 0.088294308
-0.0099488686 0.014102603 0.0900612
-0.0098249061 0.012936993 0.091745488
-0.0097248675 0.011588876 0.092868917
-0.0096481681 0.010088978 0.093657091
-0.009731643 0.0085245765 0.09438125
-0.0097535016 0.0069726953 0.095143311
-0.0097988139 0.0053534356 0.09621576
-0.010566476 0.003578714 0.098360452
-0.011247643 0.0020919182 0.099360079
-0.011438335 0.0003954242 0.10003441
-0.011546614 -0.0013244152 0.1004156
-0.011611531 -0.0031123657 0.10108085
-0.01171842 -0.0049755561 0.10211574
-0.011807547 -0.0067364696 0.10293805
-0.011811858 -0.0085902549 0.10383746
-0.012051345 -0.010530493 0.10573653
-0.012404917 -0.012608888 0.10823368
-0.0082057718 0.017229537 0.084013197
-0.0083722037 0.01621414 0.085824358
-0.0086459772 0.01510681 0.087651168
-0.0085368333 0.013974657 0.089387819
-0.0082533683 0.012845435 0.090846181
-0.0079695557 0.01145214 0.091380489
-0.0077672163 0.010057482 0.092231169
-0.0078504657 0.0085341654 0.092699138
-0.0080110586 0.0068425707 0.093402041
-0.0082669904 0.0052235058 0.094224438
-0.0085817256 0.003501815 0.095616273
-0.0089560288 0.0017573988 0.097393284
-0.0092900442 0.00017452573 0.099105773
-0.0095592604 -0.0014979071 0.0998796
-0.0097503373 -0.0030678937 0.10094683
-0.0098055874 -0.004798365 0.10188688
-0.0098309492 -0.0065475505 0.1025688
-0.0099272976 -0.0084265728 0.10370632
-0.010191028 -0.010391808 0.10543533
-0.010341304 -0.012470388 0.10758258
-0.010624367 -0.014480774 0.1104679
-0.0067978787 0.017111408 0.083619858
-0.0068696436 0.016087195 0.085166226
-0.0070742724 0.014960363 0.086949364
-0.0071177585 0.013756301 0.088389496
-0.0070351123 0.012557749 0.089667606
-0.0065503307 0.011403939 0.0905494
-0.0062201573 0.0096966398 0.090894629
-0.006389164 0.0080863001 0.091143327
-0.0066556767 0.0065447263 0.09206599
-0.006800991 0.0049895368 0.092735238
-0.0070779664 0.0032897979 0.093759102
-0.0072983053 0.0015597195 0.09525191
-0.0076175587 -0.00010159669 0.097220716
-0.0077257982 -0.0017119715 0.099039907
-0.007854516 -0.0031431533 0.1008143
-0.0078579898 -0.0047334071 0.10178081
-0.0079384335 -0.0064343725 0.10260994
-0.0080000457 -0.0081938449 0.10367307
-0.0082766271 -0.010355382 0.1052857
-0.0084788315 -0.012446765 0.10717557
-0.0086883611 -0.014678854 0.11039915
-0.0053271616 0.017052537 0.082997466
-0.0053940323 0.015978146 0.084510989
-0.005527612 0.014862114 0.086209238
-0.0056770897 0.013550187 0.087582595
-0.0058423953 0.012095134 0.088715623
-0.0058949902 0.010580755 0.089175977
-0.0055163436 0.0092120702 0.089724278
-0.0054260291 0.0076431195 0.090045636
-0.0055866152 0.0061422877 0.090328334
-0.0056189631 0.0046778213 0.091082598
-0.0057212004 0.0027727273 0.092062863
-0.0059434765 0.0011852912 0.093292795
-0.0060434778 -0.00052601194 0.095224879
-0.0060437075 -0.0018719256 0.098276113
-0.006129473 -0.0033679079 0.10017849
-0.0060777463 -0.0047979381 0.10143858
-0.0061500808 -0.0064628573 0.10236421
-0.0061248435 -0.0081250195 0.10370421
-0.0063964085 -0.010359348 0.10510601
-0.0065242632 -0.012376023 0.10711784
-0.0067686958 -0.014692473 0.11039071
-0.0039424392 0.01586703 0.083788919
-0.0040372798 0.014831331 0.086001819
-0.0042556251 0.01352297 0.087511837
-0.0044010573 0.012044083 0.088527183
-0.0044246724 0.010474824 0.088817271
-0.0043038029 0.0089360265 0.08907825
-0.0042606738 0.0073666518 0.089155001
-0.004458657 0.0057676621 0.089257792
-0.0045500828 0.0041850281 0.089932792
-0.004163334 0.0024735134 0.09111365
-0.0043089883 0.00068448356 0.092186697
-0.0045861824 -0.00098999701 0.093893831
-0.0043462358 -0.0021120984 0.097679987
-0.0044442139 -0.0035739162 0.099608302
-0.0044359308 -0.0049070749 0.10079169
-0.0044266104 -0.0063911745 0.10212632
-0.0043939963 -0.0080966729 0.10358832
-0.0045579607 -0.010379004 0.10507179
-0.004706807 -0.012421354 0.1074222
-0.0048116754 -0.014727685 0.11051643
-0.0027042774 0.015951266 0.08381543
-0.0027452242 0.014923998 0.085983989
-0.0027939971 0.013517905 0.087726556
-0.0028863243 0.012058601 0.088559511
-0.0029595895 0.01055064 0.089063672
-0.0029713496 0.008903129 0.089187068
-0.0029392943 0.00717753 0.089264654
-0.0029454501 0.0055750911 0.089054796
-0.002945782 0.0040364624 0.089891729
-0.0023850505 0.0020709952 0.09136717
-0.0022976155 0.00037032962 0.092200242
-0.0023115099 -0.0014289755 0.093425852
-0.0026111513 -0.0022254426 0.09708905
-0.0026810433 -0.0035379045 0.099512115
-0.002682163 -0.0050286232 0.1007336
-0.0026870271 -0.0065127579 0.10192184
-0.0026625794 -0.0080424783 0.1036623
-0.0027631848 -0.010302437 0.1049128
-0.0027645769 -0.01251189 0.10733599
-0.0029340954 -0.014796437 0.11013689
-0.001290999 0.015919651 0.083833088
-0.0013201361 0.014894586 0.085904459
-0.0013017808 0.013494884 0.087773621
-0.001391372 0.012073694 0.088660955
-0.0014655412 0.010580576 0.089322194
-0.0015096863 0.0090190663 0.089634364
-0.0017339146 0.0072479476 0.090376116
-0.0016711619 0.0056847073 0.09012275
-0.0018153068 0.0042011362 0.091406241
-0.00086141562 0.002442565 0.091415035
-0.0004927493 0.00063613821 0.092486993
-0.00030092271 -0.0011898844 0.093941351
-0.00085902486 -0.0022682622 0.09722889
-0.00093034104 -0.0035395823 0.099382505
-0.00093695085 -0.0050543775 0.10079439
-0.00089457526 -0.0066145644 0.10212849
-0.00098593265 -0.0083762966 0.10336303
-0.0010102795 -0.010418391 0.10543006
-0.0010019224 -0.012770521 0.10762881
-0.00088468326 -0.015120325 0.11034547
0.00014390762 0.015892419 0.083777408
0.0001395005 0.014850077 0.085940158
0.00015589101 0.013566551 0.087437456
0.00010317472 0.012058318 0.088792801
3.7557201e-05 0.010478066 0.089578832
-0.000303999 0.0087679429 0.090231553
-0.00043211115 0.0071317459 0.091166439
-0.00058673252 0.0058361152 0.092302655
-0.00011632392 0.0042416545 0.092974097
0.00057417945 0.002571109 0.092855888
0.0011318749 0.00085941232 0.09336376
0.0011423624 -0.00087121202 0.094636346
0.00089169687 -0.0022697631 0.097482773
0.00079908119 -0.0036867096 0.099268076
0.0007827235 -0.0051059107 0.10081031
0.0007828286 -0.0067325424 0.10210179
0.00076924251 -0.0085700331 0.10312555
0.00081039092 -0.010545688 0.1053774
0.00088452616 -0.01279254 0.10754133
0.00099515132 -0.015181724 0.11015783
0.0015412635 0.015868062 0.083781501
0.0016113942 0.014830198 0.085937863
0.0016405602 0.0135641 0.087602143
0.0016440513 0.012118228 0.088816133
0.001356863 0.010452051 0.089419591
0.0012356088 0.0087116953 0.090640562
0.0013453882 0.0072622794 0.092267958
0.0013259188 0.0059586599 0.093215696
0.0017545898 0.0043634869 0.093712968
0.0022645951 0.0027307319 0.09394444
0.0025592934 0.0011142545 0.09452943
0.0026412231 -0.0007292462 0.095692143
0.0026174929 -0.002183776 0.098211386
0.002553566 -0.0036767228 0.099544096
0.0025466026 -0.0053006397 0.10063095
0.0025113888 -0.0068284636 0.10206577
0.0025529904 -0.0086858437 0.10301458
0.0026837481 -0.010644618 0.10512957
0.0028092433 -0.012856377 0.10737759
0.0029020102 -0.015230854 0.10985055
0.0029481607 0.015804576 0.083666744
0.0030306001 0.014750948 0.085681682
0.0030552402 0.013488641 0.087697695
0.0030300181 0.012103924 0.088688977
0.0027944144 0.010584847 0.089432113
0.0027352616 0.008929207 0.090605728
0.002798791 0.0075497762 0.092175317
0.0031333489 0.0061331824 0.093214864
0.0034493526 0.0046530378 0.093906832
0.0035884007 0.0031307884 0.094824252
0.0039415219 0.0014526635 0.095568229
0.0041388966 -0.00045593849 0.097067199
0.0041794381 -0.0019431686 0.098940959
0.0042423787 -0.0035556281 0.10008703
0.0042038132 -0.0052580835 0.10105942
0.0042922709 -0.0069107747 0.10214225
0.0043402713 -0.0087785969 0.1031564
0.0044720991 -0.010827152 0.10519613
0.0046835759 -0.013063139 0.10744194
0.0049083106 -0.015283216 0.11008009
0.0044028868 0.015778644 0.083843139
0.0044265093 0.014683109 0.085664843
0.0044184467 0.013510245 0.087373351
0.0044606968 0.012193424 0.088357499
0.0043132462 0.010755953 0.089539257
0.0042628536 0.0092485624 0.090775033
0.0043457098 0.0079115492 0.092090316
0.0046278119 0.0065467607 0.093505847
0.0049915677 0.005038829 0.094398268
0.0051345996 0.0035142822 0.095653969
0.0052841829 0.0016670733 0.097063276
0.0056262355 -0.0001500278 0.098491517
0.0059402629 -0.0018035359 0.099785842
0.0059962196 -0.0034590759 0.1006949
0.006074588 -0.0052339203 0.10149843
0.0060322431 -0.0069942543 0.10247619
0.0061133981 -0.0088547322 0.10356644
0.0062160126 -0.011177392 0.10503043
0.006562587 -0.013505777 0.1073856
0.0057412479 0.01565541 0.084219123
0.0058667826 0.014655591 0.085602351
0.0058953784 0.013468061 0.087068669
0.0059239186 0.01215095 0.088021753
0.0058820574 0.010838004 0.089400498
0.0058408247 0.0094447288 0.090444828
0.0059474897 0.0081924163 0.091925274
0.0061443944 0.0068693962 0.093474942
0.0065337415 0.0053414856 0.094812155
0.0068190186 0.0034404158 0.096459843
0.0069492144 0.0018409281 0.098133423
0.007400165 6.8654451e-05 0.099620432
0.007663615 -0.001748599 0.10036491
0.0077629361 -0.0034919417 0.10121443
0.0078233033 -0.0052722243 0.10221243
0.0078185195 -0.0070649145 0.10312512
0.0079679033 -0.0092403321 0.10379427
0.0081895699 -0.011671597 0.10534368
0.0085096217 -0.014177765 0.10712698
0.0087796971 -0.015899587 0.10913588
0.0070014559 0.01664463 0.083027892
0.0071947837 0.015728822 0.084453431
0.0073062346 0.01466832 0.085755142
0.0073952135 0.01347764 0.087160485
0.0073665956 0.012155543 0.087950091
0.0074143402 0.010765435 0.089384064
0.0073920317 0.0094002768 0.090361975
0.007496373 0.0083063285 0.091530248
0.0076867961 0.007167734 0.093856637
0.0082096951 0.0053347582 0.095081061
0.0084360087 0.0035170557 0.096795487
0.0086730815 0.0018666297 0.098945615
0.0090353424 0.00016586547 0.10018258
0.0093370626 -0.0016931522 0.10100231
0.0094746693 -0.0034405997 0.1019224
0.0095859962 -0.0053524892 0.10265685
0.0097993196 -0.0074634704 0.10338263
0.0099727058 -0.009617066 0.10412839
0.010181608 -0.012135581 0.10535233
0.010361296 -0.014805258 0.10643765
0.0083709713 0.016784306 0.083094984
0.0085949671 0.015792631 0.08451845
0.0087276002 0.01467266 0.085785945
0.008794448 0.013449584 0.087139455
0.0088712231 0.012107378 0.088166286
0.0089693106 0.010739544 0.089401213
0.0090436563 0.0093805215 0.090324968
0.0091446169 0.0079915002 0.091498385
0.0093842587 0.0071303719 0.093838386
0.0099146155 0.0052573586 0.09521922
0.01019989 0.0036163542 0.097638013
0.010415423 0.0020086391 0.099432093
0.010634736 0.00040244853 0.10046187
0.010884234 -0.0013675773 0.10168819
0.011207269 -0.0033721949 0.10247557
0.011396678 -0.0053745705 0.1028709
0.011688092 -0.0075485711 0.10381467
0.011926883 -0.0098197566 0.10466729
0.012121428 -0.012549928 0.10568042
0.012260257 -0.015204952 0.10658521
0.0097526768 0.016976242 0.083247895
0.009943801 0.016004876 0.084412518
0.010044974 0.014841822 0.085652572
0.010237011 0.013521019 0.086847219
0.010386264 0.012146612 0.087774371
0.010488019 0.010763836 0.08909934
0.010607656 0.0094179514 0.090174154
0.010753211 0.0079830478 0.091223295
0.011239305 0.0067716946 0.093721027
0.01151324 0.0052322318 0.095617028
0.011852126 0.0037211142 0.097928149
0.012162498 0.0021225237 0.0996599
0.012431016 0.00051550036 0.10069941
0.012633168 -0.0013410559 0.10179303
0.012939199 -0.0032628824 0.10257459
0.013247193 -0.00529356 0.1032965
0.013602602 -0.0075408552 0.10428681
0.01377778 -0.010225396 0.10553593
0.014056913 -0.01300576 0.1064213
0.014234153 -0.015274246 0.10702247
0.01123044 0.017427236 0.083921117
0.011367467 0.01638881 0.084788789
0.011452972 0.014975092 0.085770445
0.011718476 0.013602195 0.086932418
0.011916882 0.012212509 0.087732397
0.011945096 0.010797105 0.088836752
0.01209591 0.0094402243 0.089831126
0.01219833 0.0080231121 0.090847284
0.012446417 0.0067331476 0.093228663
0.013105772 0.0051348341 0.095682169
0.013548065 0.0036598182 0.097904049
0.013927723 0.0021504551 0.099802877
0.01418546 0.00057948881 0.10096635
0.014437011 -0.0011517894 0.10163067
0.014753058 -0.0031779235 0.10274751
0.015060529 -0.0052554828 0.10342921
0.015481422 -0.0077614259 0.10502796
0.015741124 -0.010887528 0.10669723
0.016182134 -0.0133525 0.10769465
0.012673275 0.017486768 0.083911759
0.012804333 0.016497042 0.08496814
0.012913526 0.01515296 0.085819336
0.013210997 0.013661753 0.087233484
0.013372283 0.012305943 0.087985036
0.013425065 0.010898117 0.088982403
0.013575163 0.0095155202 0.089868332
0.013745327 0.0080974269 0.090939495
0.013983422 0.0066793257 0.092722955
0.014701917 0.0049351688 0.095643362
0.01538277 0.0036367006 0.09824882
0.015755968 0.0021077159 0.099730862
0.016074969 0.0004560254 0.10118005
0.016158901 -0.0012294382 0.10174787
0.016568851 -0.0032003027 0.10293914
0.017084884 -0.005479203 0.10432361
0.017564592 -0.0079236608 0.10652809
0.018001277 -0.010843379 0.10811584
0.014276221 0.017572056 0.08418084
0.014425394 0.016644598 0.085266401
0.014505792 0.015430205 0.086274259
0.01472989 0.013874162 0.087168411
0.014859249 0.012550644 0.08829985
0.015007087 0.011096996 0.089316996
0.01513192 0.0095890018 0.090215395
0.015331523 0.0081694254 0.091681408
0.015772722 0.0067473844 0.093322317
0.016234375 0.005029307 0.095395232
0.017073355 0.0035418106 0.098223522
0.017509772 0.0019745224 0.099647427
0.017812403 0.00039932078 0.10107931
0.018068544 -0.0012752676 0.10209996
0.018441834 -0.0032627897 0.10334973
0.019149043 -0.0055825355 0.10555132
0.019913715 -0.0082156522 0.10873558
0.015946232 0.017796284 0.084823718
0.0160433 0.016751755 0.085910954
0.016090466 0.015484791 0.086885512
0.016310606 0.014166599 0.087819974
0.0164179 0.012756572 0.088645942
0.016599078 0.0113016 0.089930037
0.016711725 0.0096758828 0.090653576
0.017050063 0.0082031709 0.091998967
0.017569373 0.0067249804 0.094160631
0.017864147 0.0051211075 0.095470093
0.018705651 0.0035909803 0.098095077
0.019208184 0.001994764 0.099490814
0.019619433 0.00049341035 0.10109436
0.020114105 -0.0013725691 0.10263878
0.020598841 -0.0034815907 0.10430693
0.021300075 -0.0056113188 0.10718705
0.022104131 -0.0079402126 0.10997877
0.017576836 0.017948753 0.085513324
0.017662248 0.016882404 0.086566212
0.017645813 0.015609789 0.087330232
0.017849566 0.014356579 0.088430452
0.018026527 0.012956772 0.089360659
0.018350681 0.011418203 0.090195736
0.018363132 0.0097084012 0.090742841
0.01856295 0.0082041674 0.091900031
0.019258916 0.0067447342 0.094634012
0.019667245 0.0051900195 0.096010186
0.020714462 0.0036087254 0.098604555
0.02112623 0.0020453225 0.099998144
0.021620026 0.00034187224 0.10151925
0.022183267 -0.0017319924 0.10327479
0.023073762 -0.0036881296 0.10595536
0.023527992 -0.0056047123 0.10869737
0.019067169 0.018031318 0.085726994
0.019270031 0.016952741 0.086943189
0.019359783 0.01570073 0.087796685
0.019581294 0.014360531 0.088725584
0.019764557 0.01276099 0.089282676
0.019978968 0.011204522 0.090088362
0.019997893 0.0096861226 0.090865647
0.020204423 0.0082297571 0.092052626
0.020931342 0.0067266556 0.09474168
0.021433616 0.0052073322 0.09615692
0.022512816 0.0036001059 0.098704425
0.022974998 0.0020080098 0.10044165
0.023589967 0.00016378478 0.10200638
0.024382103 -0.0018139285 0.10418246
0.025228633 -0.0036347297 0.10700979
0.025922699 -0.0057210197 0.11016863
0.020539249 0.01807209 0.085945107
0.020849036 0.016925565 0.087132501
0.021194638 0.015482788 0.087869418
0.021335413 0.014161284 0.088814606
0.021356656 0.012692072 0.089191727
0.021528436 0.011162283 0.089893945
0.021567568 0.0096532435 0.090711129
0.021964779 0.0082240608 0.092541668
0.022488608 0.0067107406 0.094437343
0.023180899 0.0050996685 0.095802558
0.024286177 0.0036007135 0.098778174
0.025162927 0.0019292945 0.10160043
0.025666017 6.6039742e-05 0.10284378
0.026434735 -0.001677045 0.1049361
0.027423366 -0.0037118074 0.10841293
0.022139974 0.018074365 0.086278503
0.022414889 0.016795743 0.08706818
0.022744063 0.015418627 0.087853171
0.022901092 0.014057988 0.088591374
0.022940185 0.012625353 0.089056365
0.023146853 0.011173729 0.089938916
0.024188864 0.0098387888 0.092209103
0.024259777 0.0083510891 0.093451947
0.024596501 0.0066909268 0.09475408
0.025778352 0.0051866531 0.097278456
0.026618452 0.0037061651 0.09977975
0.027708211 0.001769171 0.10286166
0.028159627 0.00018329235 0.10450141
0.02876716 -0.001661245 0.10649936
0.029669737 -0.0038346951 0.10988106
0.023704234 0.017970458 0.086324168
0.024040267 0.016762037 0.087318619
0.024285281 0.015396369 0.088004276
0.024427836 0.014000634 0.088490409
0.024549045 0.012607585 0.089146276
0.024947296 0.011309541 0.09022148
0.025727479 0.0099526044 0.091690801
0.026045646 0.0085034637 0.092787348
0.026480318 0.0069805697 0.094436106
0.027709085 0.0053298574 0.097481097
0.028886438 0.0035961776 0.1010684
0.030312101 0.0017777997 0.10392272
0.030713362 2.7553481e-05 0.10594976
0.031092892 -0.001682297 0.1079731
0.031793323 -0.0036491292 0.11055198
0.025192141 0.017918232 0.086160886
0.025569726 0.016740426 0.087386983
0.025833852 0.01537332 0.088159019
0.025971882 0.014002402 0.08855657
0.026118023 0.012554484 0.089092972
0.026646705 0.011210477 0.089829249
0.026993415 0.0098654606 0.090760976
0.027380798 0.0084983045 0.091915523
0.027812452 0.0069651728 0.09332304
0.029304222 0.0053902495 0.097068454
0.031378649 0.0035015801 0.10238859
0.032427649 0.0017549759 0.10519605
0.03280022 6.8802772e-05 0.10676734
0.033314119 -0.0016433995 0.10903253
0.026685675 0.017808766 0.086266207
0.027035108 0.016684503 0.087329303
0.027383489 0.015428215 0.088125229
0.027669507 0.014147133 0.088922806
0.028050364 0.012601067 0.089368133
0.028226285 0.011199454 0.089724677
0.028416048 0.0098494881 0.09043146
0.028841702 0.0084963782 0.091714953
0.030211326 0.0071452538 0.09496781
0.030991651 0.0054462451 0.097196924
0.033881223 0.0033457251 0.10361474
0.034617256 0.0018557925 0.10650263
0.035063342 0.00013573414 0.10828436
0.03572406 -0.0015321987 0.11040162
0.027848682 0.017653398 0.085379327
0.028499727 0.016694558 0.087237472
0.028916712 0.015499224 0.088167533
0.02927078 0.014063948 0.088720083
0.02948808 0.012544056 0.089069796
0.029647302 0.011162518 0.08956932
0.029802571 0.0098073849 0.09017056
0.030464276 0.008484045 0.092003239
0.031716186 0.0071302953 0.094846569
0.032410479 0.0054679348 0.096518268
0.036754916 0.0032947577 0.10636679
0.037261623 0.001525899 0.10801482
0.037516215 -0.00019396717 0.10934886
0.038576402 -0.0022498966 0.11082519
0.028808431 0.017389446 0.083958087
0.029681855 0.016569755 0.086302775
0.030190536 0.015276506 0.087464174
0.030660684 0.013894614 0.088286363
0.030856584 0.012432637 0.088669931
0.031107093 0.011097634 0.089397746
0.031511483 0.0097679454 0.090560089
0.031810703 0.0084455771 0.091510773
0.032854419 0.0069457658 0.093720722
0.035130191 0.0049491145 0.098546739
0.039405993 0.0031241446 0.1070611
0.039841094 0.0013831121 0.10884614
0.040444437 -0.00065383383 0.11010056
0.040795581 -0.0023315151 0.11104378
0.030610904 0.016229691 0.084785861
0.031292797 0.014963954 0.086249948
0.031858874 0.013623085 0.087162616
0.032173244 0.012238654 0.088053651
0.032475489 0.010838813 0.088920618
0.032937769 0.0094284024 0.090171168
0.033407747 0.0081033402 0.091497906
0.034395484 0.0066736758 0.093785507
0.039756642 0.0040382752 0.10314833
0.04148881 0.0029775409 0.10734624
0.042155589 0.0011675498 0.10926969
0.042556999 -0.00086260197 0.11017909
0.043190982 -0.0025865834 0.11103322
0.032219297 0.014750103 0.084335499
0.03289257 0.0134435 0.085578017
0.033624781 0.012156435 0.087622002
0.034086785 0.010567057 0.088628747
0.034389145 0.0091673434 0.089755277
0.034857198 0.007874662 0.09108637
0.037112288 0.0061811048 0.095790468
0.041730751 0.0038637234 0.10348551
0.043188007 0.0029245503 0.10709664
0.043867458 0.0011607585 0.10861583
0.044390074 -0.00092436823 0.1096916
0.044622723 -0.0028346015 0.11015159
