ply
format ascii 1.0
comment PCL generated
element vertex 764
property float x
property float y
property float z
element camera 1
property float view_px
property float view_py
property float view_pz
property float x_axisx
property float x_axisy
property float x_axisz
property float y_axisx
property float y_axisy
property float y_axisz
property float z_axisx
property float z_axisy
property float z_axisz
property float focal
property float scalex
property float scaley
property float centerx
property float centery
property int viewportx
property int viewporty
property float k1
property float k2
end_header
0.00062056596 0.00046556536 0.00055018521
0.00094106281 6.5024443e-07 0.00020511096
0.00042499663 0.00035208798 0.00099549408
0.00027749324 0.0011463596 0.0014336806
2.9016435e-05 0.0019458926 0.0021123076
0.00025824489 0.0007973414 0.0013943982
0.00038255542 0.00056072616 0.0015921365
0.0011376156 0.00074670231 0.00079972419
0.0014326725 -0.0001043048 7.5390075e-05
0.0016085339 -0.0006938916 -0.00062359491
0.002455543 -0.001446821 -0.0020447127
0.0039497842 -0.001679179 -0.0032497698
0.0022628249 -0.00077914493 -0.0013051277
0.0021839046 -0.00077827135 -0.0007630405
0.0017716086 0.00028059623 5.6435238e-05
0.0011327774 0.0012939703 0.00097320479
0.0004015709 0.0026184418 0.0016867943
0.00052449078 0.00041331496 -1.3245153e-05
0.00043061329 -0.00018360965 0.00030003549
7.4903386e-05 0.00025365461 0.00074803247
-0.00017177813 0.0013538462 0.0013266463
-0.00066261116 0.0012987496 0.0015733263
-0.00053121912 0.001435536 0.0018276143
-9.4966941e-05 0.00080552074 0.0010207802
0.00072889123 0.00062303856 0.00055791961
0.001340892 -0.00014251475 -0.00053590274
0.0029030815 -0.0017721356 -0.0014320181
0.00260877 -0.0018578902 -0.0023522952
0.003583096 -0.0014136379 -0.0028579121
0.002407993 -0.00079096353 -0.0015455213
0.0022765128 -0.0010031988 -0.0014335304
0.0012593254 0.00052187702 -0.00034008094
0.00061417447 0.0013878171 0.00061605877
4.5068715e-05 0.0021746641 0.0014914931
0.00018936524 0.00080520817 0.00042402599
0.00030176973 0.00097043306 0.00056123163
-0.00019850883 0.00057808677 0.00091174844
-0.00084486126 0.0019072022 0.0019777506
-0.00042812203 0.0010763 0.0020870781
-0.00065192633 0.0020290432 0.0020596308
-0.00025188056 0.0010291818 0.0016150074
0.00031963989 0.00071757269 0.00050642813
0.0010811667 -0.0001153112 -0.00018140944
0.0017480592 -0.00095582119 -0.00074654218
0.0021313946 -0.0010825525 -0.0013231561
0.0019111424 -0.00078813289 -0.0014934444
0.0024446885 -0.00045549328 -0.0008125715
0.0019000949 6.4915424e-05 -0.00061665638
0.0013140443 0.00042292065 -0.00040506973
0.00054397032 0.0008940933 0.00073226081
0.00045739114 0.0022923423 0.0014415076
0.00051858614 0.00079072668 0.00062925753
-0.00017702549 0.0013304006 0.00069611432
-0.00011745201 0.0013313362 0.0011588871
-0.00067069998 0.0020870445 0.0017002488
-0.00035652265 0.00067840028 0.00076563098
-0.00022488103 0.00072313065 0.0017511649
-0.00029020937 0.0013978234 0.0013811763
0.00013807374 0.0011038084 0.0012138502
0.00037851036 0.00018939284 0.00021685904
0.0013149574 -0.00057741854 -0.00039045865
0.001094739 -0.00083559647 -0.00088720297
0.0007708359 -0.00037543051 -0.00076697074
0.0018567063 -0.00025995518 -0.00060140563
0.0015760115 -0.00010201556 -0.00028409818
0.0013679046 0.00032490274 -0.00023608464
0.00090870966 0.00089039176 0.00026798842
0.00019323225 0.0015092307 0.00094235683
-0.00015256263 0.00072756369 0.00065584382
0.00037507454 0.00099261641 0.00057870138
0.00014635072 0.0006871309 0.00070525281
0.00034555051 0.0012165081 0.0011001754
-0.00020879121 0.00067179621 0.0011849948
1.168076e-05 0.00083553704 0.0010806911
-0.00018352794 0.0017199577 0.0016974163
6.6374043e-05 0.00080963277 0.00076453894
0.00058161624 0.00063831569 0.00046146795
7.9388097e-05 -7.7504556e-05 7.0103131e-05
0.00030248327 -0.0002801978 -0.00041520444
-0.00012966144 0.00012117239 -0.00017054255
0.00053854409 6.4473657e-05 -0.00011121161
0.00062023016 2.2276741e-05 0.00021669969
0.00097169093 0.00036320841 0.00027290164
0.00058363314 0.00063857902 0.00021669986
5.0275048e-06 0.0011508436 0.00081002532
0.00016611423 0.00042050262 0.00049218489
-3.5669265e-05 0.00058441504 0.00034077806
0.00013295963 0.00034935665 0.00079156103
-4.428763e-05 0.00081797608 0.00076556538
0.00042139849 0.0011025943 0.0011995462
8.7473927e-05 0.0028099476 0.002424025
-0.00045443862 0.0016463601 0.0017343606
-0.00010071821 0.0010440876 0.0020433972
0.00013631726 0.00085087487 0.00071046437
0.00010108532 0.00035939549 0.00045174023
0.00034170781 0.00020314804 -0.00018573269
-0.00015505143 0.00034722927 0.00019760159
-1.3595021e-05 0.00065554417 0.00099185237
6.5182459e-05 0.00032720665 0.00075406901
0.00050339225 0.00034012695 0.00082284008
5.4677479e-05 0.00061219389 0.0012238084
-0.00020381332 0.0010969056 0.0014502977
0.00025712373 2.9448609e-05 0.00063576095
0.00035337172 0.0007575645 0.00077666668
-0.00017744118 0.00046397481 0.00051259226
0.00020676655 0.0003840639 0.00044099902
0.00020797111 0.0015661799 0.001041639
-0.00032064153 0.002156626 0.0016244339
8.2415558e-05 0.0018534719 0.0015301316
-0.00012013658 0.0007565323 0.0018566243
-0.00017755922 0.00086704496 0.0013299976
0.00048252125 0.00030654474 0.00056114054
0.00037357846 0.00054350961 0.00015650723
0.00011854385 0.00057809521 0.00026134629
-3.4379682e-05 0.00092098606 0.0010620953
0.00027605428 0.00052611146 0.00069291628
0.00019926367 0.00042870018 0.00098617002
-0.00021996102 0.00048179211 0.0015011571
0.00011224093 0.00083078368 0.0015797109
-0.00016844597 -0.00045137512 0.0006011778
-0.00013354492 0.00052660936 0.00053042406
0.0002982459 0.00041967156 0.00057275064
0.00018431099 0.0008125609 0.00055127742
-0.00025558207 0.00067722169 0.00069808349
0.00025294768 0.001107781 0.00074777822
5.8455909e-05 0.0018643824 0.0014278868
-0.00013986383 0.00080710079 0.0019892638
0.00025387708 0.0010954196 0.001753196
0.00045646235 0.00032913184 0.0010851335
6.1134269e-05 0.00093356939 0.00060171797
0.00028280989 0.00071838155 0.00022294748
0.00035321218 0.00092871371 0.00060647691
0.00090081 0.00055032771 0.00083617424
0.0003324562 0.00034074363 0.00098904234
0.00023165868 0.00025432947 0.0012224254
-6.9611502e-05 0.00043346634 0.0010787316
0.00034710171 -0.00051646924 0.00036228364
0.00021413904 -0.00025842845 0.00049608143
0.00023106238 1.1710677e-05 0.00038207369
-0.00018160135 0.00023273005 0.00044843994
0.00035734079 0.00032650828 0.00058411667
0.00025206368 0.0016581287 0.0010067408
6.403929e-05 0.0019632168 0.0012560494
0.00032278628 0.00072323694 0.0013994443
0.00031720745 0.00066585146 0.0012776691
5.9672529e-05 0.0003846602 0.001270382
-8.6106622e-05 0.00087044347 0.00058238307
0.0003223255 0.00071480602 6.4062966e-05
0.00070720824 0.00063264428 0.00028371575
0.0010659359 0.00072978524 0.00011906079
0.00094471028 0.00041116273 0.00060888339
0.00081172126 0.00013305314 0.0010075046
0.00043905483 0.00019872827 0.00095796998
-1.7581709e-06 0.00024694094 0.00041893063
0.0002127185 -0.00097636838 0.00083247968
0.00038090409 -0.00063271658 0.00046422952
1.6670821e-05 -0.00096623925 0.00015426254
8.3633531e-05 -0.00051354629 0.00017732632
7.548045e-05 0.00039232918 0.00077012379
-0.00020158173 0.00099155412 0.000571999
0.00031932691 0.0011989176 0.00058128027
0.00019831074 0.00088381738 0.0011625855
-4.7144631e-06 0.00039859649 0.0012811892
-9.3921562e-06 0.00052522414 0.0013917777
6.8954687e-05 0.00075220392 0.00094010588
0.00064416823 0.00069057074 0.0001586401
0.00054515025 0.00047351903 9.2798902e-05
0.00048776864 0.00048642131 0.00010644523
0.0010192055 0.0005120131 0.000244658
0.0011636358 0.000617921 -0.00030119627
0.00093568693 0.00072671269 2.4611989e-05
0.00073070626 0.00098642067 2.0482034e-05
0.00056629669 0.00060684385 -0.00065331452
0.00041857452 -0.0011634124 0.00067774853
0.00011024692 -0.00076061615 0.0003990393
0.00014694383 -0.00071334938 0.00030383779
0.00030722449 -0.00058398879 0.00044574554
-0.0002908879 -0.00025116967 0.00054705306
-0.00012506676 -8.0654558e-05 0.00019199307
0.00016454863 0.0022333912 0.0010111822
-4.753537e-05 0.00057661964 0.00048842543
1.0035898e-05 0.00022150307 0.00060856564
-6.2373351e-06 0.00023193922 7.361325e-05
0.00067768665 0.00063997274 0.0007626469
0.00066274643 0.00071204448 -7.6188525e-07
0.00047821755 0.00019047594 8.7470624e-05
0.00078712159 0.00039630415 -2.1073951e-05
0.00104277 0.00066648703 8.9265144e-05
0.00080314348 0.00089549995 -0.0005017303
0.00093175686 0.00091786095 -0.00046692879
0.00088830857 0.00089231989 -0.00056545244
0.00062431471 0.00069326855 -0.00068228634
0.00062990852 0.00069287035 -0.0010282891
-8.2290253e-06 -0.0017105328 0.0010625318
0.00013206778 -0.00072845625 0.00063312484
0.00042912041 -0.00048900768 0.00039165621
-6.4047257e-05 -0.00071307796 0.00042683841
-0.0002007717 -0.00026688672 6.4580709e-05
-0.00065573363 -0.00060202967 0.00042110094
-0.0011469385 -0.00026975476 -0.00041482455
-0.0009882655 3.9699415e-05 -0.000615686
-0.00022958669 6.2207007e-05 -0.00055696437
-5.3840322e-05 9.7934135e-05 -0.00070431939
0.00033748345 0.00064218888 1.4384238e-05
0.00061777432 0.00043129062 -0.00019324193
0.00062345236 0.00029734097 -7.8425634e-05
0.00056239363 0.00038316866 0.00016048366
0.00061580446 0.00079430232 -0.00014974132
0.00054509507 0.00080279779 -0.0004164179
0.00063440052 0.00080680702 -0.00041822431
0.00079020311 0.00071402744 -0.00056389708
0.00060130283 0.00085132109 -0.00083923771
-1.9001112e-05 0.00061274238 -0.00093504245
0.00020689017 -0.0011841637 0.00072464702
0.00024892238 -0.00059739873 9.4482995e-05
-2.7594848e-05 -0.0001609052 0.00051764637
7.6162964e-05 -0.00026501965 0.00017473866
-0.00050403364 -0.00060571264 0.0004215689
-0.00050746952 -0.0004919187 -0.0002091565
0.00036520333 -0.00025681205 -0.00012771256
-0.0005998878 -0.00048244151 -0.00072924251
-0.00018568629 0.00011571911 -6.8745518e-05
-0.00048759207 3.4442684e-05 -0.0010093409
0.00034996058 0.00055203534 -0.00037969905
0.00026755687 0.00034113927 -0.00030368843
0.0004240975 0.0001569475 4.2334541e-05
0.00056215801 0.00038708176 0.00019513299
0.00030119432 0.00087003427 0.0002696724
0.0001615495 0.00077812898 -0.00014839113
0.00046042135 0.00058037258 -0.00049709133
0.00075006275 0.00069345516 -0.00068860193
0.00061009417 0.00084052392 -0.00080005842
0.00031730445 0.00060493744 -0.0010516527
0.00012580318 -0.0020325878 0.0016808634
-5.7057743e-05 -0.00056364655 0.00031759118
0.00042388405 0.00016700514 0.00061735482
0.00049314578 0.00024605365 0.00068975822
0.0001987819 -0.00024476365 0.00013460504
-0.0010919913 -0.00043251808 -0.00017497882
-0.00012883956 -0.00041001954 -0.0017761213
-0.00052661478 -0.0005510113 -0.0011137469
-0.0021929087 -0.0021976295 -0.0026681942
-0.0021295259 -0.0021385252 -0.0028242879
-0.0024176931 -0.0006523967 -0.0011453381
0.00014345889 0.00029397215 -0.00053296407
0.00022505461 9.0332702e-05 0.00030031416
0.00039335419 0.000548771 0.00073172507
0.00036964603 0.0010624494 0.0006113167
0.00023610862 0.00091099908 0.00010579993
0.00028403531 0.00028155957 -0.00055024086
0.00059271132 0.00071296608 -0.0007782919
0.00076707243 0.00069107424 -0.00095639151
0.00022923482 0.0005339444 -0.0010835486
0.00018946812 -0.00096879579 0.00081083871
0.00015437369 -5.4842989e-05 0.00034740305
0.000145675 0.0009250954 0.00069193047
0.00017025099 0.00059031579 0.00058395811
-0.00035133428 -0.00013301922 -0.0001051289
-0.00035866961 0.00014035504 0.00051294663
-2.8536813e-05 -0.00012557197 -0.00083468464
-0.00094030332 -0.00059459481 -0.0012152822
-0.0025454676 -0.0027051885 -0.0039461944
-0.0013161607 -0.0013336759 -0.0013088339
-0.0017440037 -0.0011300468 -0.0013431725
-0.0006295506 -0.00041314127 -0.00052232959
4.2924679e-05 0.0001616409 0.00030231351
0.00023137365 0.00051482086 0.00033272151
0.00048343555 0.00094609841 0.0011340912
0.00059527752 0.0004903705 1.9759249e-05
0.00055644085 0.00026464876 -0.00063683477
0.00062892848 0.00054638914 -0.00094195444
0.00028881378 0.00058933219 -0.0010064782
0.00015244717 0.00065765227 -0.0011371634
0.00080597558 0.00037725409 -0.0013368203
0.00021566461 -0.001610017 0.0017448534
6.1213155e-05 -0.00028426701 -0.00026314225
0.00070217409 0.0010299538 0.00068580516
0.00062390545 0.0011301044 0.0010163471
0.00057041628 0.00069800881 0.00072450767
0.0001735377 7.1412956e-05 0.00040853029
-0.00033524956 -0.00021725096 -0.00039521905
-0.00059903396 -0.0012554891 -0.0023648234
-0.0035515183 -0.0021417711 -0.0036934034
-0.0036363888 -0.0024658821 -0.003160706
-0.0035095601 -0.002647545 -0.0027646064
-0.00097008538 -0.0014805343 -0.0012059037
-0.00063777732 -0.00056371809 -0.00067410455
0.00041897714 0.00106367 0.00098103972
0.00066967227 0.00095265731 0.0010522321
0.00078258826 0.00053529709 0.00029946404
0.00064045971 0.00056314055 -0.00018339914
0.00041525159 0.00054471765 -0.0009288885
0.00010505645 0.0008264496 -0.00055311446
-6.4589178e-05 0.00087639497 -0.00091598392
0.00012391177 0.00050895743 -0.0011034202
-0.00023351877 -0.0019628587 0.0021468441
0.00030554069 0.00081793364 0.00038845165
0.00080188742 0.0017206804 0.0016704184
0.0018987482 0.0035832396 0.0031475096
0.001726042 0.0025909545 0.0023399256
0.0010004444 0.0010299976 0.0016762657
0.00043387746 0.00044607604 0.0014536807
0.00059478899 0.00047745532 0.0010226036
-0.0022760299 -0.0019958615 -0.0045196465
-0.0048861154 -0.0034519092 -0.0056761242
-0.0014158468 -0.0012120979 -0.001868117
-0.0025659015 -0.0018991574 -0.0023697515
0.00026364625 -0.00025429687 -0.00019002786
0.00045308718 0.00052214408 0.0015523271
0.00032364656 0.0012201887 0.0014240176
0.000142452 0.00094446313 0.00084447011
8.6091524e-05 0.0013867316 0.00046179796
1.3042728e-05 0.0010027763 8.8552842e-05
-5.6911234e-05 0.0011064099 -0.00037553484
-3.4713579e-05 0.00086897955 -0.00059237488
0.00021292575 0.00065063377 -0.0010974618
-0.00047585997 -0.00057315914 0.00013105808
0.00020421432 0.0013889859 0.00057537743
0.00017104081 0.00032115003 0.00039803112
0.0001996616 0.00089866237 0.00070541981
0.00061502523 0.0029685884 0.0030305258
0.00028531457 0.00099949364 0.0023673906
0.00028007478 0.0020679734 0.005171054
-0.0012434984 -0.0012360223 -0.0019555483
-0.0052801655 -0.0029349197 -0.0067056697
-0.013147069 -0.011102367 -0.015434208
-0.0055862293 -0.0042237961 -0.0044234251
3.6118108e-05 -0.0012476384 4.234791e-05
0.00027609206 0.00078754238 -1.7020315e-05
0.00030050881 0.0010897411 0.0017850158
0.00024225058 0.0014963781 0.0011963942
-0.00018546439 0.0016351312 0.0009898186
-0.00013814552 0.0013957839 0.00051415473
-7.3389296e-05 0.0011777828 -0.0003417886
0.00012245438 0.00095489697 -0.00067535049
0.0004291271 0.00065291947 -0.00096529827
0.00014038441 -0.0018293334 0.0024815963
0.00010242914 -0.0003260239 -0.0003064078
-0.00039841988 0.00080773968 0.0013627815
0.00020600198 0.0031632213 0.0042346697
0.00017745577 0.0011739889 0.0015344513
0.00013939873 0.0011843712 0.0028792829
1.0403937e-05 -4.4782711e-05 -4.2747113e-05
-8.3686034e-05 -0.00036865723 -0.002139685
0 0 0
0.0026319297 -0.0052569052 -0.008089886
0.00090107264 -0.0024783832 -0.0042208997
-8.9057743e-05 0.00038053608 0.00087029627
3.0838626e-05 0.00090190407 -0.00021015249
2.2584863e-06 0.0011189017 0.0016087493
4.0674931e-05 0.0012823949 0.00098702649
0.00016369441 0.0018433834 0.00093964499
-4.1649182e-06 0.0012197878 0.00055972062
0.00010355748 0.0013249986 -0.00022113636
0.00027253199 0.00084928173 -0.00055505545
0.00053674594 0.00093619624 -0.0008534824
-9.8003162e-05 -0.001365768 0.001497445
0.00014360706 -0.00042302618 -0.00033769631
3.6062636e-05 8.5901565e-06 0.00022695739
9.5647038e-06 0.00078973151 0.0011366791
-0.00051673577 0.00082081894 0.0010265643
-0.00044424197 0.0011214878 0.0028226909
4.8686175e-06 -2.4415145e-05 -3.4060115e-05
0.00074058346 -0.0025830083 -0.002777206
0.00068873219 -0.00049718469 -0.001267064
0.00085067033 0.0002753904 0.00028375414
-0.00068141602 0.00046691025 0.00072634773
-0.00064895483 0.00065700291 0.0016035476
-5.0868435e-05 0.00098969426 0.0015099379
0.00050935231 0.0014009604 0.0012448065
0.0003005297 0.001371348 0.00099277811
0.00040113798 0.001338808 0.00062070455
0.00051324622 0.0017679842 0.00026071139
0.00030217241 0.0011915599 -0.00030371509
0.00044474675 0.0012154276 -0.0006754559
0.00035017219 0.0011018884 -0.00071157562
0.00017069085 -0.0022820379 0.0019666804
-9.0314432e-05 -0.0010228454 -0.00010932758
-2.0176891e-05 -0.0006613179 0.00026664473
-0.00039847172 0.0003683398 0.0005102483
1.7588583e-05 0.00016399666 0.00010315851
2.9010906e-05 0.00070653926 0.0011848289
0.00014665963 0.00062725629 -4.4736025e-05
0.00017277076 -3.0694086e-05 -7.5321688e-05
-0.00037388603 0.00046144251 0.00061901909
-7.6310367e-05 9.1804381e-05 0.00018134945
-0.0024517416 0.0016425711 0.0041925181
-0.0013718823 0.0022048173 0.0032358139
0.00021141728 0.00091878034 0.0018113782
0.00036234554 0.0023026969 0.0014206429
0.00027954776 0.0015581837 0.0011197838
0.00024051027 0.0012475054 0.00041731613
0.00024238568 0.0016204137 -2.7046628e-05
0.00019560577 0.0012508221 -0.00030109857
0.00024821371 0.0012489691 -0.00052297738
0.00021593086 0.0013084806 -0.00051400613
-0.0001699986 -0.0016927805 0.00099692657
-9.0687034e-05 -0.00094540435 4.5648034e-05
-6.2579398e-05 -0.00053482415 7.8145604e-05
-9.1416332e-05 2.7989567e-05 0.00030456769
-2.4363189e-05 0.00014965753 0.0008212041
-0.0001027462 0.0014768185 0.00114442
0 0 0
3.5170058e-05 0.00095733034 0.0011886808
-4.6538325e-06 0.00049236935 0.001293632
-0.00028079032 0.0004564533 0.0016298544
-0.001979304 0.0019772239 0.004430783
-0.00097079115 0.0015829457 0.0022281262
-0.00022438714 0.0020548045 0.0012459388
2.0636853e-05 0.0011836488 0.00092259841
0.00017300363 0.0015330425 0.00065472408
1.1780316e-05 0.0011018692 0.0001980641
4.5749512e-05 0.0015800606 -0.00013026161
0.00011091687 0.001314293 -0.0003313272
0.00013140832 0.0013208305 -0.00037870021
4.8175289e-06 0.0013934341 -0.00034813545
4.4785185e-05 -0.0021576697 0.00061136455
-9.7529381e-05 -0.0019184239 -9.4768504e-05
3.8759613e-06 -0.0016233867 0.00016854955
0.00018322075 -0.00031272238 0.0006077193
9.5812167e-05 -0.00026847841 0.0015372731
2.3317756e-05 0.0024252401 0.0017007239
7.5407501e-05 0.00062436255 0.00056362996
0.00033649435 0.0013136277 0.0017648005
-0.00019154673 0.0016795937 0.0031429781
-0.00083109183 0.0013673509 0.0025868679
-0.001688869 0.0014772145 0.0025927392
-0.00075422635 0.0021842076 0.00101062
-0.00019343366 0.0013928401 0.00042794526
-0.00012913642 0.00068913319 0.00019835861
-7.2914481e-05 0.0010774176 6.8420936e-06
-3.0092006e-05 0.0010918041 -0.00014808915
-8.8142617e-05 0.0014485858 -0.00025132782
1.0425526e-05 0.0013575746 -0.00032558193
6.1230145e-05 0.0014891933 -0.00033475575
-0.00029597373 0.0015136562 -0.00031182275
-5.4053933e-05 -0.0015204733 0.00013536077
-0.00020844355 -0.0011957899 -0.00046370272
-0.00050238078 -0.0013771353 -0.00068117853
-0.00028634979 -0.00051910657 -0.00012918787
-0.00022267019 -0.00032434467 0.00029033449
-5.4338376e-05 0.0002874849 0.0011145971
0.00056558487 0.0021911066 0.0018226907
-7.8378733e-05 0.00041476503 0.00057591399
-2.9516234e-05 0.00032732906 0.0010783103
-0.00027490425 0.00067748607 0.00089993369
-0.00018411435 0.00094668689 0.00020474328
-0.00014642451 0.0005453637 -0.00016858961
-2.3795717e-06 0.00068768754 -0.00022745361
-7.9489393e-05 0.00053064403 -0.0002218795
-0.00013992797 0.00084451848 -0.00038962832
-9.3275434e-05 0.0010345103 -0.00037541927
-0.00012423239 0.0012908658 1.2201081e-05
8.6905271e-07 0.0013847994 -0.00036807859
0.0001214833 0.0015291452 -0.00027435776
9.3193688e-05 -0.0017221133 -0.00075858104
1.5004086e-05 -0.0023606077 -0.0013478529
7.1996445e-05 -0.0021370894 -0.00068279944
-8.4889536e-05 -0.0010293641 -0.00013802166
0.00014182959 -0.0013037336 0.00013408318
0.000258124 -0.00050647691 0.00088401733
0.00015069182 -0.00035401052 0.00097934389
1.0201353e-05 -0.00079608394 -0.00014220287
-0.00024297595 -0.00028187063 -0.00034080714
-0.00024527681 0.0011723037 -0.00063658191
2.4924679e-05 0.00074367831 -0.00081385154
0.00024921546 4.4895165e-05 -0.0011716537
9.1858004e-05 0.00028525412 -0.00029457008
-8.8103741e-05 0.00038680693 7.9481404e-05
9.2283895e-05 0.000471401 -0.00041501824
1.7948794e-06 0.00043104906 -0.00054292119
-0.0001034423 0.0012054036 -2.2523285e-05
0.00016530835 0.0013610863 -0.00019702662
0.00024889386 0.0015107575 -0.00010156731
3.0555893e-05 0.001865392 0.00012243277
0.0001649232 -0.0010653051 0.00025796995
0.00037789717 -0.0021127795 -0.0010336259
4.7948713e-05 -0.0011370751 -0.00080138515
-0.00011554238 -0.0011157432 -0.00079298322
6.4218541e-05 -0.00034408999 -0.00024346302
-0.00013139269 -0.00040935338 6.7568949e-06
-0.00030190326 -0.00026301248 0.00034002587
-0.00047209579 -0.00021162727 0.00018504393
2.1337439e-05 -0.00061294489 0.00039533596
0.00018804784 0.00055533653 9.3777244e-06
-0.00033798232 0.00053064409 0.00012966373
-0.00015989892 0.00046724107 -0.00056579593
3.6626596e-05 -0.00049009931 -0.001825386
0.00011196136 6.4748783e-05 -0.00072829769
0.00016419498 0.0002857084 -0.00025822251
0.00011792617 0.00067221327 -0.00069357356
0.00022641868 0.00055190327 -0.0014426002
0.00011801065 0.00079786056 -0.00076539564
0.00016553818 0.0012454257 -0.00025379093
0.00023548596 0.0016957024 0.00011826802
-0.00010994844 -0.00083585212 0.00019980171
-0.00059625908 -0.0024219761 -0.0014102686
-0.00044278425 -0.0021204818 -0.0016869733
-0.00032398457 -0.0027122449 -0.0019900044
-3.9277757e-06 -0.00077716837 -0.00019608298
0.00023918391 -0.00026916133 1.6282174e-05
0.00030901883 0.00034940921 0.00080169877
0.00026295742 0.00099193503 0.00088594883
-0.0004126374 -0.00013954203 9.1178583e-05
-0.00025477662 0.00091798563 0.00035208158
0.00036354639 0.00047297412 -0.00034619492
0.0001341084 -0.00032192183 -0.00089484564
-4.618369e-05 -0.00033750222 -0.00085063401
-0.00017724487 -0.00014377863 -0.0014098292
-0.0001354868 -0.00022107846 -0.001970967
6.0594994e-05 0.00013350134 -0.0015832946
0.00044474067 9.8314711e-05 -0.001777999
0.00031544614 0.00033180721 -0.001201525
0.00016534176 0.0013487632 -0.00023730633
-4.9799219e-05 0.0017264189 6.5781504e-05
4.3448304e-05 -0.00075294467 0.00017359089
0.00058275397 -0.00088314054 -0.0010027624
0.00012689862 -0.00090429414 -0.00080496597
5.1902858e-05 -0.00046298219 -0.00020757622
-5.2375366e-05 -0.00066371786 -0.00065275974
-0.00027841073 -0.00016216587 -0.00019735235
7.7465927e-05 1.5575137e-05 0.00011806172
1.3458158e-05 0.0015652287 0.00052551762
0.00023676699 0.0015520747 0.00099876348
-4.9791861e-06 0.00081673847 -0.00023473507
-9.0374808e-05 0.00065393397 3.0390267e-05
0.00029545202 -0.00032764513 -0.00083907589
0.00045344007 -0.0004915407 -0.0013041414
0.00010722941 -0.00023368414 -0.0014661669
-0.00011248938 -5.4662833e-05 -0.001560688
0.00035688537 0.00012106979 -0.0020973484
0.00062174583 -6.1312014e-05 -0.001875726
0.00044984114 0.00041238955 -0.00084269949
0.00016575778 0.00057717296 -2.1077771e-05
-0.00012895532 0.001712218 4.5440509e-05
0.00023696851 -0.0013350636 -0.00031598462
0.00020321591 -0.00063703512 -0.00089015142
1.1472665e-06 -0.00081216323 -0.00093408366
0.00013758168 -0.0010397276 -0.00091212918
6.7363828e-05 -0.00053098798 -0.00056196103
0.00019188385 -0.00022943632 0.00012342806
9.8068696e-05 -0.0001921394 -0.00012827503
-4.3439755e-05 0.00024465617 -4.316691e-05
-0.00035638476 0.00072152622 0.00024351481
0.00035408151 0.0016193092 0.00011226755
-0.00024454095 0.00035683598 1.3524973e-05
5.5355522e-05 -0.00032334274 -0.00062123232
0.00028628414 -0.00018418855 -0.0010294393
0.00025702905 -1.1674872e-05 -0.0014186455
0.00047442529 -0.00021022874 -0.0017973466
0.00022572104 -0.00014177278 -0.0017257098
0.001119024 2.5401466e-06 -0.0019872787
0.00050022738 0.00071393885 -0.00054403115
0.00056346931 0.0012446827 -0.00048258164
0.00015917426 -0.0011031255 -9.1833965e-05
0.00043430057 -0.00085578533 -0.0010529507
0.00043794155 -0.00090995961 -0.0014208502
0.00051526149 -0.0013012324 -0.0010463496
0.00021433033 -0.00046663155 -0.00037653046
-0.00010593143 -0.00017571992 -0.00016855172
-6.3442705e-05 0.00027273886 0.00026928287
-5.1106505e-05 0.00026716807 -5.0022842e-05
0.00076660817 0.00067790807 -0.00021707495
-4.5008055e-06 0.0020147224 0.00054073398
0.00026184975 0.0004497972 0.00028823942
-8.1963808e-06 0.0003911333 0.00014434593
0.00028460374 -0.00019775698 -0.00063609111
0.00028032035 0.00023284393 -0.0012462211
0.00047982164 -7.1619666e-05 -0.0014466171
0.0011345195 -9.8372206e-05 -0.0017967171
0.0013955077 0.00010142134 -0.0013332606
0.00087834708 0.00077311811 -0.00097041891
0.00035680819 -0.00078322709 -8.2229693e-05
0.00072811428 -0.00057458325 -0.00069084106
0.0007020997 -0.00088258297 -0.00095628144
-8.9777255e-05 -0.00051654945 -0.00046924059
0.00017609514 -0.00095781084 -0.0011030202
0.00045320528 -0.00081534812 -0.00075855613
0.00047495688 -0.00051386846 -0.00077286264
0.00039441153 -0.00011874812 -0.00046124501
0.00017954881 0.00065003021 -2.5005609e-05
0.00024168738 -6.0728631e-05 -0.00041990646
2.5766058e-05 0.00098521239 0.00078795891
5.1706942e-05 0.00017415412 0.00011790758
-8.1649741e-05 7.7334946e-05 -6.84974e-05
0.00056242378 0.00022373228 -0.00083296734
0.00054111722 0.00048564366 -0.00099502958
0.0011923992 0.00022987749 -0.0012627696
0.0014520995 0.0007559536 -0.00083177851
0.00024180708 -0.00071262621 3.4212844e-05
0.00055591081 -0.00033335574 -0.0004963798
0.00059463427 -0.00064969243 -0.00095915882
0.00051530672 -0.00088599045 -0.0011166425
0.0002552704 -0.00025155226 -0.00052994018
0.00014531962 -0.00027652332 -0.0001015235
0.00021220374 0.00040227812 -0.00035223927
0.00034688748 0.00023275767 -0.00012082847
0.00052908919 -0.00015138784 -0.00032695479
0.00022167248 0.0010689262 -0.00017103399
-8.4805637e-05 0.00035100203 0.00017997409
-9.7489894e-05 0.00065743149 0.00028511873
8.0925216e-05 0.00039945924 -1.0571967e-05
0.00071687793 0.00068839133 6.8435729e-05
0.00084031984 0.00067283999 -0.0002821204
0.001438378 0.00079208601 -0.00044487452
0.0011513843 0.0012320939 -0.00042240261
0.00050692185 -0.0010936157 -0.00047416639
0.00043995911 -0.00024422823 -0.00054026378
0.00037536104 -0.00032581692 -0.00064073142
0.00076620048 -0.0012634431 -0.0015938473
0.00057249918 -0.00075077853 -0.00090433849
0.00018236612 -0.00019877449 -0.00024233991
-1.5015246e-06 0.00014610495 4.0362276e-05
5.9041835e-05 0.0010964565 7.9690428e-05
5.9004858e-05 0.0003218936 0.0001030331
0.0002535189 0.0010498314 0.00030643886
0.00023557978 0.00036953931 0.00010871342
0.00023682752 0.00085710769 0.00037972504
0.00021951135 0.00065204204 0.00035165931
0.00043133553 0.0010672954 0.00061746914
0.0010491468 0.0013458348 0.00061488448
0.0012495981 0.0010555722 0.00022213328
-0.00023932138 -0.0009095057 -0.00040038169
0.00024574081 -0.00079113327 -0.0009505098
0.00054122292 -0.00051474368 -0.00073117926
0.00044609411 -0.00050999742 -0.00056435418
0.0001354369 -0.00018314725 -7.9519712e-05
1.1285067e-05 3.228839e-05 0.00047572717
0.00012552761 0.00074351003 0.00076426484
3.8086171e-05 0.00027217096 4.4393246e-06
0.00011959032 0.0014063435 0.0012073927
1.62461e-05 0.00050858659 0.000175376
0.0001302196 0.00084747857 0.00052343862
0.00018965547 0.0010160372 0.00055351219
4.6294095e-05 0.001397648 0.00093570683
0.00047869561 0.0015519107 0.0010489757
0.00075737241 0.0015426865 0.00079148408
0.00094097573 0.0015429837 0.00054320705
4.344212e-05 -0.0003429733 -0.00013738169
-3.7637537e-06 -0.00090736744 -0.00099409337
0.00019098082 -0.00037735564 -0.00036387809
0.00019219825 -0.00058645749 -0.00059915491
2.8063414e-05 -3.9175484e-05 -9.2058244e-06
-0.00015206156 -4.0357885e-05 2.6314672e-05
-0.00013095823 0.00037403911 0.00018806641
8.0891368e-05 0.0012202765 0.00020255712
-7.6012853e-05 0.001192318 0.00092709833
-6.3447005e-05 0.0012838213 0.0010370073
-0.00020311841 0.0011595306 0.00084880006
0.00058149599 0.0013489744 0.0011646842
0.0001177296 0.0016675846 0.0012211114
7.9515477e-05 0.0017276846 0.0011956157
0.00097140082 0.0014956929 0.00077555398
0.00016949297 -0.00093585224 -0.00070519198
0.00012880719 -0.00054854108 -0.00043397662
0.00011875245 -0.00015412111 -7.1407914e-05
-0.000316283 -0.00063095381 -0.00057288544
-0.00027073387 -7.2409784e-05 -5.9814833e-05
-5.1660783e-05 0.00012937677 0.00011643033
0.00070737675 0.0014141431 0.0007589322
4.2603337e-05 0.00091944233 0.00067531026
7.777982e-05 0.00060369767 0.00037932213
0.00051422982 0.0011248537 0.00076544756
0.00028393677 0.0014808557 0.0009835508
0.00028209106 0.0013214293 0.0013932782
0.001109813 0.0014342803 0.0011475311
0.00072741136 0.0015243513 0.00068779383
0.00086323044 0.001577385 0.0011143485
0.00012388181 -0.00056737935 -0.00042564547
3.0204885e-05 -0.00035311555 -0.00050074968
1.2962279e-05 -0.00013075653 -8.3801378e-06
0.00016002686 -0.00024030711 -0.0001757258
0.00010745946 -4.6538033e-05 -8.1656299e-06
-0.00020437839 0.00022762395 -0.00030723217
5.9594739e-05 0.00025999057 0.00033433392
0.00029457535 0.00076749135 0.00046463075
-0.00012090259 0.0013595917 0.00092160649
3.4218254e-05 0.0011275847 0.0010023352
0.00063109328 0.0015539796 0.00091486721
0.0011010522 0.0018708669 0.0017406067
0.00066827127 0.0010640187 0.001529093
0.0011297346 0.0013896689 0.0008891935
0.00038760097 0.0013441307 0.00091825012
-0.00031818449 -0.00028121285 -0.00024162604
0.00018306615 -0.00063472893 -0.00057768886
-0.00017102092 -0.0004587837 -0.00058007991
-0.00015632535 -0.00019310581 -0.00017097226
-0.00016383323 -7.2960975e-05 0.00019296681
4.3562541e-05 0.00010407434 0.00023056737
0.00012408844 0.00030646578 0.00034731562
-2.802201e-05 0.00049637072 0.00027618906
0.00049996987 0.00099415239 0.00067337445
2.1550284e-06 0.00095947139 0.00065786351
0.0011555107 0.0015885655 0.0010676087
0.00054495712 0.0016151695 0.0016509269
2.6674026e-05 0.0013560712 0.0011455389
0.0013572628 0.0012219617 0.0010068992
0.00045549049 -0.00034535656 -0.00022177566
-6.2799372e-05 -0.00013695088 -0.0002190325
5.3721204e-05 -0.00019093399 0.00017475139
0.00037223831 -0.00019134876 -0.00017541125
-0.00010709131 6.6480125e-06 0.00035766012
-0.00026883135 -3.493937e-05 0.00014230089
-0.0001135396 0.00048240405 0.00067570532
5.8574777e-05 0.00032915224 6.2640007e-05
0.00073105644 0.00021872364 -1.2373704e-05
-9.3410308e-05 0.00070543122 -0.00010214034
0.00068997365 0.0017137601 0.0014129555
0.00038074906 0.0013186194 0.0014710892
0.00087160472 0.0011167256 0.0011190865
0.001049069 0.001073304 0.00097082689
-0.00050591567 0.00077064411 -0.00031078936
0.00017110798 -2.1704256e-05 9.6770287e-05
-0.00016135034 -0.00018313981 -6.895158e-05
-0.00015691812 5.1219406e-05 0.00037753963
7.472463e-05 -0.00020140572 0.00041183099
7.4785137e-05 -6.4541775e-05 4.6427558e-05
-3.4078581e-05 0.00024252418 8.6059787e-05
-0.00027054176 0.00028375984 -0.0003705954
-0.00042354208 -0.00028943992 -0.00037183528
2.5063253e-05 0.00020932227 0.00025013904
0.00055900944 0.0014279212 0.0013993215
0.00093979202 0.0013160562 0.0015652702
0.00089047296 0.0013262137 0.0012551226
0.0014821434 0.0018299946 0.001637655
0.00056448695 0.00030277943 0.00045806167
-7.1030503e-05 0.00019128266 7.3834592e-05
-0.00016453868 -5.2073388e-05 2.1197593e-05
2.1450311e-05 2.4931793e-05 0.00033501451
-9.6271164e-05 -0.00011872237 0.00041192517
-0.00010493131 0.00036630942 0.0001345843
0.00014316908 -0.00025258458 7.2256531e-05
-0.00018409228 -0.00021583686 -0.00051809533
-0.00033158119 -0.0002185184 -0.00035541682
0.00070465461 0.00096453028 -2.7386173e-05
0.00078190636 0.0018365846 0.0019279951
0.00017190199 0.0013734853 0.0018330734
0.00052998966 0.0011359022 0.0018456441
-0.00016883948 0.0023631682 0.0020566818
0.00057110091 0.00052518531 0.00040788425
0.00012371027 0.00020168314 0.00019608671
0.00030282504 0.00032577632 0.00059142726
-0.00015292758 -7.2277573e-05 0.00058563048
-6.5144784e-05 0.00044710256 0.0003623495
-8.8740708e-05 -9.3346382e-05 0.00016524091
-5.0515584e-05 -0.00029958895 -0.00056048133
-0.00014122897 -0.00013248257 -0.000376148
0.001092797 0.0021711935 0.0013655368
0.00050929387 0.0022881124 0.0020203071
-7.9958889e-05 0.00083197816 0.0021256122
0.00053590134 0.0013214573 0.0019770209
9.0749796e-05 0.0025436881 0.0019454001
0.00044353318 0.00045749376 0.00075229094
0.00074513158 0.00071995263 0.00050874223
-6.8320012e-05 1.9150832e-05 0.00038965835
-0.00019448012 0.0003362413 0.00038691645
-0.00043513282 -0.00017332703 -5.9947357e-05
-0.00014683175 -1.5958911e-05 -0.00029240042
0.00057933171 0.00034518362 -0.00017718672
0.00055557006 0.0024295896 0.0017116806
1.8154768e-05 0.0027109359 0.0021632914
0.00060567958 0.0015639396 0.0023699915
0.00044336365 0.00044634443 0.0021625964
0.0020559391 0.003339747 0.0033272661
0 0 0 1 0 0 0 1 0 0 0 1 0 0 0 0 0 764 1 0 0
