ply
format ascii 1.0
comment PCL generated
element vertex 764
property float x
property float y
property float z
element camera 1
property float view_px
property float view_py
property float view_pz
property float x_axisx
property float x_axisy
property float x_axisz
property float y_axisx
property float y_axisy
property float y_axisz
property float z_axisx
property float z_axisy
property float z_axisz
property float focal
property float scalex
property float scaley
property float centerx
property float centery
property int viewportx
property int viewporty
property float k1
property float k2
end_header
0.00093956396 3.5100205e-05 0.00027201182
0.0011102394 -0.00018633241 0.00018561629
0.00072712806 0.00029991218 0.00055172091
0.00089513545 0.0011500904 0.0012026943
0.00045908336 0.0013526244 0.0017679195
0.00070200866 0.00063452392 0.0012632628
0.00095905911 0.00058597169 0.0010567912
0.0012198369 0.00020946759 0.00054666382
0.0014405106 0.00012160859 0.00041965675
0.0018798579 -0.00046781066 -0.00042353244
0.0019257596 -0.00096330803 -0.00093361863
0.0032079711 -0.0014593916 -0.0021729798
0.0023453962 -0.00057167461 -0.001018316
0.0020022152 -0.00040543597 -0.00045071519
0.0019943418 -7.2666153e-05 -1.6023369e-05
0.0020246913 0.000298053 0.00013078249
0.0017844696 0.0012579579 0.00029771496
0.00098525209 0.00030154665 -3.1488729e-05
0.00068659382 -0.00020374764 0.00017838755
0.00032629096 0.00045022662 0.00082859135
8.8484558e-05 0.0010952606 0.0010156366
-0.00041577828 0.00089238945 0.0010705196
7.442206e-05 0.00087344501 0.0010841655
0.00053888012 0.00053423375 0.00030870037
0.0011109383 0.00018208998 0.00066098088
0.0012817074 -0.00018222853 -0.0004501506
0.0025521854 -0.00091629964 -0.0011206784
0.0022033935 -0.0012097496 -0.0015258656
0.0023687317 -0.00094940845 -0.0014293726
0.0019060182 -0.00045446449 -0.00092916982
0.0020551756 -0.00051572273 -0.00085103197
0.0015532501 8.4968735e-05 -0.00065887772
0.0014193929 0.00066859048 -0.00025503043
-4.8651106e-07 0.00095001957 0.00010712542
0.00011629078 0.00040310668 0.0004042596
0.00026734086 0.00057505548 0.00030324838
-4.379091e-06 0.00054368062 0.0007475384
-0.00036775615 0.0014119971 0.00143422
-0.00018306258 0.00093462481 0.0016508088
-0.00029649545 0.00088756805 0.0012274581
0.00032914034 0.00050107139 0.00081334886
0.00042126793 0.00026928438 7.8939847e-05
0.0011875802 -0.0002792883 -0.00034587702
0.0016500251 -0.00078235287 -0.00065508438
0.0013575222 -0.0005338614 -0.00079526444
0.0017542343 -0.00063046458 -0.00098447001
0.0018859454 -0.0002903048 -0.00040054074
0.0014262177 0.0002036137 -0.00033918733
0.0012846737 0.00021276122 -0.00037156197
0.0016196385 0.00067343103 0.00018045871
0.00062755123 0.00069776614 -0.00010578863
0.00037701 0.00029483277 0.00043657987
-0.00021151651 0.00089129835 0.00056797243
-0.00010262683 0.0013752794 0.001158971
-0.00050287123 0.0016256232 0.0013319515
-0.00036553448 0.00083892309 0.0010002553
-1.3331391e-05 0.00051241677 0.0011792302
0.00031135281 0.00056183024 0.00055484707
0.00069023616 0.00033447918 0.00027706212
0.00061982387 -8.8126144e-05 1.3808747e-05
0.0016044059 -0.00039632933 -0.00028518902
0.00088265067 -0.00025823514 -0.00012786928
0.00055055571 -0.00014240322 -0.00031062719
0.0013365363 -4.5043071e-06 8.9795743e-05
0.0011624412 5.5916429e-05 0.0001919599
0.0013138609 0.00038404291 -0.00013438368
0.00070355251 0.00029475862 6.0098897e-05
0.00065559894 0.00074376265 0.00025172773
-0.00017107694 0.0004349518 0.00056070386
0.00030510832 0.0005828648 0.0002758858
0.00017500322 0.0007514201 0.00086831761
0.00035196179 0.0012012157 0.0010882652
-0.00018112223 0.00058145839 0.0011123267
6.8013476e-05 0.00079823413 0.0011572539
0.00026366138 0.00058147946 0.000555682
0.0005249643 0.00065928575 0.00045486068
0.0006460002 -7.7084287e-06 -0.00010885634
0.00017464772 -0.00035605766 0.0001110211
9.6669137e-05 -0.00016178301 -0.00024632231
-4.401986e-05 0.00040438038 0.00016977316
0.00052626699 0.00018559532 0.00013395878
0.0004048355 0.00011906645 0.00042159532
0.00078451366 0.00035047109 0.00035105136
0.00051110785 0.00043550346 0.00014168113
0.00032016772 0.00070447836 0.00061660865
0.00014100655 0.00051727914 0.00045391091
-2.8261533e-05 0.00065621221 0.00030947878
2.3225841e-05 0.00013020703 0.00041114548
-0.00012801551 0.00042265249 0.00027886266
0.00035924822 0.00078458397 0.00082632306
0.00020395209 0.0015702053 0.0013307369
-0.00018862497 0.0010659422 0.0012600715
1.1960481e-06 0.00079027674 0.0013294572
7.2271578e-05 0.00029420052 0.00045993036
-6.675037e-05 -9.3957053e-05 -0.00015217155
0.00017218533 7.5262062e-05 -0.00020914357
-0.00013950835 0.00041818657 0.00017621378
-7.6026727e-06 0.00045063702 0.0007106972
0.00013099273 0.00025145317 0.00075846678
0.00050758175 0.00020589711 0.00060838199
2.5836547e-05 0.000465252 0.00093007472
0.00012123099 0.00078592496 0.0009390809
0.00014527372 0.00058915128 0.00049758417
0.00016307575 0.00073167024 0.00049013481
-0.00019455285 0.00027814833 0.00026745431
0.00021061953 0.00037307807 0.00024263098
0.00012095846 0.00073375745 0.00037499703
-0.00014189362 0.0011936961 0.0011343517
0.00018142383 0.00087299582 0.0010063209
-0.00015142935 0.00078603637 0.0016966837
-7.6096672e-05 0.00037565731 0.0011474629
0.00032482328 0.00024208507 0.00041786797
0.00020859059 0.00027642853 4.7084333e-05
0.00011404009 0.00033595733 0.00039281248
-9.2997107e-05 0.00069876667 0.0009995508
0.00018526382 0.00038983035 0.00075947982
1.8828034e-05 0.00018374139 0.00092826836
-5.5385601e-05 0.00025248071 0.0012430608
0.00048548958 0.00065122609 0.00072961638
-0.00016774751 0.0011308198 0.00060461403
-0.00016084434 0.0010206122 0.00034781374
0.00012327802 0.00046770956 0.00039153965
7.7476907e-05 0.00033703228 -7.9806036e-05
-5.2018811e-05 0.00043654328 0.00051911431
0.00015884552 0.0012596796 0.0011925104
3.6190664e-05 0.0013292793 0.0012809297
-6.5270353e-05 0.00094927161 0.0022230526
0.00016028681 0.00074956432 0.0015199678
0.00024035279 0.00026297916 0.00097723072
-3.0100908e-05 0.00060012838 0.00048525975
0.00022049648 0.00037640665 0.00023041714
0.00017002385 0.00061170029 0.00052801956
0.00056196976 0.00026283573 0.00066872174
6.1751348e-06 8.1529739e-05 0.00056447089
2.8378039e-05 -1.7068001e-05 0.00072410086
0.00037020317 0.00019719022 0.0006802365
0.00022993871 0.00086145307 0.00050338102
0.0002058932 0.00085728016 0.00034247251
1.4006598e-05 0.00062055152 0.00013913488
-0.00015699898 0.0005060882 0.00018729911
0.00017170582 0.00041657148 0.00062737544
0.00014441901 0.0012950521 0.0011436674
0.00020605995 0.0015712347 0.0014436723
0.00019167218 0.00086073147 0.0017599112
0.00011539162 0.00036594871 0.0013728333
8.2934912e-06 0.00029004068 0.0013037111
-6.6111497e-05 0.00062348106 0.00081284106
0.00018566217 0.00032880125 0.00049274182
0.00042763626 8.2529725e-05 0.00039446668
0.00079282088 0.00023440387 0.00029722598
0.00065778405 4.6367812e-05 0.00057468866
0.00039577371 -0.00018124984 0.00071456865
0.00027733541 -0.00012438033 0.00053546054
-6.787523e-06 8.138975e-05 0.00070962892
0.00011433257 0.001085592 0.00024355539
0.00028920194 0.0008845047 0.00029212024
2.8875547e-05 0.00077557052 4.7633894e-06
-7.1025184e-05 0.00084925181 -4.2266597e-06
-4.1368101e-05 0.0006184043 0.00050966203
-2.8776889e-05 0.0011873799 0.0010111191
-2.7025675e-05 0.0015909629 0.001541366
0.00014619507 0.00092988583 0.001548795
9.3386097e-06 0.00015813623 0.0013720122
1.0163999e-05 0.00030408576 0.0011435685
-2.8241426e-05 0.00045417319 0.0011194081
0.00029102975 0.0002058751 0.00046528457
0.00024801539 8.0488317e-05 0.00061009609
0.00020342143 9.6994598e-05 0.00054368679
0.00073253299 0.00016124088 0.00059054763
0.00072735164 0.00011858196 0.0002049227
0.00073087093 0.00031978314 0.00078126963
0.0007403245 0.00036323752 0.00073245092
0.00050958741 0.0003535283 0.00076179823
0.0002084107 0.00094347988 7.0684553e-05
8.1390441e-05 0.00091245072 -0.00021086622
8.6098749e-05 0.00097568787 -0.00019750965
-4.5161469e-05 0.00062701356 -7.0980561e-05
-0.000148149 0.00020077132 0.00011168004
-0.00041598064 0.00035902017 7.7702563e-05
-0.00016371782 0.0015301831 0.001329063
-1.4889278e-05 0.00086079154 0.0011746844
-0.00011785302 6.1297651e-05 0.0010804822
-0.00015268708 0.00018140103 0.001003978
7.8958714e-05 0.00044675817 0.0012374691
0.00011011389 0.00019096737 0.0006425209
5.0049865e-05 -8.3683684e-05 0.00082812313
0.00043180652 0.00022260175 0.0011030193
0.00074259203 0.00026767221 0.00093069137
0.00055373681 0.00031005518 0.0005758669
0.00076867064 0.00043365429 0.0012675715
0.00071775564 0.00047979326 0.0013060059
0.00055645086 0.00037565976 0.0010697878
0.00048880407 0.00039537711 0.00078944513
-1.4128983e-05 0.00090827479 -0.00023737742
4.1849376e-05 0.00083073333 1.0936379e-05
0.00015397169 0.00090747478 -0.00017136912
-0.00037662772 0.00052823877 -0.00024712039
-0.00039931291 -8.2637425e-06 -0.00022679147
-0.0011921648 0.00012634575 -0.00034193453
-0.0015309347 -0.00012852253 -0.00035624264
-0.001718999 0.00049406395 0.00055125554
-0.00068997295 -3.8114911e-05 0.00059020717
-0.00046775336 0.00021158256 0.00090460933
-0.00018374265 0.00017175046 0.0010554184
3.4492059e-05 0.00010362615 0.0011386256
1.8268416e-05 5.568736e-05 0.00091534911
0.00015035209 6.0080798e-05 0.0011091959
0.00040946971 0.0001595808 0.00094845361
0.00050817226 0.00029392165 0.00094083161
0.00061743119 0.00041728007 0.00097394997
0.00071542303 0.00036639548 0.0010722518
0.000457972 0.00031520537 0.0009332287
-2.7248447e-05 0.00034300608 0.00093975675
5.5429493e-05 0.00095162477 -0.00017275389
0.00018887012 0.0010122031 -0.0002750431
-5.360955e-05 0.00067862571 -0.00046610954
-0.00019156624 0.00033379634 -0.0004336939
-0.00089077285 -0.00018178053 -0.0003979223
-0.00090329163 7.8441575e-05 -0.00065294217
-0.0011402692 -0.00019479245 -0.00043962724
-0.0012329146 8.4186249e-05 8.2467057e-05
-0.0011077926 0.00089905265 0.000735818
-0.001143944 0.00015731947 0.00068183261
-0.00087758579 0.00038792077 0.0013156889
-0.00015986968 5.7329413e-05 0.001077218
9.8636956e-05 0.0001185966 0.0014804214
0.00025675187 0.00017581871 0.001329046
0.00014043908 0.00018921991 0.001236566
0.00011023272 0.0001949001 0.001098636
0.00040726701 0.00029204425 0.00097832736
0.00073129684 0.00035440229 0.00078211143
0.00052496814 0.00033813782 0.0008485032
0.00031257051 0.00026397823 0.00066021289
-7.0944341e-05 0.00098280073 -0.00013456546
-5.7189056e-05 0.0008401674 -0.00017538424
-5.8364676e-05 0.00061609846 -0.00041673146
-0.00022459557 0.00033666214 -0.00068088202
-0.00091596658 0.0002044521 -0.00074689358
-0.0013763452 -4.2048228e-05 -0.00048399775
-0.0012824368 6.3198611e-05 -1.5723897e-05
-0.00036824253 0.0004636845 0.00085023162
0.00049709703 0.0010827396 0.0012733261
0.00051986182 0.001326988 0.0015235016
0.00043782595 0.00089069089 0.0024409567
-0.00064056233 0.0002651808 0.0014439003
0.00010273435 0.00016042698 0.0015164898
0.00017268112 0.00017923587 0.001477001
0.00013722402 0.00017059904 0.0012983208
5.4069737e-05 7.2699229e-05 0.0011201958
0.00014164044 0.00011191725 0.00096557662
0.00051789673 0.0003957765 0.00071901211
0.00067609816 0.00017501971 0.00088675186
0.00030266208 0.00010205765 0.00078707037
0.00023840442 0.00090216915 -0.00014887541
0.00019290482 0.0014552727 -0.00022048199
2.7260405e-05 0.00094646751 -0.00029052523
-0.00027745689 0.00026760704 -0.00063898938
-0.00086645287 -1.5989115e-05 -0.0014839532
-0.00047321405 -0.00012638023 -0.00097907428
-0.0011829076 -0.00029236608 -0.00083769846
0.0001204932 0.00027384289 0.00063783844
0.00051800185 0.0007620742 0.0013469032
0.001241831 0.0014890588 0.0018748655
0.00083212822 0.0014041922 0.0014818843
0.00061820075 0.0012125168 0.0020577027
0.00016301929 0.00038571714 0.0015776379
0.00016750288 0.00040937064 0.0015321026
-3.5442208e-05 -0.00012090321 0.0010619285
0.0001448524 -9.3234135e-05 0.00082146749
0.00027949776 4.0204231e-05 0.00054531737
0.00044497947 4.2632379e-05 0.00050728687
0.00030384667 8.182021e-05 0.00068670255
0.00019853606 0.00023281534 0.00051297597
0.0007799911 0.00018285631 0.00072301825
-9.3866256e-05 0.00096231099 -6.9455418e-05
0.00028569539 0.00080721948 3.016798e-06
0.00014473454 0.00090645417 -0.00034940476
-0.00011672932 0.00035923588 -0.00057800894
-0.00060798362 0.00014416402 -0.00079759251
-0.0010182039 -0.00067953311 -0.0021325548
-0.00017775934 0.00013050559 -0.00028910793
0.0005237023 0.00051397318 0.0011590573
0.0017137929 0.00050776452 0.0016033814
0.0011950026 0.00090646523 0.0011079613
0.001289853 0.0013635367 0.0015831676
0.0012574811 0.0021434205 0.0018560342
0.00021025943 0.0014966819 0.0020644669
0.00016955362 0.0007227356 0.0018146606
0.00022141862 0.00018844646 0.001082178
0.00035933079 -0.0001007317 0.00064916274
0.00044423901 -4.7120266e-05 0.00033292358
0.00045024935 -0.00020525037 0.00022935735
0.00014674391 0.00013029983 0.00068654155
-1.974704e-05 0.00027260048 0.00074166222
3.7512247e-05 0.00019676695 0.00090930419
0.00030781791 0.00079258415 0.00017244932
0.00032306713 0.0015317525 -3.6314952e-05
0.00020710377 0.0005375265 -0.00033086207
0.00014438547 0.0006501599 -0.00015266449
0.00011487953 -9.3619426e-05 -0.00048014263
4.8108344e-05 -8.4425745e-05 -0.00083638716
0.00058808934 0.00013261953 0.001036449
0.00013977292 0.00020426563 0.00071903318
0.0019180521 0.0013275867 0.0034364853
0.0017436092 0.0015667854 0.0021429709
0.0024357343 0.0027164489 0.002962857
0.0018543924 0.002804915 0.0027450409
0.0014433827 0.003047945 0.0024748861
0.00066746637 0.0019083377 0.0029072093
0.00041703493 0.0008402096 0.0023613796
0.0001504197 0.00019758254 0.0014518703
0.00021627211 0.00037843306 0.0010808721
0.00020597085 0.00022765885 0.00094451691
-1.2448528e-05 0.00035397807 0.00093426195
-8.4850071e-05 0.00021079043 0.0011643481
0.0001807888 0.00029439136 0.00078898622
-0.00011895385 0.0017301269 -0.00046063404
-0.00019264639 0.00015676723 -0.00024284825
-1.8163217e-05 0.00011834638 -0.00047850146
-5.8111862e-05 -0.00011205544 -0.00010303305
-9.0425849e-05 1.5541907e-05 -9.0438036e-05
-0.00026588366 -4.4859287e-05 0.0014045357
-9.7943936e-05 0.00012919492 0.00066269131
-0.00026314138 0.0013365804 0.0035880401
-0.0019925227 0.0077114985 0.0099634081
-0.00044023467 0.0043330085 0.0056115314
0.00027499086 0.0032967881 0.0037162059
0.00082675018 0.0034900068 0.0037103042
0.0007245834 0.0027836745 0.0022866288
0.00032260362 0.0012554121 0.0023864049
0.00021771841 0.0013108914 0.0019093469
-8.1066471e-05 0.00075684016 0.0015526515
-9.3607916e-05 0.00054165762 0.0011593882
-8.0294638e-05 0.00060957472 0.0011370055
5.3657928e-05 0.00040118315 0.00095888146
0.00034595857 0.00040762531 0.00060643425
0.00016607241 0.00054020208 -0.00016745614
-9.7217317e-06 0.00096943352 -0.00034096563
-1.9071895e-05 3.4136687e-05 -0.00052975852
-6.3571992e-05 -0.00059302081 -0.00046959368
7.2366915e-05 -2.0968399e-05 0.00013292502
0.00026521724 -1.5150712e-05 0.00201065
3.9948442e-05 0.00012639155 0.00065001071
0.00018795695 0.0021131551 0.004052504
-0.0014112904 0.0024792615 0.0039389962
-0.0022305523 0.0047711306 0.0075214761
-0.0010703399 0.0033436634 0.0038503879
-0.0010110529 0.0039374004 0.0038970625
0.00033272037 0.0029087812 0.0027146752
4.0278719e-05 0.0014813197 0.0019613688
-3.7322836e-05 0.0016417656 0.0022425193
1.8393994e-05 0.0012350116 0.0018169305
-1.5998898e-05 0.00067584316 0.00095879979
0.00010930668 0.00088815973 0.0014126969
0.00020422423 0.0004345013 0.0010215295
0.0005419529 0.00048485215 0.00086300593
2.6761647e-05 0.00062842562 -2.9202856e-05
2.9724586e-05 0.00059154199 -0.00013186163
1.5758087e-05 -0.00012315542 -0.00025649436
-3.7924801e-05 -0.00013608638 7.0806578e-05
-4.9637667e-05 -6.2524225e-07 0.00012904087
-0.00033560666 0.00019311761 0.0010098604
-0.00033643798 6.9682144e-05 0.00061184459
-0.0010649229 0.00057432195 0.00084926077
-0.00039201655 0.00036938474 0.0006243682
-0.0024434554 0.0031889442 0.005829405
-0.0017299415 0.0032940528 0.0044126608
-0.0012987732 0.0037132606 0.0038242519
-0.000637308 0.002848157 0.0024953727
0.00024867279 0.0017678562 0.0018024272
4.8156002e-05 0.0017452135 0.0020517467
0.00024562894 0.0010221187 0.0015741292
0.00064158574 0.0012387219 0.0017440112
0.00047439293 0.0010854694 0.0015309461
0.00070441997 0.00090633112 0.0010889537
0.00062992622 0.00047407966 0.00069390581
-0.00020647852 0.0017427368 -0.00010458447
-0.00011469605 0.0012660142 1.9919349e-05
-8.6599772e-05 0.00034639408 -0.00020123637
-4.8192618e-05 6.7944668e-05 0.00044746883
8.8761582e-05 0.00030165663 0.00053728075
-0.0002887584 0.00064817065 0.0016617121
-0.00045882861 0.00054980308 0.00070836215
-0.00066741067 0.00050086097 0.00084092701
-0.00048783398 0.00028037769 0.0011864742
-0.0008527881 0.00046784489 0.0016630187
-0.0023340983 0.0035270592 0.0052271164
-0.0017896892 0.0037161154 0.0033453617
-0.00079843949 0.0025848344 0.0019373343
0.00020697064 0.0022730525 0.0021323198
0.00028569199 0.0019255468 0.0022296018
0.0002324942 0.001181982 0.0018870994
0.00027060357 0.0014475426 0.0017818348
0.00033467938 0.0012042372 0.0014598944
0.00057293742 0.00096496934 0.0012782835
0.00077319809 0.00056506693 0.0009463582
9.7877477e-05 0.00073214527 5.305927e-05
5.4744964e-05 0.00058858254 4.8967759e-05
4.3699292e-05 0.0002145648 -7.1725146e-05
-2.8874572e-05 8.371976e-06 0.00043384646
-4.3025768e-05 0.00046539574 0.00044379433
-0.0001363973 0.0012461442 0.00064878358
-2.2392016e-05 0.00043163862 0.00053481536
-0.00026719994 0.00030954694 0.00078838965
-0.00026777468 0.00054750039 0.0015681939
-0.00090927735 0.00086926628 0.0040568244
-0.0010359209 0.0017329673 0.0020328069
-0.0015588843 0.0028221624 0.0021029238
-0.00031671955 0.0019474124 0.0020379014
-7.1164992e-05 0.0013078192 0.0021016558
0.00020336796 0.001675879 0.0020114591
-1.4049006e-05 0.0011073356 0.0016634981
1.8344581e-05 0.0014601165 0.0017019487
0.00015731696 0.0012484004 0.0015668642
0.00038071541 0.00096713187 0.0012663555
0.00065574812 0.00073500874 0.0010326671
-0.00034424337 0.0019956885 -3.9718263e-05
-0.00029910647 0.0018838535 6.6269975e-05
-2.2932634e-05 0.0005636962 0.00031123063
4.3528791e-05 0.00025100893 0.00099678221
9.1507791e-06 0.0011024901 0.00080105063
1.5354204e-05 0.003084596 0.0015221594
0.00037929171 0.0022175282 0.0021248129
0.00022192115 0.00098842871 0.0023400413
6.998708e-05 0.00046329043 0.001139285
-0.00065614667 0.00060133013 0.001731796
-0.0012065453 0.0019469408 0.001790822
-0.0010353818 0.0028018036 0.0024336714
-0.00029116211 0.0016083869 0.0018375093
-0.00017272551 0.00077362946 0.0016085487
-7.7500947e-05 0.0011848256 0.0014481524
1.5602907e-05 0.0012950529 0.0015826015
-8.6961532e-05 0.0014612119 0.0015940035
-9.3585346e-05 0.0013272784 0.0015178942
0.00011986145 0.0011300955 0.0013540952
0.00068096415 0.00084114244 0.001055682
0.00022849138 0.00058988406 9.0363777e-05
4.7917529e-05 0.00029610327 -9.6545344e-05
3.9092894e-05 0.00018039966 0.00013021605
5.0139293e-05 0.00041146725 0.00026272106
-6.6753375e-05 0.00019904129 8.9985384e-05
-8.8043678e-05 0.00048956554 0.00044214012
-0.00010261457 0.00070090208 0.00046048898
1.9955793e-05 0.00085292221 0.0008847923
-0.00017990608 0.0015653238 0.0016963239
-0.00013945278 0.0010106893 0.0011937042
-0.00023572965 0.0010436861 0.00066647498
-0.00016240818 0.00075711828 0.00089130027
-0.00015710408 0.00071228645 0.0009607455
-0.00017003779 0.00053974963 0.0012903208
-7.0299734e-06 0.00095429173 0.001123451
9.5068019e-05 0.0014449249 0.001446601
8.3815205e-05 0.001473544 0.0015799652
0.00029386434 0.0015269278 0.0018293171
9.0285321e-05 0.0013773044 0.001724566
-0.00022870996 0.0004867774 0.00024377491
-0.00029580365 0.00039897443 -6.2644249e-05
-0.00011181112 0.00033135421 0.00030656107
-0.00018930247 0.0011418631 0.00029423286
-0.00010693075 0.000674451 0.00047297071
0.00015418234 0.0014448322 0.0010942669
0.00017997874 0.0021136734 0.0014207059
0.00012143461 0.00088829518 0.00096122635
-0.0002431101 0.00081620814 0.0004885543
-0.00014409608 0.0012817115 0.00075426954
8.1076665e-05 0.00097071461 0.00048973499
0.00029158103 -7.2657426e-06 -0.00021247311
0.00013965496 0.00033907135 0.00039712689
5.7403809e-05 0.00044656586 0.0008995781
0.00032625464 0.00052513764 0.0007682849
0.00038793049 0.00085319305 0.00088334468
0.00052648783 0.001590542 0.0020151117
0.00040338433 0.0017302412 0.0021376023
0.00030085276 0.0018675805 0.0022766632
0 0 0
0.0010344381 0.0010520405 0.00081890461
0.00038798479 -0.00049560593 -0.00037331783
0.00022444151 0.00011869422 2.6517203e-06
7.6236378e-05 9.0902853e-05 5.0115465e-05
7.2789553e-05 0.00015307346 1.4139681e-05
-2.3077408e-05 0.00018050165 0.00012185413
-6.6463137e-05 0.00031398467 0.0003204653
-0.00015084086 0.0014267341 0.00028120616
2.0948114e-06 0.0011730741 0.0011383012
0.00018557832 0.00098479062 0.00047332168
-0.0001549046 0.0005071371 0.0001498011
3.3281951e-05 0.0005509833 4.4423989e-05
0.00015786226 -0.00069410919 -0.0012272438
0.00013431527 0.00015632121 -0.00014735083
0.00015302846 0.00015006929 0.0006563731
0.00014348263 0.00051834731 0.00066630973
0.00035741445 0.00095980131 0.00098038686
0.00076298305 0.0018080709 0.002273486
0.00052317837 0.0020558804 0.0027236296
0.00092410319 0.0023820852 0.0034083014
5.8155747e-05 0.00038049568 0.00029695974
-0.00027710211 -0.00045287187 -0.00051896559
-0.00027818335 -3.250494e-05 -0.00039610857
-0.0003521372 0.00063327438 0.00042860745
9.1460177e-05 0.0014790576 0.00097215798
-5.2013587e-05 0.00073304406 0.00077430153
6.0365921e-05 0.00084337901 0.0011082388
0.00011523601 0.00088596588 0.00051793415
-9.245296e-05 0.00033849577 0.0004602824
-0.00023823464 0.0008310001 0.00018081081
0.00042351932 0.00041256699 -0.00017713747
0.0001879379 -0.00045322714 -0.00092598225
0.00013199908 -0.00053521711 -0.00099266088
-0.00012584211 -0.00016563927 -0.001371781
-0.0003175532 -0.00046111215 -0.0010392583
-1.3929284e-05 0.00035421553 0.00024733596
0.00029198552 0.00075168232 0.00081320369
0.00052943191 0.0020531593 0.001988176
9.4224546e-05 0.0021047993 0.0032558276
-0.00022905094 0.0026628473 0.0040636589
-9.7154327e-05 0.00013871773 0.00027823329
-0.00021533384 -0.00072897342 -0.00085217174
-0.000122164 -0.00023917212 -0.00022690513
7.1272276e-05 7.2958399e-05 3.0153578e-05
0.00013590071 0.00034669586 0.00023757353
-2.0889232e-05 0.00048325452 0.00034954646
-0.00014421011 0.00070764578 0.00094285852
-0.00014058614 0.0024099541 0.0012244433
0.00016296576 0.0013912102 0.0013788064
0.00025385208 0.00062099739 -0.00042738888
-3.1836233e-05 0.00043169042 -0.0002459267
0.00011526076 -0.00053541263 -0.0010878067
0.0005110841 -0.00061955838 -0.0015178823
0.00027331174 -0.00050252955 -0.0016069059
7.2465817e-05 4.1548137e-05 -0.00074417703
0.00014889707 0.0003342602 -7.5623604e-05
0.00011275819 0.00093218632 0.00090079044
0.00015974217 0.0015900891 0.0020029361
-0.00034693553 0.0021587561 0.0033868561
-0.001533431 0.0029785414 0.0050577088
0.00092558283 -0.00074878754 -0.00058130664
0.00041517674 -0.00057642336 -0.00081417098
0.00013388225 -0.00032222344 -0.0004814938
1.7979464e-05 0.00012030141 7.609465e-05
-0.00023387473 0.00055052369 0.0004524703
-2.9184588e-05 0.0010284593 0.00097869243
0.00018659158 0.00077634281 0.0011658671
0.00011362145 0.00082272576 0.0006205946
-5.5529134e-05 0.00089001033 0.00085363176
0.00010250739 0.0014985657 0.00012017218
1.2250433e-05 0.00025533701 -0.0001734992
0.00027358931 -0.00050568243 -0.00074761675
0.00058560062 -0.00029948234 -0.0013333334
0.00014350095 -0.00011757611 -0.0014996154
0.00052824058 0.00028555104 -0.00074857898
0.00014272083 0.00073360861 -0.00016552235
0.00025259602 0.0014617692 0.0011125661
0.00031859078 0.00175844 0.0020814086
-0.00049841055 0.0015900498 0.0023989063
-6.0745202e-05 -0.00050271006 6.7995548e-05
0.00026679068 -0.00062178221 -0.00087936741
-0.00010961575 -0.00064436207 -0.0012303402
0.00029250103 -0.00020969017 8.9465073e-05
0.00023409911 0.00020301013 0.00037176989
-2.2265356e-05 0.0003969809 0.00049460738
-0.0002196826 0.00080943445 0.0011912604
-0.00016110534 0.001462023 0.0009301948
0.00031516008 0.0014112359 0.00051987224
-0.00010051656 0.0023121638 0.00077968853
0.00030953716 0.00038741104 0.00018490473
0.00014834621 0.0004774945 0.00032406385
0.00068204186 -0.00024474438 -0.00052818644
0.00038033479 0.00019628076 -0.00095346087
0.00031955627 0.00044973477 -0.000395082
0.0011682443 0.00085739139 0.00033053741
0.00098255055 0.0015430481 0.00081749866
0.00077877613 0.0021758059 0.0023230808
0.00058637245 -0.00027824705 -0.00011779417
0.00083991798 -0.00033140215 -0.00062972057
0.00083581085 -0.00052288501 -0.00051063299
-6.0395658e-05 0.00014384577 0.00031747049
-9.4914358e-05 -7.7745563e-06 0.00011933842
-3.185857e-05 8.5817255e-06 0.00032371277
0.00012994283 0.00022512705 0.00020387155
0.00019115413 0.00062514935 0.00027642678
8.8102432e-05 0.0015980896 0.001041568
4.7824145e-05 0.00053289498 0.00019473645
-8.6797845e-05 0.0011010908 0.0010284858
0.00023721115 0.00037543155 0.00031550441
5.6007208e-05 9.5188385e-05 0.00018494661
0.00086017657 0.0001985509 -0.00045740948
0.00038505319 0.00057839538 -0.00011460961
0.001217715 0.0010383107 0.0004151591
0.001133411 0.0014785568 0.0013981164
0.00059939671 5.6568148e-05 0.00096250587
0.0010295057 -0.00016356198 -0.00022581565
0.00082175754 -0.00075687689 -0.0010345795
0.00037392529 -0.0010321779 -0.0012495249
0.00018056647 -3.8517439e-05 -0.00014873777
9.6979573e-05 -7.7977107e-05 0.00028543032
-7.7433797e-05 0.0009474582 0.00084448938
5.8961123e-05 0.0013898653 0.0009022954
0.00018077475 0.00080124947 0.00086012878
-0.00018257851 0.0020263498 0.00069957977
-6.145989e-05 0.00076638296 0.0005796873
-0.00018488635 0.00091824564 0.00052917993
0.00019710278 0.00048057578 0.00016145493
0.00095635495 0.00071459671 0.00033396593
0.00075331418 0.00082211895 0.000451164
0.0015212487 0.0013849183 0.00072938274
0.0008858252 0.0020442409 0.0015373986
0.0002903991 -0.00025388197 0.00052478578
0.00058736926 5.6944933e-05 0.00012235563
0.00044373269 -0.00020718538 -0.00035159322
0.00082991918 -0.0011264341 -0.0013852877
0.00057386566 -0.00041677532 -0.0004704523
0.00023081772 -7.1432936e-05 9.9994249e-05
3.9028979e-05 0.00047435591 0.00067738671
-0.00017949719 0.0015557107 0.00096647488
1.2943542e-05 0.00071436138 0.00075237692
0.0001068116 0.0020693245 0.0012351245
0.00010767605 0.00076431595 0.00072118343
0.00022547942 0.0012659775 0.00076427875
0.00033706499 0.00076345797 0.00043153763
0.00051068381 0.001198492 0.00083026168
0.0013137637 0.0015989476 0.0010895673
0.0010560038 0.0014368705 0.00082050211
-0.00025002068 0.00042655441 0.0014043201
3.5965128e-05 0.00011089865 0.00035065034
0.00047625179 -0.00025055124 -0.00028559752
0.00051073229 -0.00026215983 -0.00023104115
6.1788705e-05 0.00030272134 0.00076332287
-0.00016144359 0.00031205508 0.00099343073
-8.5602944e-05 0.00090526161 0.0011375665
8.5502092e-05 0.00043097799 0.0002872537
-4.9166843e-05 0.0012096154 0.0011455762
8.4580177e-05 0.0011019261 0.00074371387
0.00021336232 0.00084714527 0.00074256229
0.00037424476 0.0012108575 0.00056794914
0.00020301755 0.0011374748 0.00077295024
0.00059024652 0.0015092444 0.0010987869
0.00067968376 0.001745879 0.0010559859
0.0011371447 0.0018635642 0.001282673
0.00012998297 0.00018141406 0.00033926853
8.0936188e-05 0.00022241048 0.00042994245
-1.3606576e-05 7.370986e-05 0.00065585313
0.00010540526 -0.00036916981 -8.044314e-05
0.00011557168 7.5810596e-05 0.00023017057
1.4442763e-05 0.00014599558 0.00032609451
-4.5716526e-05 0.00059917156 0.00058316177
-9.8267468e-05 0.0011402284 0.000335269
8.6586613e-07 0.0010339159 0.00072585355
-3.439351e-05 0.001907401 0.001274202
-0.00020217749 0.0013019827 0.00069814589
0.0010652837 0.0012220399 0.00086624362
0.00028584176 0.001366329 0.00091371505
0.00014874413 0.0016266198 0.0012308268
0.00067548151 0.0018956794 0.0013177599
-7.6873199e-05 0.00067609706 0.0012295884
-2.0420095e-05 0.00038477636 0.00072826492
0.00013448529 0.00010686227 0.00062013674
-0.00022846089 0.00018522741 0.0011919995
-0.00025126777 0.0003952875 0.00080250355
-0.0002477185 0.00026405544 0.0003212156
0.00078208366 0.00031307584 -6.9573354e-05
0.00029215199 0.00012690715 -4.1646505e-05
0.00024904215 0.0006536505 8.6085893e-05
0.00071607088 0.0011848804 0.00059255556
0.00052134466 0.0014552887 0.00074666721
0.00053768663 0.0013420343 0.0011464463
0.0010313783 0.0013985665 0.0010625691
0.00068632292 0.0018482707 0.00084614486
0.00062129385 0.0022486986 0.0016116855
0.00017476124 0.00053239014 0.00081557623
-0.00015247293 0.00062317436 0.00096400257
-0.00012903639 3.1312942e-05 0.00094930537
0.00018993551 0.00011515369 0.00043850194
0.00017356849 0.00013170832 0.00035174502
-0.00019088527 0.00024287484 -0.0002167358
3.1711967e-05 -0.00011613448 -5.1734871e-05
-0.00031131125 0.00027397252 -0.00035412415
-0.00017910694 0.00069434883 -9.9474193e-05
0.0002416736 0.0010788426 0.00064603105
0.00070073688 0.0015762585 0.00058007281
0.00012686668 0.0019476626 0.0019834933
0.00027865503 0.0019631127 0.0018594071
0.00070706569 0.0022344538 0.0013416888
0.00057749142 0.0020901959 0.0015381175
-0.00011655727 0.00091425405 0.001101514
0.0002154868 0.00017620556 0.00045762034
5.6120309e-05 -7.2018782e-05 0.00049520255
-0.00016502837 0.00032601142 0.00091666763
-0.00020831435 0.00016838331 0.00071991887
7.4428222e-05 7.8013481e-06 0.00013511692
-0.00022017302 6.2357736e-05 -0.00019485006
-0.00027101493 0.00012512476 -0.00011790195
-4.2893316e-05 0.00060898968 -0.00012678951
-0.0002715569 0.00091875577 9.8469347e-05
0.0004778131 0.0019934138 0.00082418136
-0.00011446614 0.00157786 0.0019108278
5.9521415e-05 0.0023588799 0.0017656392
0.00043909805 0.0024962779 0.0013421398
0.00018769491 0.00068186218 0.0010726646
-0.00024439563 0.00055438268 0.0011450308
-8.2579696e-05 -7.6751217e-05 0.00051288691
0.00032101365 2.0282811e-05 0.00032036036
-4.791787e-06 -2.2129017e-05 0.0003800797
-0.00030930882 -8.926911e-05 0.00011287333
-0.00010803727 0.00031319121 0.00038972354
8.0832819e-05 0.00035440794 -0.00011233796
0.00065752916 0.00014347471 -0.00026396019
7.9839891e-05 0.0010540197 -0.00040470142
0.00042319478 0.0025491524 0.0015282859
-3.4284742e-05 0.0017670301 0.0016541403
0.00025152435 0.0023637658 0.0019273552
0.00037225831 0.0023955945 0.0019669421
0.0008644996 0.0012514695 0.00081063027
0.00020622041 0.00029715296 0.00055735814
3.696897e-05 8.626499e-06 0.00062296056
-0.00017389993 0.00026341225 0.0010217037
6.4653439e-05 -0.00022250795 0.00061380665
0.00011658665 -8.7142995e-05 4.7624781e-05
-8.8520472e-05 0.00023230384 -0.00013270309
-0.00024367312 0.00044441613 -0.00056157919
-0.00038947735 -0.00013498116 -0.00081767951
-0.00024913141 0.00044570232 -0.00010736501
-0.00032717717 0.0018072149 0.0012776926
-0.00025989089 0.001208024 0.00190017
0.00010392663 0.0016356341 0.0018814012
0.00015218846 0.0024001792 0.0014595203
0.001349518 0.0016051226 0.0012336707
0.00068107876 0.00089704769 0.00075011473
0.0001450144 0.00052870612 0.00060471002
0.00018218513 0.00018391944 0.00074386195
0.0001126284 1.0587968e-06 0.0010261569
-6.402158e-05 0.00051411247 0.00024310754
0.00016147537 -0.00020051721 6.8615744e-05
-0.00024408578 -0.00010994267 -0.0006095834
-0.000513762 0.00024412986 -0.0004441799
0.00017277364 0.0016155152 -0.00021274987
0.00052408705 0.0012807973 0.001105082
-6.2802297e-05 0.00087189412 0.0015282505
1.7969474e-05 0.00054380437 0.00091360771
-0.00013817646 0.0024814371 0.0018674312
0.00092241279 0.0013717831 0.0011708833
0.00099460455 0.0011688262 0.00093188364
0.0011127869 0.00059044542 0.0012473543
4.6601039e-05 0.00029616582 0.0010103264
-5.4593398e-05 0.00065463886 0.00071757566
0.00016698569 0.00038854353 0.00045532701
-6.0176262e-06 0.00057526241 0.00010063255
-8.6593936e-05 0.00059844815 -0.00026579975
-0.0001314807 0.0022870318 0.00078401132
0.00013737944 0.0016565897 0.0012480099
9.667319e-05 0.00039888988 0.00079460128
0.00025151647 8.3147643e-05 0.00069346081
0.00033471637 0.0019050165 0.0012875827
0.0011746534 0.0012553489 0.001502333
0.0011128492 0.0015174017 0.0011188071
0.00021768879 0.00062779646 0.0010200278
9.3617986e-05 0.00060846476 0.00099835556
-0.00016376893 0.00059852551 0.00057493825
0.00018128582 0.0009672342 0.00038326916
0.00026092638 0.0013600935 8.6155174e-05
-0.00037628005 0.0036171575 0.00094767637
-0.00027328386 0.0018315577 0.0012732338
-0.00019501764 0.00078532594 0.00081899384
-0.00010640365 0.00020198715 0.001431695
0.00010516591 0.0030565278 0.0021684472
0 0 0 1 0 0 0 1 0 0 0 1 0 0 0 0 0 764 1 0 0
