ply
format ascii 1.0
comment PCL generated
element vertex 764
property float x
property float y
property float z
element camera 1
property float view_px
property float view_py
property float view_pz
property float x_axisx
property float x_axisy
property float x_axisz
property float y_axisx
property float y_axisy
property float y_axisz
property float z_axisx
property float z_axisy
property float z_axisz
property float focal
property float scalex
property float scaley
property float centerx
property float centery
property int viewportx
property int viewporty
property float k1
property float k2
end_header
0.00079994154 0.00066216371 0.00061598781
0.0011574855 -3.1165728e-05 0.00016612338
0.00057198037 0.00025311907 0.00052422896
0.00079917966 0.00092157669 0.0010502605
0.00041436203 0.0015461067 0.0017324943
0.00057461893 0.00095662824 0.0015746896
0.00073487544 0.00047901683 0.00099272258
0.0014507424 0.00041356694 0.00066142727
0.0016790058 0.00011042131 0.00034905731
0.0025377402 -0.00066190906 -0.00096598885
0.0019510349 -0.0011089515 -0.0015633259
0.0040788427 -0.0018694111 -0.0033465745
0.002625678 -0.0010245398 -0.0015763947
0.002062825 -0.00064400077 -0.00063669455
0.0016601395 0.00047556646 0.00030213501
0.0010542163 0.0014360928 0.0013559449
0.00031158401 0.0027902825 0.0019695123
0.00053899287 0.00047713905 4.4124808e-05
0.00063767727 -0.00024223854 0.00026211076
0.00027543187 0.00027019694 0.0006118099
0.00028229103 0.0013016952 0.0010617746
-0.00042496281 0.00092563895 0.0011064219
-1.3096745e-05 0.0010818307 0.0012361899
0.00044402163 0.0008521179 0.00062191236
0.0011386893 0.0003891096 0.0006344415
0.0014252467 -0.00013816742 -0.00050029164
0.0027757406 -0.00082778226 -0.0011008586
0.0025418913 -0.0018698607 -0.002358268
0.0044612843 -0.0019529576 -0.0037863676
0.0024478438 -0.00094621902 -0.0017374486
0.0022614452 -0.00086915621 -0.0013485505
0.0011151748 0.00074887718 -5.569878e-05
0.00012497378 0.0016949779 0.0010929427
-1.662409e-06 0.0029319567 0.0022837003
0.0003636663 0.001065903 0.000676497
0.00024828193 0.00091766613 0.00058878132
6.4549058e-05 0.00040005744 0.00056461262
-0.00028272581 0.0013266742 0.0014548459
-0.00013214698 0.00084469101 0.0015159792
-0.00033261682 0.0011464851 0.0013914534
0.00030653283 0.0006577326 0.00098305987
0.00038712766 0.00038687335 0.00013077434
0.0011778194 -0.00021433378 -0.00031430533
0.0018105021 -0.00062007806 -0.00074031739
0.0024432493 -0.0011022398 -0.0014410804
0.0019175643 -0.00080841745 -0.0016641592
0.0029567566 -0.00095605652 -0.0014050191
0.0016923158 2.9688361e-05 -0.00053908851
0.0011444227 0.00068207161 0.00029012692
3.7814709e-05 0.001387627 0.001295084
-0.00013153852 0.002535237 0.0021917827
0.00058665778 0.0010955491 0.0007929597
-0.00018602613 0.0014473008 0.00074652291
-8.1063372e-05 0.0011957481 0.00096920755
-0.00048137974 0.0015150338 0.0012167635
-0.00014348836 0.00072779926 0.0011240176
-1.0701628e-05 0.0004732674 0.0010727313
0.00027490946 0.00072804303 0.00066705019
0.00072535296 0.00050392223 0.00043869327
0.00062225934 0.00013754336 -8.0911323e-06
0.0017255744 -0.00014004008 -0.0002919361
0.00070695573 -0.0003377648 -0.0004485684
0.00074306311 -0.00042178688 -0.00078035763
0.0018287459 -0.00027715109 -0.00065763283
0.0013053466 -0.00018167097 -1.1111754e-06
0.00062612997 0.00061685842 0.00037142509
0.00018005278 0.0011770687 0.0014422669
7.380842e-05 0.0019136885 0.0018918066
-0.00016275137 0.0010453912 0.00070471206
0.00031408845 0.00078193768 0.00038596007
0.00019488859 0.00059954851 0.00067041744
0.00041208829 0.0010640835 0.00079361547
-0.00023972802 0.0005396253 0.0011138817
0.00015146509 0.00072276255 0.00087911141
0.00030879409 0.0006287524 0.00053388765
0.00068815384 0.00067281065 0.0003598186
0.00064583553 0.00015892611 -0.00010342002
0.00018550377 7.623416e-06 0.00015640604
7.0370552e-05 4.7718426e-05 -0.00013915957
-0.00026489241 0.00043846385 0.00021145448
0.00054215215 6.1935505e-05 -0.0001477777
0.00033559155 0.00021622231 0.0005153711
0.00042120743 0.00059344666 0.001080057
0.00046291022 0.0010720679 0.0014295127
-0.00027400046 0.0016535888 0.0020805788
0.00021275345 0.00095312466 0.00051125197
-1.5514326e-05 0.00067146315 0.00020992318
3.9831164e-05 -8.6548185e-05 0.00017589402
-0.00024222677 0.00021727549 -6.7244982e-05
0.00037290269 0.00041685422 0.00034730302
0.00024731198 0.0016742618 0.0011684959
7.5482072e-05 0.00072625821 0.00095358462
0.00034950158 0.000718261 0.0009729868
7.675479e-05 0.0003681505 0.00037084898
1.775177e-05 0.0002422204 6.9173766e-05
0.00028702425 0.00036863773 7.3731135e-05
-7.1778763e-05 0.00065945514 0.00047828763
-3.1752043e-05 0.00030313272 0.00062955829
2.6815907e-05 0.00039715954 0.00090800406
0.00043175023 0.00063788734 0.0014554532
0.00010559577 0.00083094573 0.0017683571
-0.00037708911 0.0013046751 0.0021187933
0.00016215928 0.00053625857 0.00043986877
0.00018645337 0.00062223099 0.00039099788
-0.00025866926 -4.0219278e-05 -3.2842931e-05
0.00043445668 0.00019486896 -7.0992872e-05
0.00012204874 0.00068545277 0.00016887336
-0.00011912149 0.0009923171 0.00065275683
0.00038795182 0.00071179844 0.0008561936
-0.00016620368 0.00089732226 0.0016144324
-4.8584188e-05 0.00033927395 0.00095215259
0.00043143434 0.00027185236 0.00040318849
0.00022334464 0.00061961263 0.00030675731
0.00024309543 0.00073572237 0.00060286734
-7.9331854e-05 0.0006166299 0.001026697
0.0002499531 0.0004066455 0.00087851722
0.00023819659 0.00041541221 0.0012258403
-0.00019979631 0.00049178023 0.0016319972
-8.2923645e-05 0.00074323831 0.0019301282
-0.00015287564 0.00062358438 0.00040415773
-0.00019025717 0.00085753022 0.00041986143
0.00024609262 0.00025166618 0.00029300788
9.5099036e-05 8.6131113e-05 -0.0005051872
-4.0417162e-05 0.00027007493 0.00031068659
0.00043364454 0.00089638954 0.00057920115
-2.236382e-05 0.0012184298 0.0010197435
-2.3168042e-05 0.00084814359 0.0017977275
0.00036434393 0.00079151924 0.0013032972
0.00029437407 0.00027017808 0.00092019566
-2.0335608e-05 0.00094467204 0.00080597313
0.00052628701 0.00085870526 0.00058248319
0.00028831704 0.00084220397 0.00073766551
0.00075032341 0.00031399974 0.00092906115
0.00027531802 0.0001620438 0.00099178881
7.602691e-05 0.00018303507 0.0013489641
-0.00030695004 0.00041456919 0.0010221162
0.00031212787 7.6033859e-05 0.00024958875
6.3013176e-05 0.00046513131 0.00029707028
0.0001185251 0.0003095268 6.4439526e-05
-0.00013431844 0.00019465397 7.4882848e-07
0.00044185793 0.00024644454 0.00046735702
0.00027527838 0.0010230689 0.00064924499
0.00012486121 0.0015864344 0.0010604176
0.00040981843 0.00084731996 0.0017300637
0.00022878846 0.00047823275 0.0013437402
3.7138454e-07 0.00031635002 0.0012523608
-6.995783e-05 0.00089307938 0.00099108298
0.00050424883 0.00094465062 0.00067890401
0.00065909268 0.00062519312 0.00076248846
0.0011756024 0.00063859328 0.0006353808
0.00085335202 0.00020018419 0.00086688879
0.00039432812 -5.7951906e-06 0.0010121185
-3.5818943e-05 0.0001114917 0.0010976911
-0.00035745392 0.00031799346 0.0010812809
-1.1911873e-05 -0.00043019079 0.000577631
0.00034044089 0.00028030211 0.00032703608
-6.8628113e-05 0.00016781801 2.888002e-05
4.6895031e-05 0.00039564175 -3.4292273e-06
5.8869708e-05 0.00045714903 0.00046480168
-0.0001755167 0.0011302045 0.00073603069
0.00042487466 0.0015539731 0.0011092636
0.00017056087 0.00080812688 0.0014316384
-3.5358353e-05 0.00030412074 0.0014830057
1.5716676e-05 0.0004256719 0.0010980633
0.00017152668 0.00075317454 0.0012508298
0.00087327254 0.00087901478 0.00075002521
0.00049176329 0.0005375609 0.00082420849
0.00047427561 0.00046590035 0.0008236643
0.0010963392 0.00052818685 0.00082289445
0.0010086427 0.00067059591 0.00053544785
0.00078044133 0.00074403547 0.00075361907
0.00074467069 0.0010399009 0.00066744606
0.00058080634 0.0010488789 0.00055638421
9.6291689e-05 -0.0010227964 0.00019750674
3.1637623e-07 -5.9129005e-05 0.00043160949
0.0001706037 0.00022093634 0.0003145005
0.00029218136 0.00029025224 0.00012424641
-0.00018001918 0.00013289398 0.00025546827
7.8022713e-05 0.00044455164 0.00026984114
0.0004463818 0.0022979707 0.0017745533
-7.5163575e-06 0.00059977168 0.00093306263
7.7949509e-05 0.00020378419 0.0011022232
0.00010144082 0.00020132997 0.00094181218
0.00075571873 0.00072836486 0.001388984
0.00075412466 0.00078623119 0.00089552091
0.00044024756 0.00015219218 0.0009501481
0.0007794319 0.00039532752 0.0011429401
0.001033255 0.00067518884 0.00093909499
0.00065486628 0.00091062317 0.00018305278
0.00076282205 0.00095717382 0.00060023536
0.00068806141 0.0011889918 0.00062341912
0.0006503468 0.0011561339 0.00050206279
0.00062788464 0.0012728537 0.00013737989
-6.5078595e-05 -0.0015163627 0.00075834233
0.00019188911 -0.00031356121 0.0006125613
0.00036261178 -5.1374318e-05 0.0003885956
-8.0549871e-05 0.00010361502 0.00036694383
-9.602397e-05 -8.2598621e-05 9.3275194e-05
-0.00030350007 -4.4111941e-05 8.3720566e-05
-0.0010470187 -0.00033159106 -0.00041548521
-0.00070221303 0.00032989174 5.0759249e-05
-7.4439267e-05 -7.961347e-05 0.0001682484
5.7468267e-05 0.00010818593 9.6508084e-05
0.00042834139 0.00059376884 0.00095096632
0.00071856909 0.0004522317 0.00092193054
0.00063241296 0.00024358652 0.00096629275
0.00045331859 0.00039148278 0.0010317694
0.00048611942 0.00079851202 0.0006433822
0.00041749483 0.00076662889 0.0002993579
0.00052463391 0.00096354866 0.00017969596
0.00062659604 0.00096292607 0.00021106594
0.00053169829 0.0012159442 0.00018604276
7.6601726e-05 0.0011617964 6.5807028e-05
0.00012105739 -0.0011098408 0.00051809073
0.00022508469 -0.00067078549 0.00031763851
-8.5354848e-05 -0.00010107268 0.00057258183
0.00014352359 -0.00021293554 0.00020575026
-0.00023640378 -0.00055262365 0.00012527511
-0.00042789339 -0.00048625009 -0.0004181446
-0.0014668013 -0.00069130951 -0.00087100547
-0.0019011416 -0.0011327064 -0.0012961314
-0.00062729931 -0.00022691423 -0.00049580564
-0.00034527114 -3.0085899e-05 -0.00053127599
0.00041700614 0.00064583158 0.00046924414
0.00024552763 0.00031967889 0.00084986439
0.00038361101 0.00010329969 0.0012404795
0.00044261402 0.00040939229 0.0011424285
0.00018002123 0.00094075676 0.0008812024
0.00010047757 0.00073971163 0.00048462418
0.0003106205 0.00058318378 6.102377e-06
0.00059206411 0.00089613197 -0.00019270417
0.00052116736 0.0011539564 -0.00011154643
0.00029103315 0.0010693411 -0.00045373529
-9.1453418e-05 -0.0015694291 0.0011623199
7.6272394e-05 -0.00074455846 0.00060917268
0.0003904225 -0.00020826637 0.00062031049
0.00056863588 -0.00031962787 0.00081363792
0.00035271508 -0.00057630875 0.00017725608
-0.00079963595 -0.00095858827 -0.00044569705
-0.0016141641 -0.00063112745 -0.00083654729
-0.001304246 -0.001135153 -0.0011505629
-0.0024000886 -0.0018466731 -0.0023832263
-0.0023445997 -0.0022020356 -0.002537471
-0.00085388607 0.0006134315 -0.00045110099
0.00022486117 0.00051882782 -4.86791e-05
0.00023742652 9.6978009e-05 0.0010316095
0.00026094768 0.00053733442 0.0010516713
0.00019863798 0.0010311737 0.0010672705
9.2316695e-05 0.00073078077 0.00058144733
7.7484503e-05 0.00022694485 -8.6792854e-05
0.00032489019 0.00069681281 -0.00041730655
0.00060579984 0.00087484287 -0.0003106946
0.00023156047 0.00082353427 -0.00056498672
0.00017845657 -0.0007606459 0.00067634153
0.00016675674 -0.00048881758 0.00079395686
0.00012028181 -7.6415097e-05 0.00085043389
0.00015052035 -0.00037184 0.00085455278
-0.00035179846 -0.00074560376 0.0001456434
-0.00010180072 2.2511827e-05 0.00053077197
-3.8098948e-05 -0.000482553 -8.9890804e-05
-0.00042554547 -0.0004776011 -0.00079759205
-0.0012257944 -0.00093787943 -0.0017055634
-0.00088408223 -0.00079637312 -0.0010066613
-0.0010084044 -0.00093558285 -0.0012317579
4.9483024e-05 0.00037865315 -0.00046318787
9.3731338e-05 0.00050983555 0.00025281776
0.00032205429 0.00078932592 0.00070165924
0.00010536305 0.0011004598 0.0009786489
0.00031990092 0.00027436196 0.00026417154
0.00023789467 0.00017133293 -0.0005089381
0.00035946528 0.00062554464 -0.00066026696
0.00027821778 0.00074509333 -0.00062659394
0.00016499971 0.00088203 -0.00089153263
0.00064002495 0.00073968514 -0.00089860568
4.3939879e-05 -0.0011245802 0.0012460061
0.00045156901 -0.00060572539 0.00047367177
0.00062222831 -0.00022102936 0.00078021799
0.00078945566 1.6335911e-05 0.0012436538
0.00071189651 0.00016235917 0.00091737387
0.00045464959 -1.2755369e-05 0.00039199486
-0.00034027122 -0.00046002245 -0.00074991921
-2.3463766e-05 -0.00020290751 -0.00043956301
-0.00056026713 -0.0005607779 -0.00074855884
-0.00041761503 -0.00039354814 -0.00054834515
-0.00018286012 -0.00035497858 -0.0004212296
-0.00032290854 -4.4455206e-05 0.00019117109
0.00023433371 0.0019049456 0.00055889937
0.0005546271 0.0015061417 0.00079264102
0.000427452 0.00091724301 0.00068376621
0.00055349927 0.00016334146 0.00014963263
0.00047421464 0.00025570809 -0.00050544064
0.00039618352 0.00050897454 -0.0010676889
0.00012323947 0.00081926171 -0.00035850468
-2.9433453e-05 0.00098947715 -0.00059548684
3.9844908e-05 0.00078863458 -0.00076136034
0.00016874522 -0.0013013274 0.0014480028
0.00027085721 -4.6327586e-05 0.00053124659
0.00045713963 -0.00035622244 0.0011723024
0.0008227551 0.00042123775 0.0013775858
0.00087576697 0.00056622655 0.0021406193
0.0013739215 0.0013507878 0.0049153799
0.0010769065 0.00078625861 0.0015134077
0.00098388677 0.00028312046 0.00098481763
0.0010985112 0.0003391974 0.0010400621
0.00013548911 -0.00012603553 -0.00049652462
0.000756244 0.00026729141 0.00050470419
-0.00029542841 0.00031953186 0.00060062081
0.00043654966 0.00073718338 0.00096268015
0.00070161617 0.0029180499 0.0013311707
0.00041778843 0.0013847791 0.0013740764
0.00016352006 0.00079477113 0.00058128947
0.00014351109 0.0010183406 0.00033873174
0.00012059965 0.00089673622 4.0525949e-05
-2.3335015e-05 0.0010626781 -0.00023257855
-8.8758141e-05 0.00090849382 -0.00021721954
0.00012679148 0.00089150702 -0.0009511286
6.4090651e-05 -0.00082779903 0.0010710274
0.00011714672 -0.00065017387 0.00057852827
0.00014241431 -0.00034978215 0.0005421958
0.0002719007 0.00021771585 0.00078183529
0.00033135721 0.00058870536 0.0020218696
0.00051587395 0.00047792369 0.0022793456
0.00041187115 0.00047086348 0.0034902038
0.0012121949 0.00087799737 0.0065558814
-0.00048774638 -0.0004091544 -0.00095496903
-0.001077843 -0.0017124253 -0.0029945672
-7.092188e-05 0.0014226492 0.00070506439
0.00085384707 0.0018733208 0.002397259
0.00061086845 0.0026300491 0.0013119908
0.00032382234 0.0013503368 0.0014789865
0.00025300734 0.0017921027 0.00074557652
-8.9043795e-05 0.0015327984 0.00067192834
-0.00010540294 0.0011911556 0.00043098416
-7.0342998e-05 0.0011824144 -0.00014263067
1.9875562e-05 0.0010382171 -0.00047270747
0.00025802208 0.00079663482 -0.00090707885
0.00013778202 -0.0013613243 0.0011907299
4.1009436e-05 -0.0013987428 0.0007305498
-9.5360687e-05 -0.0011101712 0.00072613586
0.00010514765 0.00021022109 0.0015544578
7.4948264e-05 0.00040804644 0.0023424823
8.170458e-05 0.00075331522 0.0025179819
-8.1900696e-05 0.00010190316 0.00032579308
-0.001194299 0.0017902543 0.0090170084
-0.00075615221 0.00041174964 0.00028175933
2.3539889e-05 0.00037228648 -2.4140531e-05
-0.001425209 0.0026668771 0.003414473
-0.0012088895 0.0024872925 0.003139155
0.0001519076 0.0028402498 0.0013847012
-9.1084357e-06 0.0014824327 0.0013737811
-5.0947754e-05 0.0015463128 0.00073020335
1.2129934e-05 0.0017756562 0.00080628908
-6.1167681e-05 0.0010798145 0.00040749824
6.9373382e-06 0.0012510068 7.2882307e-05
0.00014418698 0.00090081315 -0.0002831379
0.00037051531 0.0010926779 -0.00069694832
-9.0400477e-05 -0.0011444594 0.00090158189
-3.5667028e-05 -0.00085832301 0.00028158745
-2.2746492e-05 -0.00058398838 0.00028199633
-0.00011070866 7.7651974e-05 0.00058034953
-0.00024357847 0.00014626836 0.00092184637
-0.00081517641 0.00082186499 0.0016180776
-0.00013513885 0.00016136467 0.00026494038
-0.003088203 0.0024513402 0.0039585563
-0.0015036789 0.00057212036 0.0012867866
-0.0042147418 0.0029922782 0.0042127674
-0.0035511791 0.0036505717 0.006148797
-0.0014950999 0.0021730079 0.0025180932
-0.0007453367 0.0029645867 0.0016559085
-2.6011581e-05 0.0017686724 0.0012222597
-0.0001433752 0.0016956995 0.00075480324
0.00014349808 0.0012966947 0.00064545101
0.00044940604 0.0016833934 0.00052488863
0.00031426625 0.0012584152 -5.1240284e-05
0.00039331464 0.0012761805 -0.0003931782
0.00041171678 0.0010925099 -0.0006461023
2.9600027e-05 -0.0015900464 0.00094952894
-3.3189986e-05 -0.0015161471 0.00060410734
5.3846584e-06 -0.0011620028 0.00043035203
4.0057512e-05 -0.00015588081 0.0010421542
0.0001422331 5.1959138e-05 0.0021371134
-0.00015020878 0.00033625291 0.00063260557
-0.00028962753 0.0003408677 0.00027777211
-0.0014128756 0.0025380256 0.0031650688
-0.0010936777 0.00095003902 0.0020939917
-0.00047432681 0.00044943561 0.0012740892
-0.0031436507 0.0024219551 0.0044218069
-0.0018558062 0.0024874762 0.0025451011
-0.00087109883 0.0023405186 0.0012919308
0.00016199065 0.0021040938 0.0013928151
0.00030113949 0.0017262757 0.0010007357
0.00020669894 0.0012218581 0.00063564797
0.0002293557 0.0015739548 0.00034243375
0.00023319891 0.0013091858 5.8330304e-05
0.00032113411 0.001352211 -0.00023240366
0.00040021824 0.0013790425 -0.00039256451
-2.1724962e-05 -0.00082523061 0.00045888542
-7.5263823e-05 -0.00064147636 0.00026186026
-4.5202578e-05 -0.00058323366 0.0001383327
-0.00015957387 -0.00010147013 0.00046840723
-8.5647043e-05 -3.9791112e-06 0.00070757698
-0.00010909038 0.00061244838 0.0014158029
0 0 0
2.7205588e-05 0.00048600096 0.00075607642
-1.1682708e-05 0.0003148934 0.00081272068
-0.00055697915 0.00087304867 0.0019302976
-0.0020580725 0.0024756072 0.0029295993
-0.0015680915 0.0026982178 0.0012730315
-0.00028886233 0.0019620599 0.0012664791
-6.1205988e-05 0.001140447 0.0010807007
0.00015322003 0.0015548234 0.00095088093
1.4811082e-05 0.0011228432 0.00056348881
3.5616129e-05 0.001587906 0.00034289685
0.00012739199 0.0013981345 0.00017826089
0.0001783546 0.0013931682 -2.3828568e-05
0.00016419363 0.0015218605 -0.00021799034
-0.00013757974 -0.00063669891 0.00040325601
-0.00020338121 -0.00057196821 3.3467757e-05
2.3991681e-06 -0.00072267634 0.00025003438
0.00014549292 -0.0001548491 0.00074088981
0.00014198438 9.451907e-05 0.0011889494
1.7680974e-05 0.0010699093 0.0028332414
0.00054519449 0.0013705823 0.0017315437
0.00018081389 0.0009418797 0.0014386235
-0.0001071448 0.00071477104 0.0010134901
-0.00091325905 0.0010517292 0.0013998429
-0.0011915127 0.0019293749 0.00099885731
-0.00086919439 0.0023204056 0.0018307623
-0.00026535476 0.0013631581 0.00096362346
-0.00017154773 0.00072582177 0.00076014141
-9.2273527e-05 0.0010501144 0.00031557857
-2.02719e-05 0.001149221 0.00028648463
-9.1541799e-05 0.0015062017 0.00027669503
-1.5372252e-05 0.001492175 0.00035347501
7.9162462e-05 0.001602549 0.00013122222
6.8463901e-06 0.0016126427 -5.9712584e-05
0.00013449357 -8.172902e-05 0.0001152542
-0.00013963277 -0.00033060787 -0.00044264959
-0.0004266832 -0.00064054667 -0.00050360104
-0.00023978225 -0.0001850581 -3.2813121e-05
-0.00022766745 6.8629924e-05 0.00018989686
-0.00010879865 0.00039389762 0.00057640718
5.1051687e-05 0.0011735804 0.001169467
0.00010691707 0.00028400068 0.00047406292
-3.7489426e-05 0.0012086146 0.00060475623
-5.9349321e-05 0.0010914286 0.00084156229
0.00016568183 0.001335399 0.00015569763
2.4320656e-05 0.0003439885 -2.3493536e-05
-0.00024160625 0.00047620066 0.00017133221
-0.00019644531 0.00051980431 0.00036057003
-4.5847577e-05 0.00085254578 3.2118493e-05
4.2999651e-05 0.0012085002 -0.00012269392
2.0950461e-05 0.0014387383 0.00035988606
0.00014758788 0.001641678 0.00040274637
0.00015622932 0.001792685 0.00033323833
-4.0380837e-05 -0.0006822315 -0.00059102778
-0.00019088521 -0.0010094971 -0.0012098
-5.0542036e-05 -0.00063407916 -0.00043349448
-0.00011938926 7.9357364e-05 6.9939756e-07
0.0001122378 1.0817645e-05 9.7155636e-05
0.00027027953 0.0011060619 0.00099434808
0.00020173682 0.0015335337 0.0012100496
0.00027400168 0.00028967109 0.00048068122
-0.00015100997 0.00033608687 6.64326e-05
5.5013883e-05 0.0008784227 1.5973355e-05
0.00010492345 0.00064441987 -0.00032608979
0.00036945692 -0.00034997796 -0.0011388131
0.00016555924 6.1663231e-05 -0.00036331001
-1.1487333e-05 0.00036428729 0.00020147602
0.00027979194 0.00039542973 -0.00020829847
0.00025314282 0.00053226063 -0.00034769144
0.00022486094 0.0015118263 0.00060863927
0.00021082108 0.0017822355 0.00070434343
0.00040240289 0.0019704793 0.00084113074
0 0 0
0.00053407234 0.00052291749 0.00063735165
0.00043617748 -0.0010636301 -0.00090935244
0.00012814398 -0.00036583302 -0.00043701162
-3.4847846e-05 -0.00049827894 -0.00060332054
6.1096194e-05 -0.00010651646 -0.00021885813
-9.8156779e-05 -8.5227373e-05 -5.5159362e-05
-0.00019579321 0.0001743989 0.00018893597
-0.000195873 0.0016188169 9.7036907e-05
0.00018103191 6.0046808e-05 0.00034287674
0.00026177627 0.00026975569 -0.00027379708
-0.00017128349 0.00033669994 2.4592977e-05
-4.130728e-06 0.00034318736 -0.00052109529
0.00010526153 -0.00080805249 -0.0018823207
0.00013372471 -4.3426255e-05 -0.00088534656
0.00018485346 9.7821292e-05 -0.00027565545
0.00013221573 0.00049320224 -0.00044195389
0.00029241806 0.0005672315 -0.00049034174
0.00041318126 0.0013717648 0.00044585596
0.00024492628 0.0019781895 0.0011281024
0.00045443512 0.0024765923 0.0016832382
-1.7952194e-05 0.00024062391 0.00028059952
-0.00039688335 -0.00097593153 -0.0009988799
-0.00041069914 -0.00080462842 -0.0011833265
-0.00026471942 -0.0009324617 -0.0010675978
6.7510962e-05 0.0003505139 0.00022444822
0.00015644195 0.00012658034 6.7440262e-05
0.00026422064 0.00051079935 0.00054214912
0.00021163332 0.00094431097 0.00051672471
-0.00018438515 -9.1781578e-05 -7.7107161e-06
-0.00026165703 0.0003333019 -0.00036335961
0.00048583117 0.00033534478 -0.00072167808
0.00019892429 -0.00049740734 -0.0011540233
6.2298925e-05 -0.00043044268 -0.00094688957
-0.00014309464 -0.00018221291 -0.0015454054
-0.00031710017 -0.00044002637 -0.0018795334
-2.1639975e-05 0.00025347248 -0.00094718463
0.00027021766 0.00040391166 -0.00056962704
0.00034867239 0.0015811317 0.00026656178
-0.00011340619 0.0019304616 0.0015650218
-0.000370469 0.0026110953 0.0022103379
-4.5238452e-05 0.00011277942 0.0003276747
0.00018191036 -0.00084551628 -0.00097705703
2.6910288e-06 -0.00060345826 -0.00066547305
4.6045494e-05 -7.1732291e-05 -0.00011986325
-6.0534927e-05 -0.00018440594 -0.00033264645
-0.00019254201 0.00013961906 3.6927817e-05
-2.3897543e-05 0.00017295628 0.00017427988
-6.3067193e-07 0.0020392311 0.00054897618
0.00023444685 0.0013486858 0.00092363969
0.00035969258 0.00039252391 -0.00075519935
-3.2727432e-05 0.00019429596 -0.00071311614
0.00019498274 -0.00057801255 -0.0014102936
0.00045605295 -0.00057283131 -0.0015898811
0.00022352496 -0.0003243839 -0.0018275639
6.7165587e-05 -1.2542097e-05 -0.0014859338
0.00027240976 0.00035550323 -0.0012316569
0.00021942823 0.00050981372 -0.00057001482
8.3828498e-05 0.0015327857 0.00075502857
-0.00042084168 0.0019355571 0.0020704721
-0.00123498 0.0028947897 0.0028803486
0.00057151535 -0.00050114375 -0.0001114594
0.00028917397 -0.00040746888 -0.00058018113
5.3567386e-05 -0.00042960775 -0.0006184493
4.8382175e-05 -0.00019175348 -0.00033930919
-2.0599591e-05 -1.2396064e-05 -0.00028590535
7.3239942e-05 0.00067891605 0.00053092075
0.00015640994 2.7302223e-05 0.00013893272
-2.0638003e-05 0.00042678008 3.7539132e-05
-0.00023910523 0.00070917653 0.00030876775
0.00024521578 0.0012089998 -0.00035273985
-6.6124235e-06 0.00011825439 -0.000295512
0.00022423644 -0.00055304018 -0.0010770066
0.00046925811 -0.0002265473 -0.001391748
0.00012927402 -0.00010776466 -0.001777145
0.0005519095 0.00010092993 -0.0016356366
0.00022686391 0.0005920236 -0.0014514443
0.00044627915 0.00071296387 -0.00044866218
4.899843e-05 0.0015804229 0.0011747882
-0.00051882514 0.0017181481 0.0016800961
-0.00011010744 -0.00026207697 0.00061683246
0.00026914294 -0.00060680998 -0.00079273846
0.00010065672 -0.00076000119 -0.0013111783
0.00043342143 -0.00046222471 -0.00038595233
0.00019389643 -6.6447137e-05 1.6268281e-05
-5.3309428e-05 3.9083068e-05 5.075011e-05
-6.044381e-05 0.00046411675 0.00056343002
-6.6795321e-05 0.00045011559 0.00014616718
0.00054071419 0.001026268 -0.00010885227
-5.2380663e-05 0.0017843219 0.00016482717
0.00038044056 0.00023654525 -0.00013799322
0.00010465676 0.00029590356 -0.00012510145
0.00058869412 -0.00021927049 -0.000857946
0.00037441845 0.00024102617 -0.0013695732
0.00039822789 0.00018289783 -0.0012047088
0.0012233383 0.00040398233 -0.0010150737
0.0010621155 0.0011089789 -2.6948988e-05
0.00043676465 0.0019953726 0.001355174
-2.5952427e-06 7.6483491e-05 0.00059017638
0.00056471495 -0.00020233965 -0.00033262381
0.00072788174 -0.00053887744 -0.00055564521
-8.7413799e-05 8.1527876e-05 9.5017589e-05
5.4884851e-05 -0.00030992797 -0.0004749739
0.00026347983 -0.00051168236 -0.00042442372
0.00027606677 -0.00024849203 -0.00043700458
0.0002496028 0.00028460205 -0.00015361357
0.00025042571 0.0010610521 0.00025175151
0.00018309118 1.395436e-05 -0.00040372892
-5.6830781e-05 0.00090320373 0.00040025232
0.00017023482 0.0001827848 7.1160677e-05
5.351755e-05 6.0503949e-05 -0.00012464615
0.00086877937 0.00019656244 -0.00083575811
0.00051532837 0.00059898512 -0.00069788803
0.0014047608 0.00054390816 -0.00054401637
0.00092848198 0.0014696103 0.00086394796
-1.5299023e-05 0.00056657312 0.0014312034
0.0004559677 0.00011935122 0.00045413774
0.00060627452 -0.00057655235 -0.00054526713
0.00041750786 -0.00092069671 -0.0010981095
0.00016510578 -4.0434872e-05 -0.00025269095
0.00013835385 -0.00015701538 7.9946447e-05
0.00013965486 0.00074173528 4.9913055e-05
0.00017536132 0.00092808862 0.0003731146
0.00038881411 8.1125843e-05 -6.2923624e-05
3.0763709e-05 0.0013883716 -0.00017761649
-4.2134216e-05 0.00029303142 1.7725093e-05
-0.00020706201 0.00062829652 0.00010670726
0.00017090022 0.0003528439 -9.8983845e-05
0.00085724617 0.00071589806 0.00021953411
0.00079759065 0.00075943395 0.00014562302
0.0013910418 0.001159818 0.00034178636
0.00061753049 0.0020382472 0.0012042257
0.00016781832 0.00021366801 0.0010857267
0.00043434949 0.00015370971 0.00040605111
0.00026012064 -0.00012494146 -7.0493305e-05
0.00078338815 -0.0011200175 -0.0013651878
0.00064315321 -0.00061651127 -0.00081413513
0.00022966089 -0.00016413441 -0.00019691836
4.6829835e-05 0.00025276293 0.00014657649
-9.1199159e-05 0.0013355096 0.00023548954
0.00011268807 0.00037889331 0.00013995948
0.00019674505 0.0012804291 0.00036780082
0.00031208334 0.00038695053 3.5367255e-05
0.00029344988 0.00085038249 0.00032491219
0.00032791877 0.00064073515 0.00026917891
0.00047295724 0.001142878 0.00076325994
0.0011258194 0.0015153267 0.00097990315
0.00089158618 0.0013856024 0.00070661819
-0.00019502023 0.00079815771 0.0014008953
5.4418175e-05 0.00036740841 0.00059369154
0.00042392311 -0.00017957573 -0.00014806243
0.00047457244 -0.00025335257 -0.0002534735
0.00011152637 0.0002358589 0.00046137776
-0.00010456089 0.00011364543 0.00063124346
-2.1729052e-06 0.00084740028 0.00092339516
7.4855867e-05 0.00029256495 2.782224e-05
-1.1760209e-05 0.0015451052 0.0012342588
4.5610574e-05 0.00066217413 0.0001946948
0.0001249393 0.00082891894 0.00048416277
0.00034753271 0.001024552 0.00040574232
0.00013245209 0.0013209141 0.00093167706
0.00044860053 0.0015601851 0.0011730255
0.00060168031 0.0018115196 0.0010899663
0.00096012955 0.0018622332 0.0012368375
0.00014312805 0.0003988586 0.00045931811
2.8765102e-05 0.00032733037 0.00048098766
7.225764e-06 7.6561249e-05 0.00064166653
0.00012135328 -0.00035900826 -6.0029484e-05
9.2558119e-05 5.6935132e-05 0.00016422338
-5.6204492e-05 4.1203686e-05 0.00013752037
-9.9289842e-05 0.00039682942 0.00023206536
1.430467e-06 0.0012324838 0.00016127176
-8.5708751e-05 0.00082938798 0.00040009691
-0.00015368866 0.0012278133 0.00093588739
-0.00024103705 0.0011268005 0.00055196765
0.00076062413 0.0013372742 0.0010833177
0.0002431599 0.0016438676 0.0011945332
9.5286152e-05 0.0016815769 0.0013105768
0.00068341126 0.0017681838 0.0012527563
-2.6749614e-05 0.0005108685 0.0007786096
2.6938327e-05 0.00033317029 0.00059355045
0.0001295612 7.9896476e-05 0.00058071368
-0.00024639416 0.00012841568 0.00094803894
-0.00025091876 0.00029808632 0.00056704751
-0.00022152206 0.00032360878 0.00034017616
0.00074316532 0.00088306936 0.00016796106
0.00014790268 0.0003241142 9.4464842e-05
0.00016052427 0.00068658474 0.00011676941
0.00066965976 0.0011000608 0.00058285642
0.00043947354 0.0015330215 0.00082560902
0.00031800146 0.0014153257 0.0013754289
0.00099209626 0.0014181753 0.0011152141
0.00072787004 0.0016326262 0.00066851231
0.00066274131 0.002094066 0.0014939501
0.0002057239 0.00040765232 0.00058510242
-0.0001030616 0.00046871151 0.00068027253
-0.00011249247 -3.5679979e-05 0.00080222456
0.0001926296 7.1368006e-05 0.00032494304
0.00015816322 9.3677743e-05 0.00024074152
-0.0002012507 0.00060232327 -6.5524102e-05
0.00010417361 0.00018042738 0.00019110681
-3.2632088e-05 0.00064343424 -6.5604407e-05
-0.00019032026 0.001181687 0.00013526856
0.00020209151 0.0012302509 0.00079195108
0.00069777871 0.0016643453 0.00067708519
0.0005455417 0.0018835748 0.0018011577
0.00050852093 0.0014315076 0.0014948677
0.0011271016 0.0016310038 0.00092488946
0.0004710553 0.0018087028 0.0012060008
-0.00022364805 0.00079695706 0.00058607024
0.00021322674 0.00010829009 0.00034614297
4.9430768e-05 -8.1004866e-05 0.00041476332
-0.00018296724 0.00023099793 0.00063383509
-0.00022270365 0.00012186286 0.00054868864
9.5962394e-05 0.00019151779 0.00031378388
5.0478604e-05 0.00027613429 0.00012241278
-0.0001453584 0.00039491808 8.8038403e-05
0.0001227013 0.00097053143 0.00011729498
-0.00016349915 0.0010095577 0.00028483433
0.00070108747 0.0016818173 0.00059847086
0.00050738623 0.001367228 0.0012492577
0.00020935439 0.0013750299 0.00077003089
0.0011096398 0.0010932916 0.00036458464
0.00024139353 0.00060299749 0.00087464735
-0.0002380222 0.0005180703 0.0011221287
-0.00010277354 -7.4830321e-05 0.00054834678
0.00035280242 8.3143932e-05 0.00032481286
2.4090483e-05 -5.1936029e-05 0.00038720362
-0.00032876612 0.00010340171 0.00037087841
-8.5331536e-05 0.00061457796 0.0005706902
0.00012212792 0.00057827641 3.4639866e-05
0.00076362683 0.00040727961 -0.00011091569
0.00012127171 0.00090092071 -0.00028345088
0.00082091475 0.0016500361 0.00092888973
0.00076809799 0.0011839032 0.00079498824
0.0010067007 0.0010143913 0.00043558673
0.0012351827 0.0010112781 0.00037662755
0.00070765882 0.0012372046 0.00064469851
0.00021492214 0.00029627079 0.00053036993
4.1140076e-05 3.1217438e-05 0.00069756858
-0.00019152861 0.0003210236 0.0010907633
5.3773096e-05 -0.00019132998 0.00080027932
0.00013048781 -2.2873262e-05 0.00013188431
-2.9564719e-05 0.00039430583 -1.7292397e-05
-0.00023120147 0.00077245361 -0.00043847671
-0.00036609807 -0.00012486859 -0.000664205
-0.00025646255 0.00020699216 -0.00010290391
0.00059667748 0.0012359967 6.9274938e-05
0.0010289234 0.00070812769 0.00042775652
0.0008779096 0.0010914244 0.0004820032
0.00077095727 0.0021556183 0.0013411067
0.0013090088 0.0014793861 0.00096804393
0.00064112892 0.00090108922 0.00066454022
0.00015812975 0.00060687622 0.00064271805
0.00018551323 0.0001956044 0.00066229561
0.00012140669 5.8835035e-06 0.00097276026
-4.4247383e-05 0.00079619943 0.00045033509
0.00013867769 -1.4386037e-05 0.00038619098
-0.00014208347 6.4367217e-05 -0.00040573676
-0.00056638365 2.1654165e-05 -0.00049862586
0.00031048106 0.00069484138 -0.00051690242
0.00082740781 0.0010318761 0.00037203412
0.00058508414 0.00086777186 0.00055486837
0.0004054296 0.00065960735 0.0011397148
-7.9555088e-05 0.0025136012 0.0020043033
0.00093957601 0.0012986955 0.00099602109
0.00094396487 0.0011336894 0.00083925686
0.0011100119 0.00060358137 0.0011722477
5.4752414e-05 0.0003243637 0.0010486734
-4.9263275e-05 0.0007137002 0.00082063419
0.00017771215 0.00039907874 0.00048983202
-8.1475264e-06 0.00020893748 -0.00019388965
-0.00011392495 8.5185064e-05 -0.00038081914
0.00071956334 0.00079200102 -0.00065042492
0.00066533685 0.00080867164 1.9858167e-05
9.7032753e-05 0.00048498428 0.00054951233
0.00050506584 0.00057347154 0.0011747075
0.00055578927 0.0023660082 0.0019819657
0.0011620831 0.0012141822 0.001338237
0.0011592855 0.0013699566 0.00094180967
0.00025300824 0.00060406822 0.00094123703
0.00015786813 0.00064698246 0.0010355425
-0.00017372888 0.0004168911 0.00041258321
0.0001354687 0.00052085088 0.00014089447
0.00035655106 0.00029793201 -0.00022916349
0.00056839554 0.001816102 -0.00067454966
-4.4059918e-05 0.0009371179 -6.2293817e-05
-6.2655745e-05 0.0010266149 0.00078781223
0.00036637683 0.00060332241 0.0013462874
0.00095035887 0.0025981802 0.0030199008
0 0 0 1 0 0 0 1 0 0 0 1 0 0 0 0 0 764 1 0 0
