-4.186980099999999816e-02 4.028849800000000418e-03 1.987261600000000128e-01
-4.186980099999999816e-02 4.028849800000000418e-03 1.987261600000000128e-01
-4.186980099999999816e-02 4.028849800000000418e-03 1.987261600000000128e-01
-4.186980099999999816e-02 4.028849800000000418e-03 1.987261600000000128e-01
-4.201721800000000201e-02 3.746038299999999814e-03 1.988793500000000103e-01
-4.202401599999999737e-02 3.444557999999999908e-03 1.988333599999999868e-01
-4.191170300000000154e-02 2.933545300000000178e-03 1.983887000000000012e-01
-4.186185099999999853e-02 2.406462600000000042e-03 1.980519699999999939e-01
-4.190978399999999854e-02 1.892783699999999901e-03 1.978597599999999956e-01
-4.185976500000000017e-02 1.353980399999999990e-03 1.974724499999999938e-01
-4.200157899999999722e-02 8.543379999999999507e-04 1.974201600000000112e-01
-4.174050700000000308e-02 2.235044799999999997e-04 1.967000100000000085e-01
-4.159064999999999984e-02 -3.917308099999999805e-04 1.960308799999999907e-01
-4.160169899999999893e-02 -8.332664100000000294e-04 1.958206600000000075e-01
-4.150072099999999736e-02 -1.413048899999999955e-03 1.951993900000000004e-01
-4.136190199999999900e-02 -1.962364900000000169e-03 1.944659499999999985e-01
-4.119465900000000153e-02 -2.510579099999999796e-03 1.938127000000000044e-01
-4.097847300000000137e-02 -2.997058899999999800e-03 1.933102499999999890e-01
-4.071229299999999662e-02 -3.569396900000000161e-03 1.928085099999999885e-01
-4.049178199999999700e-02 -4.030807899999999840e-03 1.927246300000000079e-01
-4.015279199999999965e-02 -4.545689599999999664e-03 1.923687900000000117e-01
-3.989490500000000134e-02 -4.948761299999999974e-03 1.924560800000000016e-01
-3.966420899999999888e-02 -5.256359000000000378e-03 1.925514799999999971e-01
-3.953263900000000136e-02 -5.543912300000000334e-03 1.931233300000000097e-01
-3.933378700000000200e-02 -5.837725000000000206e-03 1.933681800000000006e-01
-3.916017299999999951e-02 -6.106793400000000253e-03 1.937510199999999960e-01
-3.901314000000000171e-02 -6.352887500000000374e-03 1.940040700000000007e-01
-3.883243000000000111e-02 -6.654188000000000117e-03 1.942562300000000020e-01
-3.863890799999999959e-02 -6.879848400000000176e-03 1.942502399999999907e-01
-3.858596799999999827e-02 -7.134069699999999632e-03 1.949332500000000024e-01
-3.844181800000000260e-02 -7.381596100000000285e-03 1.951128500000000043e-01
-3.848779900000000309e-02 -7.348775400000000235e-03 1.961517799999999978e-01
-3.842878699999999897e-02 -7.429494499999999765e-03 1.965744299999999944e-01
-3.826865200000000022e-02 -7.618951100000000143e-03 1.970033300000000043e-01
-3.816715600000000069e-02 -7.812486500000000167e-03 1.973746299999999954e-01
-3.812707199999999796e-02 -7.936633199999999430e-03 1.982104799999999944e-01
-3.795645799999999848e-02 -8.145171200000000597e-03 1.982244099999999898e-01
-3.800536300000000034e-02 -8.091236499999999651e-03 1.990750299999999862e-01
-3.772810800000000325e-02 -8.549315899999999913e-03 1.984513099999999919e-01
-3.752074400000000171e-02 -8.814998900000000845e-03 1.982849399999999929e-01
-3.734991299999999848e-02 -9.132759600000000047e-03 1.978165100000000010e-01
-3.718649599999999944e-02 -9.363300200000000684e-03 1.975947500000000134e-01
-3.696477000000000096e-02 -9.654563899999999560e-03 1.968778499999999931e-01
-3.671497099999999902e-02 -9.930797899999999762e-03 1.962467900000000043e-01
-3.635969399999999796e-02 -1.035541199999999960e-02 1.950321200000000033e-01
-3.616859399999999836e-02 -1.060382699999999970e-02 1.943486000000000102e-01
-3.608281499999999725e-02 -1.082161700000000039e-02 1.937638100000000085e-01
-3.600115300000000101e-02 -1.097906600000000087e-02 1.933147000000000060e-01
-3.607996200000000014e-02 -1.104189300000000054e-02 1.929176900000000028e-01
-3.612586500000000006e-02 -1.113941300000000079e-02 1.925663200000000130e-01
-3.621048899999999848e-02 -1.113283500000000065e-02 1.924444299999999997e-01
-3.621125599999999722e-02 -1.127684399999999941e-02 1.919654799999999939e-01
-3.626696000000000086e-02 -1.123731900000000082e-02 1.918385200000000124e-01
-3.633317700000000122e-02 -1.129329899999999970e-02 1.913265899999999908e-01
-3.646548499999999887e-02 -1.132588699999999976e-02 1.909973899999999891e-01
-3.646571600000000218e-02 -1.142671999999999959e-02 1.906259499999999885e-01
-3.653752799999999967e-02 -1.145205099999999955e-02 1.901976800000000078e-01
-3.659037899999999927e-02 -1.157008699999999973e-02 1.896250200000000052e-01
-3.662823899999999994e-02 -1.166099100000000076e-02 1.890081500000000136e-01
-3.664679500000000284e-02 -1.181127600000000076e-02 1.883659400000000095e-01
-3.668315300000000306e-02 -1.182887099999999948e-02 1.881915299999999958e-01
-3.670471200000000045e-02 -1.188838499999999958e-02 1.877130100000000135e-01
-3.671518299999999846e-02 -1.190215499999999933e-02 1.871871700000000138e-01
-3.666532799999999703e-02 -1.198095400000000026e-02 1.867222500000000063e-01
-3.669067799999999741e-02 -1.197008999999999920e-02 1.863297999999999899e-01
-3.676194700000000315e-02 -1.192729499999999922e-02 1.862876599999999938e-01
-3.673804600000000337e-02 -1.197629400000000018e-02 1.860711899999999974e-01
-3.684103100000000325e-02 -1.197799199999999981e-02 1.861930800000000108e-01
-3.693155199999999944e-02 -1.191303399999999943e-02 1.865505699999999989e-01
-3.704819499999999904e-02 -1.189165699999999992e-02 1.870536499999999880e-01
-3.722432999999999992e-02 -1.180425600000000082e-02 1.874663500000000038e-01
-3.746169399999999677e-02 -1.167586900000000018e-02 1.879936799999999963e-01
-3.767693800000000010e-02 -1.152409700000000051e-02 1.883673700000000062e-01
-3.808000699999999905e-02 -1.128164100000000024e-02 1.889665899999999898e-01
-3.839175000000000226e-02 -1.106693400000000049e-02 1.891791700000000076e-01
-3.877338400000000102e-02 -1.077178900000000036e-02 1.893923100000000082e-01
-3.916231500000000310e-02 -1.051867499999999990e-02 1.894629300000000016e-01
-3.953689299999999657e-02 -1.021947399999999923e-02 1.897118200000000032e-01
-3.984587299999999693e-02 -1.003137500000000036e-02 1.898092200000000007e-01
-4.018985900000000139e-02 -9.816626099999999772e-03 1.899221700000000013e-01
-4.046021799999999918e-02 -9.638653100000000098e-03 1.898774799999999874e-01
-4.066710500000000200e-02 -9.542712000000000069e-03 1.896730799999999939e-01
-4.079330700000000087e-02 -9.546363699999999355e-03 1.893150700000000020e-01
-4.089487700000000309e-02 -9.481476600000000171e-03 1.889590200000000053e-01
-4.102110900000000004e-02 -9.509922000000000514e-03 1.885385400000000045e-01
-4.112230599999999736e-02 -9.496510999999999147e-03 1.881635000000000113e-01
-4.121326699999999787e-02 -9.552529100000000176e-03 1.876588200000000040e-01
-4.137448600000000198e-02 -9.605689900000000461e-03 1.873391600000000046e-01
-4.153673699999999719e-02 -9.585279000000000368e-03 1.872128499999999862e-01
-4.162133099999999752e-02 -9.599992099999999501e-03 1.871087399999999956e-01
-4.174160999999999844e-02 -9.613096700000000466e-03 1.870170499999999902e-01
-4.184763899999999898e-02 -9.608089000000000213e-03 1.869820799999999950e-01
-4.196571899999999855e-02 -9.641096000000000041e-03 1.867762400000000100e-01
-4.208943600000000090e-02 -9.611489299999999639e-03 1.867476000000000136e-01
-4.216149799999999864e-02 -9.573444699999999336e-03 1.866486400000000045e-01
-4.222925400000000079e-02 -9.558566799999999516e-03 1.865001000000000020e-01
-4.233149399999999729e-02 -9.512172100000000630e-03 1.864372900000000055e-01
-4.242407499999999859e-02 -9.433318899999999438e-03 1.864233499999999877e-01
-4.250717500000000121e-02 -9.393016800000000832e-03 1.862159999999999926e-01
-4.254647699999999921e-02 -9.310244599999999843e-03 1.863712499999999883e-01
-4.257210699999999792e-02 -9.210129299999999727e-03 1.865978199999999976e-01
-4.262171299999999857e-02 -9.126590599999999734e-03 1.867501400000000089e-01
-4.271152599999999966e-02 -9.036936799999999159e-03 1.869791700000000001e-01
-4.277268399999999832e-02 -8.991928799999999999e-03 1.872328799999999904e-01
-4.285970000000000057e-02 -8.981538000000000715e-03 1.875058000000000002e-01
-4.293266300000000285e-02 -8.932783300000000232e-03 1.879505099999999873e-01
-4.303662899999999986e-02 -8.909869000000000816e-03 1.882226200000000071e-01
-4.312416200000000061e-02 -8.899848000000000134e-03 1.886103299999999927e-01
-4.314002000000000114e-02 -8.906742599999999815e-03 1.890955300000000117e-01
-4.317822699999999958e-02 -8.936485299999999757e-03 1.894861300000000026e-01
-4.327375399999999761e-02 -8.909498300000000606e-03 1.899326100000000017e-01
-4.333425300000000313e-02 -8.891836700000000857e-03 1.903203699999999887e-01
-4.342331399999999758e-02 -8.882155600000000290e-03 1.907348799999999955e-01
-4.348233299999999801e-02 -8.897532700000000336e-03 1.912879799999999964e-01
-4.356750499999999943e-02 -8.931578100000000381e-03 1.917158800000000052e-01
-4.367184300000000186e-02 -8.975746099999999325e-03 1.917868100000000020e-01
-4.373534800000000028e-02 -8.975865300000000074e-03 1.920827499999999965e-01
-4.377979800000000171e-02 -8.979902600000000748e-03 1.922626600000000019e-01
-4.384950900000000179e-02 -8.969233400000000203e-03 1.925048500000000051e-01
-4.388869900000000324e-02 -8.989551999999999612e-03 1.926224199999999886e-01
-4.391998800000000008e-02 -8.992521999999999321e-03 1.926561300000000088e-01
-4.397035800000000105e-02 -8.982261599999999402e-03 1.925543999999999867e-01
-4.397035800000000105e-02 -8.982261599999999402e-03 1.925543999999999867e-01
-4.397035800000000105e-02 -8.982261599999999402e-03 1.925543999999999867e-01
-4.397035800000000105e-02 -8.982261599999999402e-03 1.925543999999999867e-01
