ply
format ascii 1.0
comment PCL generated
element vertex 240
property float x
property float y
property float z
element camera 1
property float view_px
property float view_py
property float view_pz
property float x_axisx
property float x_axisy
property float x_axisz
property float y_axisx
property float y_axisy
property float y_axisz
property float z_axisx
property float z_axisy
property float z_axisz
property float focal
property float scalex
property float scaley
property float centerx
property float centery
property int viewportx
property int viewporty
property float k1
property float k2
end_header
-0.026690843 0.033923298 0.14705019
-0.026526375 0.031577844 0.14729157
-0.026252098 0.029279599 0.14894933
-0.026152927 0.026803924 0.1500544
-0.026180768 0.024115903 0.15236928
-0.027006416 0.020504661 0.15514269
-0.030097283 0.015398109 0.15770207
-0.030424397 0.012496862 0.15882321
-0.030306928 0.0095826723 0.15938035
-0.029965574 0.0066417716 0.1593961
-0.030101489 0.0034281036 0.15991934
-0.030428831 0.00043676462 0.16126731
-0.030419769 -0.0022089542 0.16179623
-0.024421874 0.033911619 0.14634775
-0.023963628 0.03147522 0.14717634
-0.023559852 0.02914932 0.14805152
-0.023523817 0.026807403 0.14958899
-0.023392081 0.02447279 0.15117319
-0.024141336 0.021005131 0.15317713
-0.024968294 0.016800927 0.15673772
-0.025896205 0.013612156 0.15772447
-0.026375977 0.010526458 0.15897866
-0.026697773 0.0075548789 0.15916111
-0.026624303 0.0044713519 0.15993297
-0.0273776 0.0010113389 0.16124983
-0.027815176 -0.0020075971 0.16306421
-0.026236659 -0.0049039591 0.16405617
-0.021477178 0.034039993 0.14610195
-0.020775335 0.031724732 0.14768772
-0.020748714 0.02937123 0.14819564
-0.020787988 0.026911944 0.14979306
-0.020943349 0.024291439 0.15106545
-0.021595508 0.020955101 0.15418346
-0.022417806 0.017074382 0.15689583
-0.022682255 0.013902168 0.15743291
-0.02299382 0.011089754 0.15833281
-0.023912381 0.0080131758 0.15957543
-0.023871876 0.0043515721 0.16176774
-0.023940103 0.0012499018 0.16278723
-0.024029043 -0.0019414125 0.16435111
-0.023334155 -0.0045140944 0.16490282
-0.022637002 -0.007220231 0.16573752
-0.017542833 0.034145668 0.14754315
-0.01794621 0.031899862 0.14848599
-0.018079409 0.029473377 0.14861491
-0.018432537 0.027274871 0.15067928
-0.018421529 0.024378527 0.15098728
-0.018804094 0.021421287 0.15375501
-0.019964542 0.017542616 0.15787663
-0.019927843 0.014488707 0.15800808
-0.020255018 0.01134292 0.15955268
-0.020880606 0.0070412806 0.16113515
-0.021584786 0.0041813091 0.16266824
-0.021551587 0.001772108 0.16405953
-0.021649964 -0.00087319833 0.16548941
-0.021113195 -0.0034815997 0.16589183
-0.020554349 -0.0061357319 0.16746578
-0.014815362 0.03437598 0.14825305
-0.015275829 0.032001611 0.14892301
-0.015300815 0.029784305 0.14884187
-0.01586627 0.027070327 0.1509825
-0.015972046 0.02427909 0.1520122
-0.01626363 0.021444628 0.15417528
-0.017301045 0.017870845 0.15901352
-0.017304854 0.014809822 0.15897907
-0.017499309 0.012027788 0.16062887
-0.018021371 0.0080557652 0.162478
-0.018439669 0.0049815471 0.16317362
-0.018902585 0.002346114 0.16558351
-0.019037552 9.2305731e-05 0.16612971
-0.018647224 -0.0027629642 0.16706392
-0.017653896 -0.0052529597 0.1680411
-0.012406811 0.034578815 0.14850326
-0.012634314 0.032209959 0.1494064
-0.012902834 0.029473081 0.15019567
-0.013220653 0.026864128 0.15144099
-0.013475909 0.024268925 0.15266109
-0.013641772 0.021666735 0.15417324
-0.014317327 0.018470887 0.15810025
-0.014579734 0.015217884 0.15930469
-0.014703231 0.012378775 0.16148479
-0.015656613 0.0085802414 0.16387637
-0.016625851 0.0051508951 0.16455488
-0.017105862 0.0026045658 0.16590485
-0.016679291 0.00057897647 0.16740283
-0.016441105 -0.0020699385 0.16755649
-0.014667647 -0.0047910055 0.16803697
-0.0098835956 0.034686603 0.14815219
-0.010094603 0.032520954 0.14941165
-0.010378459 0.029359112 0.15117475
-0.010750626 0.026806425 0.15231556
-0.010690578 0.024462869 0.15347789
-0.010731582 0.021756927 0.15545113
-0.010490623 0.019198097 0.15770946
-0.011226571 0.01585011 0.15848354
-0.01118831 0.01307241 0.16203648
-0.012538755 0.0099120997 0.16546753
-0.014451963 0.0057052751 0.16494371
-0.014428588 0.0033229105 0.16640542
-0.014015272 0.0010475529 0.16763882
-0.01348664 -0.0011501245 0.1682525
-0.012262966 -0.0039532199 0.1684244
-0.0074203871 0.0347053 0.14799345
-0.0077183214 0.032342318 0.14972739
-0.0079042343 0.02935417 0.15179697
-0.0077305832 0.026835829 0.15244709
-0.0075551807 0.024526462 0.15349174
-0.0074531599 0.021943931 0.1570159
-0.0073108375 0.019202424 0.15887228
-0.0071399137 0.016741859 0.15969832
-0.0074023502 0.013651048 0.16220729
-0.0076492033 0.010956581 0.16634575
-0.010031491 0.0067349779 0.16739315
-0.011555522 0.0039023198 0.16829176
-0.011082157 0.0016863833 0.16910721
-0.010471153 -0.00052561809 0.16912162
-0.010383004 -0.0024799265 0.16993558
-0.0048061316 0.034358785 0.14773981
-0.005154972 0.03189265 0.14986673
-0.0053054756 0.029082013 0.15179726
-0.0050097886 0.026962137 0.15342122
-0.0049393182 0.024584597 0.15493038
-0.0047694826 0.021939794 0.15892795
-0.0047684996 0.019686457 0.16010702
-0.0049162977 0.017033445 0.16116156
-0.004756663 0.01395016 0.16358836
-0.0047624996 0.010889303 0.16753663
-0.0050719576 0.0072749169 0.16879204
-0.0072076228 0.0046613403 0.17031138
-0.008132725 0.0017906463 0.16987075
-0.0079310518 -0.00014489784 0.16956201
-0.005400016 -0.0046917303 0.1728249
-0.0023088427 0.034175273 0.14795011
-0.0026342717 0.031643927 0.14911553
-0.0021894011 0.029145189 0.15137762
-0.0021389914 0.026817165 0.15306062
-0.0020414887 0.024688823 0.15533206
-0.0022001071 0.022109499 0.15952922
-0.002152577 0.020040162 0.16095185
-0.0022752529 0.01721945 0.16258575
-0.0020221598 0.014162611 0.16466957
-0.0014664552 0.010673335 0.16852333
-0.002160683 0.0078497203 0.16954112
-0.002276151 0.0050635082 0.17166813
-0.0034162097 0.0025899722 0.17219214
-0.0028270094 -0.00038431177 0.17279816
-0.0010903343 -0.0051317923 0.17569716
0.00024157707 0.033429094 0.14888328
0.0006933859 0.031404112 0.15015969
0.00038967532 0.028966865 0.1521765
0.00092980464 0.027205205 0.15470277
0.0010010044 0.024569534 0.15711994
0.00070548733 0.022261219 0.15924184
0.00050147099 0.020364856 0.161608
0.00031479145 0.017383138 0.16342354
0.00048843696 0.014536884 0.16506854
0.001594626 0.010907932 0.16861013
0.0011110815 0.0080530299 0.16999181
0.00095749099 0.0053786938 0.17178299
0.00051208009 0.0028221163 0.17298014
0.00078656152 -0.00025944583 0.17499761
0.0011651 -0.0037654955 0.17621192
0.0027792265 0.034055103 0.14904867
0.0030226125 0.031777903 0.15065421
0.0032979669 0.029463112 0.15237239
0.0039047417 0.026998667 0.1552442
0.0039499616 0.024860309 0.15696512
0.0036330847 0.022688143 0.15860562
0.0032991655 0.020520082 0.16015391
0.0031607589 0.017416039 0.16335686
0.0030767529 0.014690601 0.16550975
0.0046317796 0.011237627 0.16876975
0.0045863176 0.0081617972 0.1702309
0.004124824 0.0059084259 0.17133144
0.0042817644 0.0032759206 0.17299664
0.0034691631 0.00051773124 0.17566763
0.003985683 -0.0024759374 0.17692184
0.0054666973 0.034301676 0.1484361
0.005662553 0.032183141 0.15035728
0.0057102772 0.03000409 0.15208349
0.0063441722 0.02686858 0.15513973
0.0063617527 0.024812533 0.15746506
0.0060435827 0.022848886 0.15928678
0.0061237919 0.020626767 0.16113648
0.005852697 0.018099179 0.16260019
0.0068848622 0.014616521 0.16641943
0.0070193321 0.011977441 0.16976582
0.0073393742 0.0091298027 0.17042308
0.0070433859 0.0066846777 0.17236799
0.0063627786 0.0043601459 0.17467918
0.006158697 0.00092026574 0.17734666
0.006294013 -0.0018546166 0.17893937
0.0078660175 0.034570184 0.1487339
0.0080367476 0.032517299 0.15084983
0.0083859395 0.030329131 0.15172172
0.0091978991 0.027167786 0.15660323
0.0086886231 0.025169367 0.15899152
0.0083626639 0.023084244 0.16001223
0.0081552556 0.020947658 0.16185594
0.0099590551 0.017255096 0.1661464
0.0097360229 0.014910297 0.1679275
0.0095572965 0.012397311 0.1700561
0.010109468 0.0099917399 0.17095765
0.0098456498 0.0077087702 0.17281289
0.0087960428 0.0047506066 0.17618482
0.0098279035 0.00038362588 0.17940174
0.0097145233 -0.0020173511 0.18062782
0.0103711 0.034711234 0.14833623
0.010620959 0.032708861 0.14961877
0.010828252 0.030484611 0.15190837
0.011556754 0.027424211 0.15733764
0.011209008 0.025093181 0.15924403
0.010946748 0.02297117 0.16020975
0.010302375 0.020925876 0.1627342
0.012037806 0.01765006 0.16673677
0.011953514 0.015398428 0.16859645
0.012129048 0.013041532 0.16991259
0.012731778 0.010624221 0.17125019
0.012346168 0.00827445 0.17354667
0.011669409 0.0047459737 0.17718516
0.013734342 0.00065610796 0.1787314
0.012827581 0.034896381 0.14734538
0.013174951 0.032674257 0.14879589
0.013844517 0.029656436 0.15369494
0.014563399 0.026886901 0.15819864
0.014177504 0.025050998 0.15974194
0.013882321 0.023252985 0.16129658
0.013053756 0.021207061 0.16476716
0.014149684 0.018263185 0.16714396
0.014076134 0.016079463 0.16901226
0.014154471 0.013826371 0.17041233
0.01508257 0.011343424 0.17192064
0.014396814 0.0086700283 0.17412926
0.014525267 0.0055025779 0.17659029
0.015971629 0.0015176998 0.17674877
0.016559478 -0.0012716888 0.17817864
0.014998057 0.034806795 0.14671308
0.015896019 0.032167673 0.14844935
0.016827751 0.027585607 0.15454619
0.016426859 0.025252368 0.16016106
0 0 0 1 0 0 0 1 0 0 0 1 0 0 0 0 0 240 1 0 0
