ply
format ascii 1.0
comment PCL generated
element vertex 240
property float x
property float y
property float z
element camera 1
property float view_px
property float view_py
property float view_pz
property float x_axisx
property float x_axisy
property float x_axisz
property float y_axisx
property float y_axisy
property float y_axisz
property float z_axisx
property float z_axisy
property float z_axisz
property float focal
property float scalex
property float scaley
property float centerx
property float centery
property int viewportx
property int viewporty
property float k1
property float k2
end_header
-0.02670571 0.034013379 0.14763273
-0.026548417 0.031630985 0.14764714
-0.026241856 0.029181818 0.14903057
-0.02612 0.026608231 0.14989544
-0.026081888 0.023798818 0.15194796
-0.026911311 0.02013487 0.15457679
-0.030046059 0.015233306 0.15703294
-0.030428674 0.012374938 0.15823309
-0.030330686 0.0094855335 0.15888342
-0.030026451 0.0065979878 0.15916841
-0.030204784 0.003481078 0.15993801
-0.030582774 0.00063230621 0.16133457
-0.030658836 -0.0019571956 0.16193125
-0.024462001 0.034051556 0.14687923
-0.023991846 0.031517319 0.14742273
-0.023571488 0.029099226 0.14804912
-0.023494005 0.026644902 0.14938717
-0.023309661 0.024196763 0.15076251
-0.024018973 0.020709042 0.1526513
-0.024903772 0.01644125 0.15609266
-0.025880923 0.013329634 0.15711686
-0.026397508 0.010266664 0.15836404
-0.026726009 0.0073535261 0.15877035
-0.026728597 0.0043723038 0.15991636
-0.027542448 0.0010903087 0.16143496
-0.028091528 -0.0017940566 0.16327053
-0.026534937 -0.0047108843 0.16449316
-0.021519482 0.034153633 0.14646317
-0.020783752 0.031664971 0.14769237
-0.020755334 0.029293012 0.14811611
-0.020753417 0.026765326 0.14960411
-0.020856475 0.024075462 0.15072225
-0.021492768 0.020643929 0.15370369
-0.022370631 0.016722538 0.15631925
-0.022666689 0.013593498 0.15690634
-0.023004217 0.010776693 0.15776625
-0.023944603 0.0077451384 0.15913603
-0.02402354 0.0043427041 0.16191395
-0.024084099 0.0013548416 0.16323778
-0.024254221 -0.0017749966 0.16505112
-0.023673266 -0.0043491656 0.16582127
-0.023046484 -0.007041058 0.16677938
-0.017511599 0.03401548 0.14727658
-0.017909301 0.031770177 0.14825326
-0.018063795 0.029357374 0.14841308
-0.018381238 0.027109917 0.15044801
-0.018339084 0.024208635 0.15073775
-0.018726911 0.021189313 0.15340774
-0.019934589 0.017169222 0.15730943
-0.019925172 0.014174466 0.15753935
-0.020315653 0.011055443 0.15916206
-0.021028155 0.0070143566 0.16146825
-0.021778191 0.0042444458 0.16323926
-0.021760989 0.0018555418 0.16478553
-0.021968184 -0.00070651714 0.16635254
-0.021530014 -0.0033089684 0.16696896
-0.021079641 -0.0059253722 0.16863988
-0.014780669 0.034254219 0.14790896
-0.015224946 0.03187377 0.14859648
-0.015245422 0.029649958 0.14852497
-0.015840881 0.026944196 0.15077621
-0.015935903 0.024178253 0.15187709
-0.01622788 0.021319726 0.15401046
-0.017290538 0.01748579 0.15847367
-0.017333081 0.014484599 0.15862097
-0.017616235 0.011788783 0.16047055
-0.018297391 0.0080828723 0.16309717
-0.018710753 0.005079471 0.1640595
-0.01926616 0.0024621084 0.16646327
-0.01942399 0.00014463367 0.16716115
-0.019155612 -0.0025918984 0.16835141
-0.018197251 -0.0050533842 0.16934147
-0.012387399 0.034505293 0.14824365
-0.012590921 0.03212519 0.14911334
-0.012861374 0.02939879 0.14999367
-0.013218787 0.026818791 0.15137371
-0.013470414 0.024245506 0.15265946
-0.013615231 0.021615127 0.15413314
-0.014311477 0.018182343 0.15776987
-0.014618215 0.014894636 0.15906143
-0.014810303 0.012166969 0.16149431
-0.015892949 0.0085244626 0.16430323
-0.01690094 0.0051505766 0.16535519
-0.01741113 0.0026451747 0.16678417
-0.017024986 0.00066963839 0.16838004
-0.016913693 -0.0019688406 0.16879055
-0.015157129 -0.004718367 0.16927019
-0.0098784901 0.034694098 0.14805081
-0.010055418 0.03248911 0.14921986
-0.010363394 0.029326955 0.1510985
-0.010747951 0.026787074 0.15227425
-0.010688048 0.024456073 0.15347673
-0.01073001 0.021702198 0.15546854
-0.010444711 0.018997693 0.15757599
-0.011234679 0.015502583 0.15837756
-0.011244196 0.012777961 0.16203906
-0.012702121 0.0097999712 0.1656144
-0.014632449 0.0055022682 0.16550513
-0.014653209 0.0032031327 0.16710161
-0.014322172 0.0010382149 0.16856834
-0.013891676 -0.0011294208 0.1693842
-0.012709831 -0.0039632819 0.16963819
-0.0074015926 0.03484701 0.14807998
-0.0076925424 0.032392979 0.14967139
-0.0079018297 0.029345917 0.15175952
-0.0077043483 0.026804743 0.15238371
-0.0074881511 0.024459319 0.15334085
-0.0073726182 0.021698942 0.1568179
-0.0071785562 0.018897211 0.15866289
-0.0069314167 0.016412394 0.15960914
-0.0072364444 0.01336431 0.16226576
-0.0076733464 0.010831566 0.16659932
-0.010089591 0.0065312823 0.16820514
-0.011772829 0.0038352315 0.16919936
-0.011473209 0.0016810191 0.17033057
-0.010914645 -0.00055598601 0.17046593
-0.010867459 -0.0024943412 0.17122875
-0.0047469591 0.034717843 0.14809397
-0.0051221494 0.032085016 0.15003428
-0.0053036246 0.029104602 0.15180962
-0.0049968404 0.026947403 0.15337753
-0.0048957202 0.024511551 0.15482675
-0.004738546 0.021739554 0.1587671
-0.0047198185 0.019492136 0.15999924
-0.0048042601 0.016898936 0.16120803
-0.0047092778 0.013856819 0.1638432
-0.0049187364 0.011176286 0.16857369
-0.0053074509 0.0076995455 0.17056189
-0.0076601612 0.0047578518 0.17185616
-0.0086389361 0.0017859814 0.17150423
-0.0084383478 -0.00019105518 0.17122608
-0.005667015 -0.0045138318 0.174393
-0.0022636552 0.03464045 0.14847252
-0.0025364237 0.032021493 0.14947551
-0.002160308 0.029283002 0.15150131
-0.0021059427 0.026904505 0.15313745
-0.0020079026 0.024727074 0.15537602
-0.0022235368 0.022015199 0.15949938
-0.0021956216 0.019990809 0.16100135
-0.00232834 0.017262949 0.16292308
-0.0021102449 0.0143571 0.16529955
-0.0016259259 0.01111471 0.16990377
-0.0023543744 0.0082945991 0.17121172
-0.0024331659 0.0056267222 0.17353702
-0.0036675045 0.0031350749 0.17427471
-0.0031462128 6.2100771e-05 0.17484006
-0.0011420513 -0.004715689 0.17730807
0.00037870501 0.03382168 0.14919549
0.00087146886 0.031717971 0.15031742
0.00051598542 0.029189359 0.15228897
0.00093707658 0.027244076 0.15487176
0.0010154549 0.024639957 0.15735663
0.00064848538 0.022327904 0.15949823
0.00035458436 0.020547304 0.1619505
0.00011751168 0.017725864 0.16409419
0.00030247154 0.014953609 0.16599666
0.0014592898 0.011268563 0.16990212
0.00096874818 0.0084372303 0.17150714
0.00083068572 0.0058370708 0.17336389
0.00034920123 0.0032831926 0.17468093
0.00071167108 0.00022371928 0.1765628
0.0011213173 -0.0032757858 0.17780446
0.0029201717 0.034478534 0.1494128
0.0031718826 0.032129522 0.15090698
0.0034269348 0.029744172 0.15250833
0.003923926 0.026979573 0.15543319
0.0039536101 0.024966631 0.15728539
0.0036302966 0.022837268 0.15902704
0.0032444298 0.020822333 0.16078532
0.0029696061 0.01791087 0.16425368
0.0028454082 0.015242916 0.16661367
0.0045649735 0.011355276 0.16967298
0.004500208 0.0083561381 0.17137986
0.0039880732 0.0061343089 0.17247868
0.0041644657 0.0035260741 0.17419004
0.0034440418 0.00099210686 0.17705786
0.0039909002 -0.0019359522 0.17843109
0.0056210291 0.034839276 0.14892898
0.0058073676 0.032625224 0.15073732
0.0058562285 0.030359354 0.1523573
0.0063304971 0.02683788 0.15537633
0.0063369954 0.024944577 0.15783668
0.0059805145 0.023148239 0.1598454
0.0059539732 0.021213975 0.16201513
0.0056600138 0.018800134 0.16370974
0.0067958613 0.01464597 0.16698222
0.007119413 0.011926284 0.17015694
0.0074444995 0.0090419445 0.17088564
0.0071480456 0.0067227827 0.17304637
0.0065427432 0.0045334417 0.17554107
0.0061650509 0.0014732388 0.17867605
0.0063074389 -0.001137336 0.18049265
0.0079987589 0.035172358 0.14935189
0.00814912 0.033007652 0.1513467
0.0085316785 0.030780401 0.15211593
0.0091384379 0.027312204 0.15688285
0.0086640352 0.025411529 0.15933572
0.0083119199 0.023449032 0.16057338
0.0079625333 0.021684775 0.16280107
0.0098977583 0.017315248 0.16666481
0.0097577404 0.01487341 0.1683137
0.0096882023 0.012248402 0.17022593
0.010247452 0.0098131588 0.17111708
0.010060009 0.0076318337 0.17319828
0.0089973258 0.0050425087 0.17692429
0.0097831776 0.0015311447 0.18117452
0.0096562067 -0.00075037149 0.18261978
0.010512738 0.035431631 0.14910609
0.010770908 0.033367597 0.15028489
0.010953863 0.031021437 0.15245166
0.011469165 0.027692553 0.15760961
0.011193001 0.025317537 0.15951671
0.010942072 0.023325933 0.16073567
0.010229868 0.021593757 0.16353419
0.012012884 0.017708885 0.16718815
0.012025698 0.015338916 0.16887286
0.012251094 0.012867405 0.16999859
0.012894546 0.010424001 0.17132536
0.012564901 0.0083205542 0.17397813
0.011755661 0.0053767897 0.17816015
0.013667877 0.001862113 0.18077959
0.013003628 0.035765119 0.14827058
0.013363608 0.033502791 0.14961724
0.013746227 0.03013574 0.1541879
0.014529117 0.027066112 0.15830289
0.014177262 0.02520095 0.15987058
0.013881819 0.023476165 0.16160581
0.013052777 0.021561528 0.16526572
0.014171205 0.018286346 0.16748048
0.01420286 0.015947979 0.1691335
0.01432462 0.013627457 0.17039321
0.015280321 0.011155581 0.17188948
0.014593566 0.0088003585 0.17454514
0.014589083 0.006150336 0.17763016
0.016024332 0.0024479371 0.17872031
0.016552318 -6.3314903e-05 0.18062024
0.015204606 0.035800621 0.14778659
0.016113285 0.033130314 0.14945707
0.016624462 0.027883401 0.15459886
0.016444027 0.025349613 0.1602221
0 0 0 1 0 0 0 1 0 0 0 1 0 0 0 0 0 240 1 0 0
