ply
format ascii 1.0
comment PCL generated
element vertex 240
property float x
property float y
property float z
element camera 1
property float view_px
property float view_py
property float view_pz
property float x_axisx
property float x_axisy
property float x_axisz
property float y_axisx
property float y_axisy
property float y_axisz
property float z_axisx
property float z_axisy
property float z_axisz
property float focal
property float scalex
property float scaley
property float centerx
property float centery
property int viewportx
property int viewporty
property float k1
property float k2
end_header
-0.026579779 0.034093883 0.14739026
-0.026441716 0.031690914 0.14751366
-0.026242772 0.029291349 0.14909533
-0.026189934 0.026805181 0.15023665
-0.026311988 0.024088442 0.15263599
-0.027268577 0.02025383 0.15506023
-0.030623415 0.014876331 0.15727074
-0.031016186 0.01211776 0.15869825
-0.0309448 0.0092714382 0.15975274
-0.030721704 0.0063643358 0.16060095
-0.030986678 0.0031757003 0.16169883
-0.031318896 0.00020355247 0.16331322
-0.03126714 -0.0024801199 0.16397528
-0.024288192 0.03411068 0.14678919
-0.023874596 0.031534947 0.14747131
-0.023522483 0.029114228 0.14822705
-0.023536868 0.026767263 0.14978383
-0.023477787 0.024514098 0.15156381
-0.02432722 0.02088459 0.15322703
-0.025301538 0.016409792 0.15639096
-0.026353773 0.013112691 0.15729181
-0.026934756 0.01010282 0.15881878
-0.027408106 0.00716813 0.15990737
-0.027487284 0.0042067962 0.1614185
-0.028277874 0.00082555233 0.16321892
-0.028650885 -0.0022247662 0.1651824
-0.027179468 -0.0048515331 0.16674837
-0.021345703 0.03422543 0.14665452
-0.02071977 0.031693447 0.14794531
-0.02069998 0.029311661 0.1484046
-0.020789292 0.026841959 0.15001456
-0.021027014 0.024281569 0.15144981
-0.021825302 0.020787859 0.15434872
-0.022749998 0.01674209 0.15669456
-0.023070494 0.013510193 0.15716588
-0.023464954 0.010653083 0.15812707
-0.024602149 0.007610702 0.16013436
-0.02466915 0.0041929022 0.16331136
-0.024817156 0.0011517118 0.16472448
-0.024978597 -0.0018135828 0.16693076
-0.024289036 -0.0043823095 0.16739874
-0.023504071 -0.0070741563 0.16789615
-0.017539142 0.034191493 0.1480304
-0.01794236 0.031901814 0.14886911
-0.018058695 0.02945107 0.14893243
-0.018507782 0.027240545 0.15105662
-0.01854126 0.024374129 0.15147148
-0.019008761 0.021339083 0.15413478
-0.020284217 0.017216135 0.15768386
-0.020291662 0.014171285 0.15782683
-0.020741899 0.011039048 0.15955065
-0.021793356 0.0069638696 0.16272865
-0.022435261 0.0041374415 0.16438124
-0.022313274 0.0016398012 0.16571596
-0.022342691 -0.00087103958 0.16744027
-0.021867994 -0.0034155995 0.16778082
-0.021016898 -0.0061219148 0.16899177
-0.014867967 0.034463242 0.1488824
-0.015323409 0.032053195 0.14946157
-0.01530993 0.029808993 0.14926617
-0.016007273 0.027086476 0.15158941
-0.016150855 0.024282089 0.15262589
-0.016490407 0.02139247 0.154658
-0.017592715 0.017538287 0.15884022
-0.017687259 0.014513417 0.15907066
-0.017953115 0.011762101 0.16098629
-0.018751482 0.0079715755 0.1639128
-0.019324524 0.0049871258 0.16478458
-0.019530941 0.0022038096 0.16699335
-0.019671511 -3.8569917e-05 0.16729687
-0.019183712 -0.0028451292 0.168166
-0.018087873 -0.0053189821 0.16887239
-0.012504653 0.034705643 0.14926523
-0.012704649 0.032276634 0.15000854
-0.013007436 0.029511929 0.15075968
-0.013389651 0.026894817 0.15215261
-0.013689362 0.024281045 0.15338396
-0.013881496 0.021659249 0.15480861
-0.014662438 0.018342007 0.15841277
-0.014970618 0.01494607 0.15962383
-0.01507078 0.012095654 0.16204713
-0.016244583 0.0083548035 0.16482677
-0.01739873 0.0049966699 0.16565616
-0.017736571 0.0023794479 0.16676153
-0.017107528 0.00032930577 0.16785973
-0.016975041 -0.0022936203 0.16799022
-0.015209733 -0.0049310299 0.16838989
-0.01003002 0.034976576 0.14919391
-0.010200239 0.032667652 0.15013522
-0.010492617 0.029362487 0.15172544
-0.010920117 0.026759032 0.15280797
-0.010894087 0.024431055 0.15396626
-0.011037261 0.021829315 0.15627643
-0.010866711 0.019416468 0.15873346
-0.011640801 0.015651487 0.15906195
-0.011478028 0.012811169 0.16258332
-0.012861559 0.009588738 0.16596691
-0.01518957 0.0054557677 0.16552363
-0.014980609 0.0030071896 0.16671214
-0.01444882 0.00072936952 0.16782609
-0.01391614 -0.0013860224 0.16848864
-0.012750052 -0.0041398131 0.1686608
-0.0075703966 0.035179928 0.1493289
-0.0078850649 0.032565441 0.15068425
-0.0080676917 0.029314449 0.15235423
-0.0079373708 0.026869575 0.1529581
-0.0077838385 0.024593988 0.15392718
-0.0077539799 0.022087874 0.15786412
-0.0076267263 0.019516727 0.15990078
-0.0075003351 0.017022947 0.16060974
-0.0075840116 0.013671348 0.16282666
-0.0075958916 0.010795102 0.1668057
-0.010370273 0.0063821254 0.167344
-0.011857065 0.003584089 0.16826677
-0.011342544 0.0014142031 0.16911112
-0.010785533 -0.00077266915 0.16911735
-0.010698691 -0.0027000487 0.16993248
-0.0049708127 0.035000686 0.14922062
-0.0053552673 0.032240927 0.15114664
-0.0055331648 0.029130252 0.15242994
-0.0052726888 0.02703898 0.15394013
-0.0052220044 0.024663901 0.15545031
-0.0049577211 0.022052493 0.15961291
-0.0049672727 0.019897655 0.16090974
-0.0051337346 0.017226424 0.1618205
-0.0048570335 0.013917896 0.1640477
-0.0046100798 0.010673515 0.16768105
-0.0049556261 0.0071432898 0.16904622
-0.0074456939 0.0045017772 0.17040335
-0.0083767464 0.0015419524 0.16988279
-0.0082185874 -0.00038363441 0.16956624
-0.0056516225 -0.0044892393 0.17358302
-0.0024984789 0.034809247 0.14946136
-0.0028332898 0.032176159 0.15046135
-0.0025000281 0.02935531 0.15214191
-0.0024324821 0.026966285 0.15364271
-0.0023315425 0.024783896 0.15585616
-0.0023419922 0.022163011 0.16002303
-0.0022652177 0.020136107 0.16150463
-0.0023536808 0.017166127 0.16292316
-0.0020302848 0.014034699 0.16489033
-0.0013465439 0.010569713 0.16878106
-0.0020755862 0.0078615649 0.16991958
-0.0023052886 0.0054279645 0.17249672
-0.0035142018 0.0029971846 0.17313451
-0.0029678133 3.410404e-05 0.17391562
-0.0014666859 -0.004434037 0.17723753
-0.00010184773 0.033873759 0.14967176
0.00027270243 0.031821202 0.1508162
-1.5564327e-05 0.029287774 0.15292558
0.00076514413 0.026914142 0.15482622
0.0009583002 0.024280299 0.15707172
0.00058788009 0.022174416 0.15945871
0.0004526847 0.020365955 0.16185768
0.00029658835 0.017264675 0.16358235
0.00048404903 0.014323825 0.16514456
0.0016946539 0.010897049 0.16901702
0.0011653141 0.0082207024 0.17066021
0.00091781199 0.0058431476 0.17282087
0.00037907824 0.0034022434 0.1741973
0.00056534301 0.00043343464 0.17639434
0.00080631155 -0.0029766702 0.1778353
0.002450414 0.034227051 0.14933716
0.0026835029 0.031961631 0.15094392
0.0029475209 0.02965791 0.15266331
0.0039609266 0.026465146 0.15493199
0.0039446694 0.024564326 0.15683749
0.0035703476 0.022534473 0.15862465
0.0032280085 0.020428834 0.16023289
0.0031294196 0.017335782 0.16352709
0.0030768714 0.014537783 0.16556649
0.0046814601 0.01131153 0.16936091
0.0046170624 0.0084157242 0.17112517
0.0041114567 0.0063263467 0.17241605
0.0041475804 0.0038525937 0.17436124
0.0032380081 0.0012464556 0.17703235
0.0036906376 -0.0016654693 0.1785076
0.0050493819 0.034101389 0.14825101
0.0052864342 0.032065403 0.15025653
0.0053594108 0.029944982 0.15206966
0.0064735236 0.026209392 0.15475772
0.0063413722 0.024527339 0.15728457
0.0059452308 0.02271099 0.15921198
0.006124869 0.020527584 0.16108118
0.0058300081 0.018061992 0.16259374
0.0067770546 0.014419678 0.16661216
0.0071644871 0.011874971 0.16991462
0.0074487617 0.0090536587 0.17092955
0.0071187294 0.0069189081 0.173131
0.0063907658 0.0049406942 0.17574176
0.0059730578 0.0016250483 0.17863485
0.0060315728 -0.00099283562 0.18042876
0.00748904 0.034101635 0.14818311
0.0077211778 0.0321449 0.15035436
0.0079748742 0.02998466 0.15130359
0.0090853358 0.027014464 0.15654977
0.0085270656 0.025183963 0.15895981
0.0082538733 0.023131261 0.15998486
0.0081865173 0.020874027 0.16158924
0.010014445 0.016647864 0.1656462
0.0098420298 0.014394862 0.16756286
0.0097436374 0.011937347 0.16964604
0.010267715 0.009671594 0.17092384
0.010068152 0.0077023371 0.17320393
0.0088884216 0.005220809 0.17701545
0.0097483685 0.0010110427 0.18069385
0.0095174043 -0.0012229396 0.18207903
0.0099576097 0.034000158 0.14750929
0.010182255 0.032085106 0.14890245
0.010447613 0.029998239 0.1513136
0.011284403 0.027659524 0.15750226
0.011019885 0.025320122 0.15934977
0.010885221 0.023188235 0.16021128
0.010337744 0.020829873 0.16246946
0.012134914 0.016845969 0.16579467
0.012134185 0.014630985 0.16767378
0.012318297 0.012295218 0.16903529
0.012920546 0.010061326 0.17083633
0.012623569 0.0082577895 0.17390102
0.011755672 0.005296825 0.1780597
0.013638859 0.001155508 0.18025982
0.012348787 0.033973448 0.14635433
0.012709001 0.031907752 0.14798738
0.01350329 0.02987661 0.15373984
0.014226805 0.027494431 0.1584139
0.013980153 0.025520623 0.15984946
0.013839051 0.023427706 0.16118763
0.013207975 0.020713605 0.16416308
0.014331574 0.017236406 0.16576269
0.014327042 0.015051248 0.16765919
0.014388345 0.012913879 0.16915289
0.015329782 0.010680829 0.17108296
0.014659456 0.0086860852 0.17439249
0.014616324 0.005980398 0.17750597
0.016012523 0.001937547 0.17827408
0.016507443 -0.00080941571 0.17983501
0.01451095 0.033762276 0.14570647
0.015533397 0.031403512 0.14785223
0.016564345 0.028397173 0.15488821
0.016187241 0.025942374 0.16032973
0 0 0 1 0 0 0 1 0 0 0 1 0 0 0 0 0 240 1 0 0
