ply
format ascii 1.0
comment PCL generated
element vertex 240
property float x
property float y
property float z
element camera 1
property float view_px
property float view_py
property float view_pz
property float x_axisx
property float x_axisy
property float x_axisz
property float y_axisx
property float y_axisy
property float y_axisz
property float z_axisx
property float z_axisy
property float z_axisz
property float focal
property float scalex
property float scaley
property float centerx
property float centery
property int viewportx
property int viewporty
property float k1
property float k2
end_header
-0.026631348 0.034111325 0.14774805
-0.026489092 0.031723149 0.14784051
-0.026223211 0.029289478 0.1493936
-0.026134003 0.026760073 0.15042685
-0.026233844 0.023746789 0.15227163
-0.027193407 0.019699633 0.15429065
-0.030662524 0.014400597 0.15647413
-0.031086983 0.011613197 0.15780513
-0.030982619 0.0087020947 0.15868397
-0.030704787 0.0057348055 0.15933314
-0.030995347 0.0025755479 0.16054502
-0.0314642 -0.00022306386 0.16247797
-0.031572562 -0.002774779 0.1635482
-0.024365574 0.034133159 0.14704713
-0.023926686 0.031563897 0.14770715
-0.023546239 0.029132556 0.14839417
-0.023496987 0.026722701 0.14982392
-0.023391044 0.024407327 0.1514276
-0.024181649 0.020487452 0.15263815
-0.025260136 0.016001346 0.15588082
-0.026409397 0.012781637 0.15687926
-0.026972959 0.0096507492 0.15811472
-0.027370591 0.0065351971 0.15874338
-0.027462682 0.0035506831 0.1601864
-0.028378757 0.00029205679 0.16234481
-0.028996218 -0.002465171 0.16483547
-0.027429774 -0.0051158522 0.16637146
-0.021429477 0.034260232 0.14684552
-0.020761898 0.031735595 0.14814872
-0.020719942 0.02933209 0.14848767
-0.020746751 0.026789492 0.1499657
-0.020940525 0.024227573 0.15132043
-0.021741912 0.020463612 0.15389074
-0.0227443 0.016422788 0.15632279
-0.023129897 0.013247555 0.15699524
-0.023517333 0.010344965 0.157774
-0.024591777 0.0070132241 0.1591194
-0.024639186 0.0036383781 0.16218261
-0.024812916 0.00071877253 0.16392292
-0.02506342 -0.0021672389 0.16631898
-0.024300884 -0.0047060126 0.16674437
-0.023477413 -0.0073648463 0.16724873
-0.017560376 0.034205299 0.14825337
-0.017969199 0.031909082 0.14904191
-0.018085053 0.029470958 0.14900924
-0.018479342 0.027165849 0.15101513
-0.018517429 0.024317082 0.15135835
-0.018951496 0.021179289 0.15389684
-0.020323738 0.016992269 0.15738682
-0.020364383 0.013972864 0.1577547
-0.020849936 0.010826563 0.15943426
-0.02171926 0.0064562503 0.16186984
-0.022379098 0.0037112604 0.16360125
-0.022327224 0.0013020332 0.16516382
-0.022505863 -0.0011551214 0.16698959
-0.021956934 -0.0036673648 0.16730766
-0.021131836 -0.0063520763 0.16855165
-0.014847307 0.034380808 0.14901218
-0.015338469 0.031988617 0.14957149
-0.015358862 0.029782176 0.14932309
-0.015985366 0.026995745 0.15149653
-0.016129741 0.024174329 0.15243025
-0.016479636 0.021235412 0.15437751
-0.017659938 0.017390938 0.15859313
-0.01777984 0.014367518 0.15896045
-0.018088005 0.0116285 0.16087048
-0.018869575 0.0078384988 0.16384579
-0.019399323 0.0048388592 0.16469017
-0.01976371 0.0020081531 0.16676764
-0.019848116 -0.00023954977 0.16699272
-0.019343566 -0.00302008 0.16789484
-0.018254487 -0.0054675476 0.16865236
-0.012469762 0.034543402 0.14931142
-0.012704852 0.03211578 0.15003282
-0.01299713 0.029337281 0.15061338
-0.01333104 0.026668264 0.15187162
-0.013648432 0.02408343 0.15305023
-0.013861719 0.021460829 0.15444845
-0.014683632 0.018185774 0.15814874
-0.015069018 0.014822217 0.15947913
-0.015219902 0.011988199 0.16192466
-0.016459214 0.0083691264 0.16506435
-0.017669212 0.0050105653 0.16602759
-0.01802445 0.0023542808 0.16701595
-0.017422762 0.00023985755 0.16794352
-0.017186403 -0.0023799073 0.16784602
-0.015410994 -0.0049670413 0.16842586
-0.010004527 0.03467229 0.14898556
-0.010204573 0.032378957 0.14996301
-0.010453702 0.029104276 0.15146925
-0.010888252 0.026471619 0.15241267
-0.010876823 0.024151241 0.15350993
-0.011012948 0.021591142 0.15586229
-0.010821198 0.019123869 0.15822464
-0.011712675 0.015505323 0.15883544
-0.011613759 0.012704799 0.16241279
-0.013110513 0.0095593352 0.1660946
-0.015513618 0.0056018643 0.16626887
-0.015314818 0.0030816246 0.16730393
-0.014814702 0.00073216332 0.16824783
-0.014299775 -0.0013958695 0.16882768
-0.013105614 -0.0041054795 0.16915715
-0.0075434186 0.03470321 0.14878587
-0.0078615909 0.032131296 0.15025531
-0.0080458522 0.029026149 0.15208344
-0.0079287272 0.026553918 0.15255716
-0.0078141838 0.02426506 0.15343773
-0.0076993997 0.021700254 0.15722816
-0.007584177 0.019132394 0.15923616
-0.0074803354 0.016697519 0.16006602
-0.0076462491 0.013464026 0.16244555
-0.0077496292 0.010718133 0.16657425
-0.010768757 0.0062802271 0.16809323
-0.012374157 0.0035736735 0.16904218
-0.011983282 0.0014506291 0.17003876
-0.011416866 -0.00069908629 0.17019747
-0.011381719 -0.0026386101 0.17091241
-0.0049618674 0.0342739 0.14830673
-0.0053212633 0.03163103 0.15041794
-0.005493857 0.028750088 0.15198258
-0.0052376296 0.026633495 0.15336508
-0.0051923264 0.024245966 0.15482074
-0.0049015284 0.021618765 0.15886049
-0.0049464521 0.0195184 0.16022694
-0.0051466036 0.016941343 0.16130848
-0.0049421089 0.013730466 0.16368733
-0.0048715794 0.010717677 0.16776556
-0.0053815595 0.0073168715 0.16944256
-0.0079837535 0.0045218053 0.17109902
-0.0090476209 0.0015582838 0.17096236
-0.0089338589 -0.00032524872 0.17093447
-0.006258952 -0.0046428805 0.17394581
-0.0024920192 0.034021012 0.14842507
-0.002872247 0.03145162 0.14959174
-0.0024570993 0.028819464 0.15142429
-0.0024070796 0.02647081 0.15292209
-0.0022776732 0.02431706 0.15514728
-0.0023388928 0.021693079 0.15929005
-0.0022867639 0.019709673 0.16080678
-0.0024378081 0.016980421 0.16257375
-0.0021721211 0.013923123 0.16467062
-0.0015857442 0.010541246 0.16882181
-0.0023736621 0.0078455536 0.16999371
-0.0024400451 0.0051887413 0.17230418
-0.0037782686 0.0028282001 0.1730272
-0.0033932177 -0.00015313404 0.17384988
-0.0015183287 -0.005027371 0.17645068
0.00010603713 0.033270385 0.14919645
0.00060913799 0.031295691 0.15047868
0.00020131264 0.028706849 0.15238181
0.00097557489 0.02656772 0.15430099
0.0011252577 0.023986511 0.15662593
0.00059705775 0.021856794 0.15896244
0.00034673073 0.020004096 0.16132329
0.00017187891 0.01709703 0.16328722
0.00031436834 0.014224119 0.16497914
0.0015002125 0.010729794 0.16883358
0.0010016316 0.0079361182 0.17027254
0.00084353023 0.0053678267 0.17217779
0.00027626511 0.0028429988 0.17341614
0.00055283512 -0.0002315145 0.17552766
0.00081853388 -0.0037402431 0.17675374
0.0026438439 0.034047149 0.14948304
0.0028942595 0.031795055 0.15110163
0.0031588445 0.029504362 0.15283126
0.0040609655 0.026816286 0.15542874
0.0040450343 0.024634786 0.15699919
0.0036034584 0.022493102 0.15857899
0.0032351464 0.020266034 0.15998113
0.0029999749 0.017139036 0.16327521
0.0028946984 0.014419401 0.16540566
0.0045409012 0.010938828 0.16884422
0.0045326971 0.0078948177 0.17031242
0.0040567545 0.0057621938 0.17146988
0.0041453848 0.0030839255 0.1731412
0.0033485165 0.00034582001 0.17581381
0.0038076183 -0.002678802 0.17704581
0.0053732647 0.034400303 0.14902526
0.0055256258 0.032331191 0.15099579
0.0055630831 0.030176807 0.15276426
0.0063500111 0.027186114 0.15594119
0.0061948211 0.025043065 0.15808733
0.0058132219 0.022899142 0.15962598
0.0059377998 0.020567339 0.16130421
0.0056890622 0.017922541 0.16250019
0.0065569323 0.014378661 0.16646773
0.0069551598 0.011507011 0.16945809
0.0073827365 0.008608235 0.17007187
0.0071104434 0.0062332689 0.17204568
0.0064936653 0.003950364 0.17443347
0.0062678615 0.00047742942 0.17714134
0.0063860044 -0.0022992594 0.17866483
0.0077281417 0.03476011 0.1494728
0.0078407964 0.032763176 0.15160154
0.0082331141 0.030638536 0.152557
0.0086767152 0.027892763 0.15822093
0.0081367353 0.02557463 0.16013703
0.0079243351 0.023443354 0.16084103
0.0078114728 0.021144534 0.1622763
0.0097282492 0.016982583 0.16607875
0.0095587177 0.014511413 0.16769154
0.0095056836 0.011796359 0.16934009
0.010140926 0.0094131595 0.1703268
0.0099870674 0.0071533117 0.17231083
0.0089556221 0.0041049337 0.17571586
0.010120486 -0.00059933751 0.17853631
0.0099425651 -0.0029577024 0.17967971
0.010238721 0.034983005 0.14927305
0.010468047 0.033049066 0.15062501
0.010598088 0.030914521 0.1529911
0.010773872 0.028482491 0.15937379
0.010589838 0.025835013 0.16073662
0.010496513 0.023671275 0.16144587
0.0098048635 0.021236332 0.16361114
0.01179896 0.017407345 0.16661805
0.011791432 0.01498824 0.16818145
0.012057822 0.012539232 0.16919437
0.012715993 0.010127559 0.17069328
0.012486263 0.0077530271 0.1731891
0.011856499 0.0040384769 0.17659687
0.013891399 -0.00061268802 0.17757854
0.01274487 0.035225503 0.14849909
0.013068307 0.033087213 0.15003796
0.013304128 0.030800078 0.15564707
0.013845985 0.028052196 0.15997522
0.013538187 0.026045827 0.16130623
0.013358703 0.02397537 0.16265103
0.012586989 0.021214144 0.16554545
0.01390142 0.018057102 0.16709734
0.013882875 0.015664572 0.16862695
0.013995667 0.013373772 0.16978806
0.014957645 0.011024711 0.17143673
0.014455882 0.0082392497 0.17384233
0.014652045 0.0048691668 0.17610416
0.01605265 0.00041608009 0.17556827
0.016559232 -0.0026202081 0.1765433
0.014972783 0.035176452 0.14811516
0.015892074 0.032612026 0.15004551
0.01643745 0.029202238 0.15666023
0.015699621 0.026481599 0.16193941
0 0 0 1 0 0 0 1 0 0 0 1 0 0 0 0 0 240 1 0 0
