ply
format ascii 1.0
comment PCL generated
element vertex 240
property float x
property float y
property float z
element camera 1
property float view_px
property float view_py
property float view_pz
property float x_axisx
property float x_axisy
property float x_axisz
property float y_axisx
property float y_axisy
property float y_axisz
property float z_axisx
property float z_axisy
property float z_axisz
property float focal
property float scalex
property float scaley
property float centerx
property float centery
property int viewportx
property int viewporty
property float k1
property float k2
end_header
-0.026724143 0.034122191 0.14812523
-0.026640913 0.031699616 0.14819449
-0.026287096 0.029215531 0.14966594
-0.026202969 0.026717454 0.15072694
-0.026196659 0.023886992 0.15274894
-0.027118811 0.020399574 0.15559742
-0.030700734 0.015027594 0.15833059
-0.031116428 0.012184672 0.15953736
-0.031080054 0.0092222383 0.16027094
-0.03084594 0.0061690919 0.16061844
-0.031083085 0.0028873854 0.16144982
-0.031502973 -9.958227e-05 0.16293891
-0.031561602 -0.0027576017 0.16365576
-0.024537139 0.034077924 0.14724621
-0.024103846 0.031461585 0.14782873
-0.023721747 0.028986169 0.14845136
-0.023616403 0.02656433 0.14985989
-0.023456663 0.024206191 0.15139399
-0.024282644 0.020667134 0.15342896
-0.025253864 0.016674204 0.15759376
-0.026473569 0.013320503 0.15866925
-0.027085572 0.010184668 0.15982783
-0.027557233 0.0071087494 0.16031967
-0.027602114 0.0039824462 0.16144267
-0.028459726 0.00049426756 0.1631062
-0.029070431 -0.0025266029 0.16509792
-0.027617469 -0.0051145256 0.16717279
-0.021618653 0.034132764 0.14678571
-0.020889906 0.031575967 0.14800033
-0.020873319 0.029156025 0.14829221
-0.020848949 0.026576186 0.14973111
-0.021022767 0.023924747 0.15105458
-0.021723365 0.02062762 0.15439941
-0.022703933 0.016930511 0.15767898
-0.023168037 0.013661454 0.15856254
-0.023623543 0.010785298 0.15940429
-0.024795748 0.0075500896 0.16082776
-0.024881864 0.003877826 0.16351709
-0.025027474 0.00072268059 0.16503119
-0.025339279 -0.0021049627 0.16765583
-0.02472472 -0.0044906419 0.16852969
-0.02403854 -0.007041967 0.1693439
-0.01759539 0.03396577 0.14778315
-0.018015046 0.031682562 0.1486318
-0.018179132 0.029267173 0.14864482
-0.018491071 0.026903864 0.15059431
-0.018575922 0.02399346 0.15092866
-0.018927883 0.021053137 0.1538181
-0.020204041 0.017403105 0.15838052
-0.020328965 0.014286142 0.15894623
-0.020762624 0.011119553 0.16066611
-0.021908415 0.0064161122 0.1630331
-0.022621635 0.003643234 0.16470046
-0.022609217 0.0012924043 0.16635612
-0.022764551 -0.0011025416 0.16821417
-0.022350479 -0.0034761145 0.16892563
-0.021587832 -0.0059960363 0.17041834
-0.014837856 0.03411328 0.14840904
-0.015346987 0.031734135 0.14902483
-0.015398521 0.029543154 0.14881681
-0.015975202 0.026664758 0.15089497
-0.016123837 0.023860697 0.1518929
-0.016449878 0.021095596 0.15420204
-0.017482782 0.017694084 0.15924482
-0.017675472 0.014571468 0.15977822
-0.017917946 0.011768671 0.16163723
-0.018711401 0.0074439743 0.16421925
-0.019462112 0.0044791144 0.16536942
-0.019915134 0.0019705326 0.16777438
-0.020168554 -0.00024963848 0.16829394
-0.019715009 -0.0028972267 0.16940063
-0.018623181 -0.0052637951 0.17018236
-0.012452898 0.034312055 0.14878893
-0.012681522 0.031859167 0.14949134
-0.012947795 0.029089462 0.15009637
-0.013292056 0.026325645 0.1512357
-0.013621922 0.023789505 0.15250562
-0.01383752 0.021324152 0.15423477
-0.014587267 0.018273246 0.15838766
-0.014970308 0.014937237 0.16005532
-0.015090956 0.012085656 0.16257603
-0.016311094 0.0080225328 0.16533616
-0.017686458 0.0046446784 0.16650507
-0.018182794 0.002206441 0.16783299
-0.017623289 0.00020361319 0.16889399
-0.017537419 -0.0024112286 0.16911845
-0.015744518 -0.0049797567 0.1693683
-0.0099767949 0.03450137 0.14866303
-0.01019149 0.032274269 0.14976844
-0.010432075 0.028992657 0.15139081
-0.010872743 0.026361983 0.15232752
-0.010891299 0.02408796 0.1534453
-0.010988262 0.021621006 0.1558412
-0.010760017 0.019245539 0.15836746
-0.011649948 0.015617094 0.15934169
-0.011532048 0.012883871 0.16314563
-0.013018217 0.0095042167 0.16658203
-0.015547653 0.0051231012 0.1664155
-0.015432683 0.0027833374 0.16773383
-0.014980154 0.00058214227 0.16893092
-0.014451579 -0.0015070086 0.16942652
-0.0132644 -0.0042406246 0.16944133
-0.0075113736 0.034578227 0.14858396
-0.0078539848 0.032055661 0.15016021
-0.0080909906 0.029031647 0.15225019
-0.0079548918 0.026600506 0.15284535
-0.0078868596 0.024355538 0.15378201
-0.0076201009 0.021826133 0.15749587
-0.0074985563 0.019257983 0.15956336
-0.0074209673 0.016838988 0.16059017
-0.0075750006 0.013672295 0.16315077
-0.0075944662 0.011004058 0.16731365
-0.010947317 0.0061440375 0.16838896
-0.012384389 0.0033842819 0.16935551
-0.011858524 0.0012359177 0.17015636
-0.011298224 -0.00089954853 0.17003468
-0.011163082 -0.0028408819 0.17067879
-0.0048479177 0.034371838 0.14840057
-0.0053096274 0.031511862 0.15031818
-0.00547675 0.028703321 0.15213808
-0.0052338555 0.026588531 0.15347229
-0.0051936889 0.024235515 0.15496293
-0.0047774091 0.021694513 0.15902629
-0.0048367796 0.019646799 0.16052203
-0.0050551626 0.017099971 0.16179384
-0.0048243264 0.013917049 0.16426693
-0.004708759 0.010726614 0.16805804
-0.0052226512 0.0071429396 0.1691746
-0.007734769 0.0042459983 0.17086764
-0.0087748533 0.0013006434 0.17040564
-0.0086749401 -0.00055806956 0.17013688
-0.0056226007 -0.0050234837 0.17292303
-0.0023919875 0.034266338 0.14874706
-0.0027733522 0.031523194 0.14971446
-0.0024128973 0.028462572 0.15112223
-0.0024444077 0.026141018 0.152705
-0.0022609858 0.02404242 0.15498269
-0.0021799924 0.021699267 0.15936626
-0.0021472918 0.019855818 0.16107722
-0.0023249828 0.01714612 0.16305754
-0.002054367 0.014135199 0.16522077
-0.0013858739 0.010425956 0.16882421
-0.00220322 0.0077022696 0.16973856
-0.0022027451 0.0049126125 0.17175353
-0.003416887 0.0024548492 0.17206019
-0.0028292672 -0.00057214021 0.17257035
-0.00084052316 -0.0055072689 0.17539498
0.00054618355 0.033846598 0.14953738
0.0013144067 0.031717114 0.15036273
0.00083839445 0.028493986 0.15157905
0.001600848 0.025822219 0.15335964
0.0016410039 0.023471052 0.15593025
0.00079421233 0.021660279 0.15881772
0.00053493434 0.020125415 0.16151431
0.00027722286 0.017377233 0.16387782
0.00039639487 0.014536134 0.16563462
0.0017458168 0.010712987 0.16888356
0.0012449075 0.0078860624 0.17012709
0.0010644526 0.0052638035 0.17189832
0.00055648445 0.0026782511 0.17289662
0.00087299477 -0.00053584552 0.17483148
0.0013671441 -0.0040896754 0.17589356
0.0029895063 0.034893632 0.15021828
0.0034002336 0.032397807 0.15137988
0.003827634 0.02981868 0.15263321
0.0047325334 0.026268877 0.15480612
0.0045807306 0.024175525 0.15648794
0.0038881609 0.022219714 0.15832172
0.0034415072 0.020122359 0.15995067
0.0031334504 0.017364701 0.1638048
0.0029733356 0.014778686 0.16608728
0.0047999686 0.011100427 0.16912048
0.004795135 0.0080471681 0.1705777
0.0042873151 0.0058918344 0.17161581
0.004368173 0.0031881966 0.17321303
0.0035105944 0.00030092002 0.17558664
0.0041154865 -0.0027165045 0.17676449
0.0056614233 0.035711054 0.15026328
0.0059023267 0.03329441 0.15178622
0.0060766381 0.030824158 0.15308668
0.006853791 0.026789408 0.1555972
0.006575285 0.024704613 0.15779257
0.006094283 0.022626143 0.15936263
0.0062062275 0.020354126 0.16111369
0.0058788233 0.017846355 0.16256435
0.0069625457 0.014271176 0.16658488
0.0071829432 0.011709292 0.16973236
0.0075614378 0.0088236397 0.17060877
0.0071330708 0.0065630269 0.17270206
0.0064004022 0.0044188863 0.1750735
0.0061406321 0.00068970566 0.17741102
0.0063273041 -0.0020974944 0.17888682
0.0078896582 0.036236551 0.15104136
0.0080526061 0.033867415 0.15275656
0.0086351652 0.03165656 0.15335056
0.0090690106 0.027606262 0.15813553
0.0084454827 0.025262201 0.15995714
0.0082083493 0.023125596 0.16059507
0.0081547219 0.020769147 0.16186847
0.010273553 0.016577525 0.16586356
0.0099748513 0.014327533 0.16776194
0.0097438237 0.011870149 0.16969444
0.010238076 0.0096275155 0.17091468
0.0099666221 0.0076092998 0.17314637
0.0087072421 0.0049128369 0.17674389
0.0098274844 0.00017663011 0.17960057
0.0097208442 -0.0022171107 0.18069099
0.010341993 0.036715966 0.15105769
0.010694833 0.034554705 0.15203393
0.010874779 0.032023706 0.15398356
0.011083017 0.028240481 0.15964229
0.010857476 0.025516793 0.16076927
0.010789216 0.023313468 0.16125418
0.010165834 0.020669432 0.16311163
0.012323918 0.016941132 0.16629909
0.01219223 0.014746451 0.16817145
0.012321366 0.012432572 0.16947037
0.012854612 0.010142202 0.17113595
0.012421004 0.0082456134 0.17403603
0.011529692 0.0050232317 0.1777598
0.013693912 0.00061898679 0.17933673
0.012883363 0.037223645 0.15046193
0.013294751 0.034804709 0.15148033
0.01363563 0.031058988 0.15623628
0.014149268 0.027741602 0.16023478
0.013829521 0.025641091 0.16129275
0.013682893 0.023525136 0.16238742
0.013071111 0.020666117 0.16506724
0.014436299 0.017507926 0.16663066
0.014301787 0.015347614 0.16849315
0.014298087 0.013202679 0.1699242
0.01517872 0.010871958 0.17167035
0.014402733 0.0086747482 0.17460336
0.014369963 0.0057698572 0.1773795
0.015994644 0.0017176677 0.17758313
0.016668517 -0.0011230572 0.17880362
0.015117943 0.037311956 0.15006423
0.016132547 0.034256507 0.15117069
0.016721543 0.029208023 0.1569782
0.016033281 0.025961932 0.16179582
0 0 0 1 0 0 0 1 0 0 0 1 0 0 0 0 0 240 1 0 0
