ply
format ascii 1.0
comment PCL generated
element vertex 240
property float x
property float y
property float z
element camera 1
property float view_px
property float view_py
property float view_pz
property float x_axisx
property float x_axisy
property float x_axisz
property float y_axisx
property float y_axisy
property float y_axisz
property float z_axisx
property float z_axisy
property float z_axisz
property float focal
property float scalex
property float scaley
property float centerx
property float centery
property int viewportx
property int viewporty
property float k1
property float k2
end_header
-0.026858937 0.033936545 0.14769481
-0.026713612 0.03150975 0.14778559
-0.026424116 0.029034911 0.14930296
-0.026344551 0.02657249 0.15044831
-0.026376724 0.023827167 0.15270083
-0.02735013 0.020273726 0.15550986
-0.031155577 0.015047263 0.15862235
-0.031650044 0.012388495 0.16019164
-0.031694792 0.0095218951 0.16143523
-0.031618156 0.0064729247 0.16250174
-0.03206002 0.003308181 0.16400097
-0.032510631 0.00039261449 0.165915
-0.032532778 -0.0023113992 0.16674766
-0.02460091 0.033961885 0.14700551
-0.024145741 0.031354804 0.14762327
-0.023756526 0.028888794 0.14830682
-0.023691131 0.026524505 0.14982536
-0.023566401 0.024269866 0.15156652
-0.024418904 0.02064118 0.15350284
-0.025522983 0.016631989 0.15765895
-0.026895259 0.013359888 0.15907498
-0.027622277 0.010369345 0.16065198
-0.028287405 0.0073166862 0.16189833
-0.028504839 0.0043099136 0.16367756
-0.029445093 0.00095548009 0.16576856
-0.029885698 -0.0021275366 0.16790019
-0.028216504 -0.004706664 0.1697623
-0.021643423 0.034112308 0.14677978
-0.020932496 0.031575248 0.14799504
-0.020891694 0.029162496 0.14837362
-0.020913979 0.02664667 0.14993171
-0.02111358 0.02404411 0.15137443
-0.021908471 0.02065808 0.15460034
-0.022948874 0.016916448 0.1578054
-0.023506129 0.013700868 0.15889952
-0.024073232 0.0108797 0.16005573
-0.025486426 0.0077869352 0.16232945
-0.025776748 0.0044623152 0.16589382
-0.025902245 0.0013474592 0.16758388
-0.025891185 -0.001648183 0.17004938
-0.025187252 -0.0040628086 0.17069338
-0.024417063 -0.0066693691 0.17126399
-0.017660039 0.034067359 0.14808625
-0.018092299 0.031779878 0.14888494
-0.018222572 0.029353632 0.14891191
-0.018617388 0.027066922 0.1509781
-0.018670077 0.0241528 0.15137206
-0.019091124 0.021187011 0.15421316
-0.020438056 0.017393932 0.15853855
-0.02059892 0.014321406 0.15921305
-0.021143476 0.011282641 0.16123706
-0.022846146 0.0071434435 0.16543119
-0.023543017 0.0044123004 0.16725883
-0.02330881 0.0018875519 0.16867967
-0.023285426 -0.00063466595 0.17041303
-0.022838946 -0.0030130574 0.1709418
-0.021934178 -0.0056594294 0.17221507
-0.014921107 0.034255318 0.14891663
-0.015434734 0.031868085 0.14946596
-0.015460397 0.029678477 0.14924718
-0.01609561 0.026852036 0.15145621
-0.016242793 0.024020486 0.15239824
-0.016587768 0.02118787 0.15462239
-0.017722908 0.017719924 0.1594923
-0.017921871 0.014632492 0.16011389
-0.018206686 0.011940438 0.16218238
-0.019365575 0.0080217822 0.1660787
-0.020213697 0.0051553901 0.16760807
-0.020454528 0.0024935955 0.16988249
-0.020654688 0.00023412728 0.17018279
-0.020157831 -0.0024581696 0.17123295
-0.019033756 -0.0048527983 0.1719292
-0.01254485 0.034453437 0.14937307
-0.012772934 0.031989526 0.15001528
-0.013045738 0.02922713 0.15060978
-0.013412309 0.026506184 0.15183407
-0.013744675 0.023920098 0.15302905
-0.013970438 0.021385146 0.15466921
-0.014787528 0.018372046 0.15879056
-0.015205009 0.014995074 0.16042387
-0.015294939 0.01223158 0.16307369
-0.016668137 0.008310128 0.16644032
-0.018209996 0.0050592017 0.16827062
-0.018635804 0.0026558535 0.16964717
-0.018054476 0.00063694653 0.1706876
-0.018001916 -0.0019880845 0.17081963
-0.016287545 -0.0045755859 0.17134336
-0.010067169 0.034666695 0.14927782
-0.010265326 0.032363094 0.15022486
-0.010502046 0.029051192 0.15179414
-0.01096765 0.026443787 0.1527686
-0.010985928 0.024127062 0.15384431
-0.011098995 0.021623012 0.15621896
-0.010859353 0.019254757 0.15869683
-0.01187728 0.01557258 0.15961312
-0.011637279 0.01289506 0.16336498
-0.013092085 0.0096408594 0.16700532
-0.015938738 0.0051722876 0.16758747
-0.015796162 0.0029525785 0.16911627
-0.015371799 0.00091159757 0.17057684
-0.01494145 -0.0011318868 0.17129281
-0.013850945 -0.0038652532 0.17170513
-0.0076025394 0.034788076 0.14926492
-0.0079354411 0.032156229 0.15065624
-0.008152361 0.029063398 0.15263917
-0.0080302227 0.026644217 0.15321627
-0.0079594664 0.024374451 0.15406708
-0.0076312516 0.021736901 0.15764393
-0.0074628727 0.019128246 0.15959027
-0.00738686 0.016705139 0.16051552
-0.0075228112 0.01349162 0.16297616
-0.0074331304 0.010650055 0.16701388
-0.010972526 0.0059247268 0.16895719
-0.012589762 0.0035322788 0.17051321
-0.012229934 0.0015674238 0.17183211
-0.011803015 -0.00055879075 0.17216574
-0.011815352 -0.0023883672 0.17305401
-0.0049808496 0.034625709 0.14912654
-0.0053904364 0.031668033 0.15091047
-0.0055496758 0.028748211 0.15251496
-0.0052922163 0.026597656 0.15376468
-0.0052305427 0.02418853 0.15513942
-0.0047312104 0.021534668 0.15902351
-0.0047515952 0.01944245 0.16042401
-0.0049645673 0.016874475 0.16159187
-0.0047183312 0.01364662 0.16398329
-0.0045913593 0.010406683 0.16781978
-0.0051853256 0.0069603221 0.16956258
-0.0078969179 0.0044420934 0.17179359
-0.0091272192 0.001541688 0.17212345
-0.0091546271 -0.00030868419 0.17235744
-0.0062353257 -0.0041954685 0.1759284
-0.0025277713 0.034515653 0.14946887
-0.0028710566 0.031746034 0.1503441
-0.0025291161 0.028556023 0.15142804
-0.0025331397 0.026166225 0.15287954
-0.0022984229 0.023982292 0.15504962
-0.0021011373 0.021496266 0.15923543
-0.0020191572 0.019582164 0.16085111
-0.0021893091 0.016862772 0.16274647
-0.0019113193 0.013837935 0.16491044
-0.0013699136 0.010324612 0.16894439
-0.0022007579 0.007632541 0.17018773
-0.0023490528 0.0053110262 0.17281032
-0.0036624151 0.0030067831 0.1736487
-0.0032158273 0.00014256702 0.17486876
-0.0013220555 -0.0042506377 0.17848301
0.00016260547 0.033910524 0.14998135
0.00083583873 0.031762511 0.15081367
0.00047002936 0.028582474 0.1520223
0.0015372437 0.025991254 0.15345684
0.0016812047 0.023500742 0.15583207
0.00087771181 0.021501862 0.15858488
0.00068852154 0.019824194 0.16116934
0.00043395575 0.017078947 0.16349927
0.00053796405 0.014259293 0.16534972
0.0017293721 0.010679679 0.16917655
0.0011862143 0.0079381866 0.17074691
0.00093192013 0.0056042345 0.17294702
0.00032979585 0.0032636479 0.17446207
0.000601387 0.00048079845 0.1770476
0.00097811583 -0.0028385886 0.17872512
0.0026473582 0.034825552 0.15034537
0.0030354059 0.032367688 0.15159416
0.0034501043 0.029836213 0.15293853
0.0046038325 0.02660735 0.15503004
0.0045885947 0.024307752 0.15646932
0.003986476 0.022161936 0.15807536
0.0036005152 0.019948391 0.15953894
0.0032978829 0.017078606 0.16340965
0.0031050968 0.014535732 0.16584627
0.0047755307 0.011073782 0.16948213
0.0047243331 0.0081633823 0.17123245
0.0041893083 0.006075135 0.17252098
0.0042171036 0.0036639546 0.17459196
0.0033359327 0.0012968393 0.17751846
0.0038736342 -0.0014585456 0.17925003
0.005342403 0.035439767 0.15003356
0.0056058648 0.03312194 0.15169804
0.0057769716 0.030728426 0.15313402
0.006654276 0.027263904 0.15592068
0.0065501728 0.02490323 0.1578137
0.0062426045 0.02253744 0.15901421
0.0064092274 0.020125946 0.16060728
0.0061150324 0.017540559 0.16197504
0.0069118398 0.014242258 0.16688496
0.0071701361 0.011722883 0.17007224
0.0075303232 0.0088904267 0.17114066
0.0071051279 0.0067787115 0.17339085
0.0063924938 0.0048839194 0.17597391
0.0060472214 0.0019351111 0.17917396
0.0061872252 -0.00049052574 0.18119995
0.0076496471 0.035838757 0.15049258
0.0078610517 0.033599559 0.15238447
0.00838497 0.031410433 0.15308633
0.0089387922 0.02786788 0.15848221
0.0084708445 0.025262456 0.15996058
0.0083669033 0.023035949 0.16025291
0.0083951065 0.020522235 0.16128185
0.01022667 0.016386099 0.1659269
0.0099497344 0.01422715 0.1679403
0.0097356476 0.011845011 0.1699921
0.010229902 0.0096607199 0.17133544
0.0099980021 0.0077774646 0.17368367
0.0087330937 0.0055366228 0.17756543
0.0096476721 0.0021839379 0.18180029
0.0095493924 1.4818899e-05 0.18333867
0.010096236 0.036128368 0.15015022
0.01043632 0.034041233 0.15128015
0.010680245 0.031673349 0.15343717
0.010961568 0.028429728 0.16001847
0.010847975 0.025582865 0.16085128
0.010889209 0.023313629 0.16103868
0.01037101 0.020437188 0.16257159
0.012294928 0.016698528 0.16623133
0.012188962 0.01459304 0.16821474
0.012315626 0.012353566 0.16968647
0.012848007 0.010181434 0.171526
0.012460721 0.0085352324 0.1745196
0.011449609 0.006079243 0.17877336
0.013464678 0.0029332379 0.18185988
0.012580764 0.036411677 0.14922443
0.012971038 0.034068022 0.15041119
0.013515899 0.031127034 0.15610003
0.014018559 0.028067401 0.16058056
0.013766963 0.025871901 0.16152824
0.01369324 0.023610141 0.16241403
0.013123521 0.020514382 0.16485831
0.014439162 0.01722575 0.16641727
0.014323356 0.01516013 0.16841643
0.014317419 0.013109921 0.17000544
0.01519209 0.010945616 0.17201693
0.014425488 0.0090463255 0.17506064
0.0142776 0.0068425536 0.17837843
0.015877243 0.0036575336 0.17998454
0.016565122 0.0013499076 0.18203261
0.014762556 0.036316786 0.14857663
0.015734462 0.033308543 0.14986001
0.016680619 0.029653251 0.15741566
0.01592866 0.026293207 0.16211602
0 0 0 1 0 0 0 1 0 0 0 1 0 0 0 0 0 240 1 0 0
