ply
format ascii 1.0
comment PCL generated
element vertex 240
property float x
property float y
property float z
element camera 1
property float view_px
property float view_py
property float view_pz
property float x_axisx
property float x_axisy
property float x_axisz
property float y_axisx
property float y_axisy
property float y_axisz
property float z_axisx
property float z_axisy
property float z_axisz
property float focal
property float scalex
property float scaley
property float centerx
property float centery
property int viewportx
property int viewporty
property float k1
property float k2
end_header
-0.026828133 0.034023426 0.14797391
-0.026743177 0.031639293 0.14815433
-0.026425801 0.029188151 0.14970559
-0.02635042 0.02668451 0.15073597
-0.026395619 0.023726173 0.15254749
-0.02737404 0.01986699 0.15483004
-0.030923784 0.014987564 0.15820152
-0.031375617 0.012254172 0.15963931
-0.031416174 0.0093884179 0.16076416
-0.031328317 0.0064169257 0.161615
-0.031704418 0.0031321382 0.16257952
-0.032040816 2.1923297e-05 0.16390637
-0.032096215 -0.0027388458 0.16432171
-0.024619004 0.033954002 0.14710018
-0.024198852 0.031423975 0.14788593
-0.023818932 0.02902793 0.14863499
-0.023731686 0.026632121 0.15005149
-0.023588203 0.024303604 0.15155491
-0.024412164 0.020472487 0.15296216
-0.025456915 0.016189972 0.15671833
-0.026727738 0.013080399 0.15818575
-0.027423302 0.010122345 0.15975814
-0.028054839 0.0071748667 0.16074888
-0.028143486 0.0040173624 0.1619131
-0.028976077 0.00047808699 0.16349067
-0.029326957 -0.0027742684 0.16512366
-0.027309936 -0.005873261 0.16595012
-0.021685883 0.033976942 0.14665155
-0.020989746 0.031559508 0.14817332
-0.020983921 0.029181596 0.14859161
-0.020979088 0.02666663 0.15009993
-0.021143183 0.024070606 0.15129785
-0.021923793 0.020434797 0.15410554
-0.022887072 0.016481517 0.15687875
-0.023359021 0.013294089 0.15778121
-0.023898143 0.010525263 0.15897383
-0.025214579 0.0075258208 0.16102368
-0.025047496 0.0036228676 0.16338049
-0.024940785 0.00018880909 0.16420926
-0.024859916 -0.0030424914 0.16597049
-0.024074478 -0.0054311063 0.16663086
-0.023218622 -0.007978769 0.16730666
-0.017632812 0.033805754 0.14769036
-0.0180822 0.031607591 0.14870702
-0.018283574 0.029239425 0.14889894
-0.018633626 0.027003577 0.15099649
-0.018698948 0.024117159 0.15123579
-0.019102035 0.021002512 0.15385059
-0.020390993 0.016955107 0.15769163
-0.020464594 0.013856082 0.1580535
-0.020956216 0.010781985 0.15997665
-0.022087215 0.0061909808 0.16267402
-0.022710396 0.0032863857 0.16403495
-0.022460012 0.00074048841 0.1652599
-0.022423029 -0.0018577685 0.16675316
-0.021879496 -0.0042225816 0.16725329
-0.02102782 -0.006792828 0.16867435
-0.014866902 0.033947363 0.14828295
-0.015391276 0.031615131 0.14902705
-0.015467403 0.029447988 0.14897585
-0.016112421 0.026772145 0.15129313
-0.016261194 0.023949362 0.15222153
-0.016565584 0.021041119 0.15422778
-0.017691998 0.017284306 0.15873513
-0.01780762 0.014182217 0.15907025
-0.018074878 0.01142896 0.16100483
-0.018896667 0.0072118761 0.16370517
-0.019501179 0.0041438416 0.1645496
-0.019761629 0.0014389827 0.16669407
-0.019854613 -0.00079603377 0.16686781
-0.019324016 -0.003476612 0.16795081
-0.018201981 -0.005739016 0.16892207
-0.012489836 0.034197018 0.1487975
-0.012718334 0.03174499 0.1494979
-0.012998587 0.029027861 0.15021724
-0.013409123 0.026397385 0.15156732
-0.013753355 0.023851866 0.15279503
-0.013945048 0.021255793 0.15421818
-0.014707542 0.017970294 0.15806475
-0.015110209 0.014612208 0.15952443
-0.015249461 0.011816681 0.16212238
-0.016509838 0.0078056115 0.1649082
-0.017694695 0.0042676032 0.16567041
-0.018062813 0.0017681582 0.16677129
-0.017457277 -0.00019376937 0.1677881
-0.017212536 -0.0027970453 0.16786337
-0.015442347 -0.0052440115 0.16864984
-0.010015517 0.034441359 0.148792
-0.010211029 0.032145943 0.14976212
-0.010438687 0.028859865 0.15133125
-0.01090742 0.026278168 0.15235354
-0.010937205 0.024000227 0.15344076
-0.011013884 0.021347899 0.1555863
-0.010691086 0.018765839 0.15776186
-0.011754909 0.01529987 0.15884404
-0.01163437 0.012604153 0.16263424
-0.013219535 0.0092938244 0.16621463
-0.015571336 0.0049371454 0.16579472
-0.015338366 0.0025302293 0.16693386
-0.01483477 0.00030835185 0.16805187
-0.014315149 -0.0017212401 0.16871855
-0.01313706 -0.0044007194 0.1692439
-0.0075489585 0.03457661 0.1488065
-0.0078872992 0.031968672 0.15024406
-0.008096342 0.028897541 0.15220326
-0.0079445848 0.026523558 0.15282898
-0.0078159608 0.024246136 0.15359925
-0.0075101452 0.021411605 0.15692312
-0.0073044812 0.018693352 0.15865214
-0.0072114673 0.016291214 0.15952052
-0.0074502565 0.013153687 0.16211221
-0.0073827193 0.010275339 0.16608082
-0.010804191 0.0057575959 0.16752248
-0.012359527 0.0031285856 0.16862503
-0.01193129 0.0010862706 0.16968983
-0.011383275 -0.0010073606 0.16993378
-0.011359678 -0.0028578688 0.17078917
-0.0049155918 0.034386817 0.14876191
-0.0053477515 0.031550173 0.15063611
-0.005498026 0.028711919 0.15227693
-0.005218999 0.026588388 0.15354007
-0.0051170047 0.024133908 0.15480553
-0.0046620392 0.021243842 0.15839431
-0.0046687801 0.019072624 0.15965228
-0.0048527289 0.016488738 0.1607147
-0.004662917 0.013299763 0.16315275
-0.0044261552 0.0098623652 0.16654259
-0.004924702 0.0063109733 0.16776715
-0.0077400696 0.0040145754 0.17018199
-0.0088800881 0.0011197774 0.17025135
-0.0088241026 -0.00068862765 0.17037317
-0.0059710131 -0.0049867672 0.17369495
-0.0024686316 0.03428039 0.14915192
-0.002821974 0.031590935 0.15012707
-0.0024170526 0.028785396 0.15151565
-0.0023838421 0.026378952 0.15287217
-0.0021662887 0.02411788 0.15495862
-0.0020745504 0.021342717 0.15883341
-0.002010931 0.019305209 0.16028596
-0.002135979 0.016517514 0.16200593
-0.0018508072 0.013403963 0.16398744
-0.0011375593 0.0095693152 0.1674052
-0.0019402347 0.0068914639 0.16843258
-0.002154835 0.0044750874 0.17098176
-0.0035465606 0.0022500847 0.17184924
-0.0031684418 -0.00061201351 0.17300616
-0.0012615359 -0.005318216 0.17615898
0.00019662008 0.033501469 0.14974768
0.0008754622 0.031324062 0.15057866
0.00051605166 0.028501848 0.1520789
0.0013698108 0.026303586 0.15386674
0.0015211008 0.023708545 0.15613362
0.00089071476 0.021563983 0.15850276
0.00062762067 0.019672286 0.16088298
0.00044599868 0.016702943 0.16282782
0.00060590269 0.013761071 0.1643624
0.0019607537 0.0098167248 0.16751117
0.0014247098 0.0070732306 0.16899432
0.0011336945 0.0046938183 0.17114274
0.00046328173 0.0023473348 0.17262237
0.00067453145 -0.00055082171 0.17497732
0.0010320736 -0.0039647068 0.17647655
0.0026990303 0.034360547 0.15003411
0.0031028707 0.031907544 0.1512845
0.0035238885 0.029393643 0.15264583
0.0045610829 0.026488315 0.15503341
0.0044801272 0.024285272 0.15653674
0.0039292928 0.022146234 0.1580717
0.0034966171 0.019968482 0.15951295
0.0032693425 0.016839705 0.16291617
0.0031621661 0.014006582 0.16485558
0.0050259433 0.010084501 0.16762501
0.0049643074 0.0071876394 0.16939498
0.0044011329 0.0051977965 0.17082496
0.0043810364 0.0027286797 0.17283602
0.0034100637 0.00022014612 0.17554669
0.0039067473 -0.0026327034 0.17712493
0.0053952788 0.035000257 0.14969693
0.0056841988 0.032658063 0.1513316
0.0058678864 0.030250911 0.15275314
0.0067977239 0.026764713 0.15553431
0.0065702358 0.024607187 0.15762155
0.0061573563 0.022453358 0.15900536
0.0062392238 0.020150388 0.16071968
0.0059375116 0.017606717 0.162025
0.0069627827 0.013639317 0.16547197
0.0073757195 0.010735398 0.16821237
0.0077794176 0.007942697 0.16942009
0.0072967047 0.0058881212 0.17177325
0.0065235933 0.0039687748 0.17434347
0.0060805148 0.00076857646 0.17731053
0.0061728051 -0.0017712673 0.17918734
0.007688147 0.035474297 0.15022033
0.0079406416 0.033169795 0.1520263
0.008487842 0.030950615 0.15267009
0.0092137977 0.027343171 0.15788342
0.0085853394 0.024968082 0.15964629
0.0083348332 0.022792174 0.16002788
0.0082188491 0.020453352 0.16129088
0.010223555 0.01579369 0.16460425
0.010024088 0.013512591 0.16645637
0.0099277599 0.010938416 0.16828083
0.010434699 0.0088076293 0.16974793
0.010175169 0.0069285766 0.17214766
0.0088270213 0.0045954138 0.17596754
0.0096545899 0.0008415503 0.17995398
0.0095134135 -0.0014048292 0.18137491
0.010111481 0.035963692 0.15009589
0.010507018 0.033842478 0.1511429
0.010787037 0.031349789 0.15314616
0.011370925 0.027783742 0.15918979
0.011047976 0.025094692 0.16033246
0.010936049 0.022858663 0.16052359
0.010373441 0.020006848 0.16200767
0.0123061 0.015998036 0.16478322
0.012273609 0.013801347 0.16666168
0.012468978 0.011498141 0.16806671
0.013028475 0.0093820263 0.17001739
0.012594575 0.0077273538 0.17310427
0.011494341 0.0050873584 0.1772387
0.013484939 0.0015630913 0.1800811
0.012598417 0.03651315 0.1494325
0.013072132 0.034184359 0.15057577
0.013669047 0.030730216 0.15579274
0.014335285 0.027357377 0.15984076
0.014026413 0.025160022 0.16074301
0.013890256 0.022841793 0.16142195
0.013357634 0.019616855 0.16355975
0.014481405 0.016382568 0.16479352
0.014430652 0.014283714 0.16674533
0.014462176 0.012214642 0.16831785
0.015341921 0.010182776 0.17052051
0.014520328 0.0082906885 0.17371881
0.014310626 0.005915131 0.17697927
0.015924199 0.002445681 0.17834724
0.016572352 -4.5437329e-05 0.18021889
0.014808156 0.036690369 0.14905863
0.015935678 0.033886343 0.15042111
0.01681203 0.028850814 0.15652975
0.016254516 0.02543382 0.16112283
0 0 0 1 0 0 0 1 0 0 0 1 0 0 0 0 0 240 1 0 0
