ply
format ascii 1.0
comment PCL generated
element vertex 240
property float x
property float y
property float z
element camera 1
property float view_px
property float view_py
property float view_pz
property float x_axisx
property float x_axisy
property float x_axisz
property float y_axisx
property float y_axisy
property float y_axisz
property float z_axisx
property float z_axisy
property float z_axisz
property float focal
property float scalex
property float scaley
property float centerx
property float centery
property int viewportx
property int viewporty
property float k1
property float k2
end_header
-0.026960857 0.034058914 0.1481203
-0.026823372 0.031646989 0.14820653
-0.026468487 0.029119443 0.14964725
-0.02634936 0.026573148 0.15060315
-0.026403289 0.023592114 0.15239462
-0.027397761 0.019860473 0.15485042
-0.031044543 0.014840525 0.15810925
-0.031523325 0.012067067 0.15945137
-0.031595163 0.0091534816 0.16046141
-0.031491339 0.006081108 0.16106437
-0.031763613 0.0026722031 0.16172856
-0.032129664 -0.00033432618 0.16317396
-0.032220937 -0.0029660857 0.16404565
-0.024748808 0.034052994 0.14728139
-0.024274392 0.031458873 0.14794099
-0.023850491 0.029002653 0.14859392
-0.023737991 0.026564902 0.14995663
-0.023603318 0.024172259 0.15143941
-0.024396261 0.02039933 0.15298268
-0.025510669 0.01626418 0.15706904
-0.026813185 0.013040139 0.1583401
-0.02754616 0.0099953152 0.15966722
-0.028202713 0.0070152213 0.16053247
-0.028246976 0.0038147655 0.16165215
-0.029056398 0.00018545327 0.16301641
-0.029543621 -0.0028001161 0.16510244
-0.027645376 -0.0054652668 0.16640411
-0.021803031 0.034129124 0.14683393
-0.021041716 0.031561304 0.14802609
-0.021023436 0.029170122 0.14845099
-0.020991519 0.02665602 0.14999895
-0.02114965 0.024015049 0.15128578
-0.021941479 0.020424683 0.1541861
-0.022940038 0.016534867 0.15726535
-0.023430932 0.013287318 0.15811242
-0.024001371 0.010456927 0.15905847
-0.025384553 0.007393077 0.16094029
-0.02527741 0.0035049182 0.16338815
-0.025159538 0.00041643594 0.16448207
-0.025143877 -0.0025285049 0.16635188
-0.024471074 -0.0048997221 0.16713047
-0.02378045 -0.0074017067 0.16803081
-0.017665096 0.033944141 0.14769273
-0.018119752 0.031686712 0.1486014
-0.018325958 0.02927033 0.14874116
-0.018677596 0.027024901 0.15088245
-0.018739285 0.024132391 0.15132484
-0.019151919 0.021046702 0.1540083
-0.020451086 0.016979363 0.15805019
-0.020524049 0.013834539 0.158401
-0.021013794 0.010669967 0.16006516
-0.02229711 0.0057958462 0.16236994
-0.02293532 0.0031258294 0.16395405
-0.022689972 0.00093483832 0.16554478
-0.022623697 -0.0014865075 0.16700529
-0.022182647 -0.0038095829 0.16760135
-0.021440823 -0.0062585962 0.16925962
-0.014903166 0.034136988 0.14844415
-0.015443643 0.031762369 0.14906725
-0.015518881 0.029550964 0.14890784
-0.016218562 0.026837593 0.15138921
-0.016359277 0.024036765 0.15241651
-0.016675754 0.021146623 0.15450528
-0.017754326 0.017292019 0.15907009
-0.017845782 0.014120285 0.15927473
-0.018060524 0.011210912 0.16088243
-0.018788252 0.0064035347 0.16264179
-0.019580906 0.0036943569 0.16396984
-0.019885324 0.0014870758 0.16658936
-0.02006598 -0.00061714218 0.16705565
-0.019570742 -0.0032215624 0.16817115
-0.018498909 -0.0054806634 0.16914675
-0.012521285 0.03437249 0.14901346
-0.01277906 0.03190643 0.14965634
-0.013126705 0.029176477 0.15042815
-0.013558727 0.026564945 0.15192518
-0.013890336 0.024001377 0.15313113
-0.01406718 0.021395544 0.15456949
-0.014800593 0.018085418 0.1584326
-0.015122012 0.014522218 0.15959796
-0.015142821 0.011418174 0.161777
-0.016322263 0.0069721784 0.16377717
-0.017715435 0.0037919302 0.16493742
-0.018126402 0.0016521749 0.16648605
-0.017616287 -0.0001236783 0.16769882
-0.017489353 -0.0027311579 0.16799085
-0.015702169 -0.005209187 0.16859443
-0.010042672 0.034576293 0.14893672
-0.010276665 0.032276466 0.14990772
-0.010581101 0.028987302 0.15160191
-0.011098744 0.026471399 0.15275726
-0.011129095 0.024201386 0.15384771
-0.01117074 0.021553999 0.15599592
-0.010881015 0.019017117 0.15821023
-0.011759506 0.015238386 0.15883707
-0.011534375 0.012151024 0.16221736
-0.012995958 0.0084697539 0.16529576
-0.015460256 0.0042362395 0.16494346
-0.015370942 0.0021443013 0.16657078
-0.014998879 0.00023558224 0.16802801
-0.01454049 -0.0017585858 0.16864957
-0.013356276 -0.0044382177 0.16913773
-0.0075755012 0.034668297 0.14885272
-0.0079568159 0.031990688 0.15023923
-0.0081944726 0.028945684 0.15230528
-0.0081562968 0.026589364 0.15292923
-0.0080939084 0.024299879 0.15368864
-0.0077334987 0.021511981 0.15706907
-0.0075269183 0.018758213 0.15870768
-0.0074599516 0.016155493 0.15944147
-0.007633762 0.012936471 0.16201855
-0.0075691687 0.010323459 0.16623573
-0.011174846 0.0057185111 0.16772214
-0.012623546 0.0030873795 0.16872093
-0.012199061 0.0010698655 0.16983482
-0.01159289 -0.0010348579 0.16992092
-0.011544042 -0.0029262176 0.17069256
-0.0049236566 0.034333576 0.14843273
-0.0054415958 0.031355482 0.1503008
-0.0056718853 0.028611982 0.15209652
-0.0054045445 0.02646411 0.15332986
-0.0053534033 0.024026133 0.15462185
-0.0047678547 0.021101462 0.15816082
-0.0047853305 0.018902352 0.15940166
-0.0050378023 0.016270999 0.16048928
-0.0048458725 0.013138634 0.16307004
-0.0046183742 0.010105001 0.16701101
-0.0052990788 0.0069294944 0.16874191
-0.0081825433 0.0041073887 0.17069262
-0.0092055146 0.0011475416 0.17041437
-0.0090711638 -0.00067686534 0.1703506
-0.006214703 -0.0049360376 0.17387843
-0.0024685361 0.034128353 0.14865893
-0.0029306985 0.031345461 0.14957622
-0.0026386301 0.028436273 0.15097058
-0.0026662259 0.026020711 0.15237468
-0.0024106433 0.023788212 0.1544826
-0.0021195328 0.020922784 0.15821876
-0.0020392332 0.018885316 0.15967889
-0.0022435603 0.016217967 0.16160777
-0.0019915723 0.013212017 0.163826
-0.0013669647 0.0098906104 0.16803409
-0.0022732436 0.0074323346 0.16934469
-0.002510417 0.0050393892 0.17204325
-0.0038817697 0.0026137473 0.17274742
-0.0034391386 -0.0003855988 0.17364234
-0.0016530168 -0.0050795297 0.17683111
0.00039756257 0.033450723 0.14904812
0.0011361254 0.031265117 0.14978914
0.0005981655 0.028224949 0.15121973
0.0014048652 0.025651632 0.1529351
0.0015690662 0.023108896 0.15520386
0.00085860485 0.020993399 0.15760772
0.0006071094 0.01912096 0.16001174
0.00040567684 0.016277054 0.16211691
0.0004916531 0.013451202 0.163964
0.0017252394 0.010029657 0.16808844
0.0010943146 0.0074762241 0.16984366
0.00077704573 0.0051959893 0.17217842
8.6458029e-05 0.002756624 0.173582
0.00035149118 -0.00027538525 0.17581673
0.00061297981 -0.0037185915 0.17720996
0.0028723662 0.034387026 0.14948596
0.0032909913 0.031893551 0.15065271
0.0037145824 0.029316932 0.15193853
0.0044593592 0.026060324 0.15434545
0.0045404821 0.023792081 0.15572095
0.00393906 0.021618957 0.15716599
0.0034787199 0.019421535 0.15858638
0.0032113721 0.016264994 0.16199949
0.0030614841 0.013615686 0.16429873
0.0047645089 0.010253694 0.16825916
0.0046265647 0.0074713309 0.17017563
0.0040112813 0.0055813333 0.17170258
0.0039884173 0.003090865 0.17372951
0.0030818717 0.00041734937 0.17628267
0.0035294406 -0.0025269883 0.177701
0.0055560232 0.035177138 0.1493843
0.0058315569 0.032745089 0.15090662
0.0060135378 0.03026922 0.15222952
0.006513624 0.026616625 0.15501443
0.0064677037 0.024311138 0.15688117
0.0061718966 0.022008335 0.15810159
0.0062153894 0.019703638 0.15987426
0.0058970465 0.017089574 0.1611037
0.0068628425 0.013544423 0.1658902
0.0071716276 0.010907297 0.16879076
0.0074211662 0.0080528716 0.16991463
0.0069598625 0.0060438989 0.17235476
0.0062639378 0.0042090132 0.17502855
0.0058901189 0.00071569748 0.17781171
0.0060008611 -0.00192971 0.17949478
0.0077954885 0.035714988 0.15007214
0.00802192 0.033306412 0.15175259
0.0086058676 0.031072166 0.15232705
0.0089504421 0.027229663 0.15741131
0.0085335644 0.024634575 0.15882066
0.0083683282 0.022435315 0.15906774
0.0081731966 0.020171711 0.16043915
0.010142824 0.015721362 0.16499765
0.009902495 0.013436482 0.16685341
0.009698025 0.010889299 0.16862239
0.010181188 0.0087690288 0.17002119
0.0099321268 0.0068222019 0.17239238
0.0088458331 0.0043340111 0.17622378
0.009924382 -0.00015374689 0.17934418
0.0096951853 -0.0023882422 0.18069738
0.010206274 0.036292709 0.15012203
0.01060483 0.034117766 0.15104038
0.0108551 0.031511918 0.152926
0.011083307 0.027735099 0.15883785
0.010977689 0.024874005 0.15952508
0.01092352 0.022627635 0.15965766
0.010345068 0.019816469 0.16131303
0.012182154 0.015886799 0.16509946
0.012116279 0.013671685 0.16693939
0.012246253 0.011382618 0.16833615
0.012769106 0.0092739295 0.17032251
0.012505023 0.0071677053 0.17294438
0.011813188 0.0040897685 0.17672187
0.013790143 -0.00027366745 0.17832738
0.012703139 0.0369347 0.14960529
0.01317951 0.034538396 0.15058652
0.013513184 0.030798484 0.15543821
0.014177273 0.027252793 0.15911448
0.013930868 0.024997471 0.15992993
0.013822501 0.022671865 0.16075435
0.013248775 0.019556962 0.16329461
0.014328507 0.016176576 0.16497463
0.014261956 0.014039532 0.16689472
0.014242022 0.01199815 0.16848812
0.015073352 0.010098876 0.17086582
0.014523655 0.0074833515 0.17332278
0.014625837 0.004443123 0.17585909
0.015866268 0.00041904763 0.17614761
0.016452845 -0.0024101483 0.17753661
0.01492318 0.037160031 0.14930871
0.016065031 0.034231663 0.15039508
0.016661942 0.028868416 0.15584859
0.016142931 0.025283027 0.16032937
0 0 0 1 0 0 0 1 0 0 0 1 0 0 0 0 0 240 1 0 0
