ply
format ascii 1.0
comment PCL generated
element vertex 240
property float x
property float y
property float z
element camera 1
property float view_px
property float view_py
property float view_pz
property float x_axisx
property float x_axisy
property float x_axisz
property float y_axisx
property float y_axisy
property float y_axisz
property float z_axisx
property float z_axisy
property float z_axisz
property float focal
property float scalex
property float scaley
property float centerx
property float centery
property int viewportx
property int viewporty
property float k1
property float k2
end_header
-0.027268047 0.033635784 0.14696127
-0.027026709 0.031200569 0.14711323
-0.026686288 0.02873205 0.14869055
-0.02653035 0.026324823 0.1499857
-0.026493786 0.023752205 0.15245846
-0.02752066 0.020231877 0.15529095
-0.031343337 0.014477246 0.15837108
-0.031752311 0.011770922 0.15983796
-0.031654328 0.0088401223 0.1609246
-0.031403203 0.0056451582 0.16158168
-0.031617407 0.0021940938 0.1624973
-0.03186278 -0.000739599 0.16428405
-0.031971179 -0.0033039011 0.16549607
-0.025006428 0.033721875 0.14632261
-0.024461444 0.031102037 0.14702867
-0.023999892 0.028630417 0.14780977
-0.02384519 0.026341809 0.14944483
-0.023708181 0.02422869 0.15152018
-0.024546498 0.020595854 0.15328006
-0.025697939 0.016347669 0.15720752
-0.027111646 0.012855052 0.1586061
-0.027766017 0.0098221349 0.16007856
-0.028208217 0.0065690591 0.1608467
-0.028122829 0.003198321 0.16195257
-0.028856911 -0.00026878805 0.16401426
-0.029287416 -0.003088837 0.16658321
-0.027308954 -0.0058493987 0.16831234
-0.022024263 0.033973757 0.14618491
-0.021185869 0.031354371 0.14723234
-0.021113867 0.028970288 0.14782253
-0.021103201 0.02659894 0.14965317
-0.021237204 0.02406802 0.15129285
-0.022060592 0.020630691 0.15442899
-0.023116864 0.016642865 0.15738563
-0.023618776 0.013215641 0.15824464
-0.024196142 0.010364526 0.15931974
-0.025445811 0.0069746515 0.16113912
-0.024933668 0.0028725707 0.16378704
-0.024726605 -0.00031560246 0.1655511
-0.024883909 -0.0030255492 0.16836683
-0.024203831 -0.0051854672 0.16929154
-0.023445291 -0.0075679547 0.17018223
-0.017800061 0.034028038 0.14742722
-0.018296901 0.031707879 0.14818831
-0.018437194 0.029315349 0.14838304
-0.018836163 0.027139366 0.15065737
-0.018821435 0.024125308 0.15121505
-0.019219873 0.021242168 0.15423888
-0.02071758 0.017198408 0.15832387
-0.020791376 0.014021701 0.15885504
-0.021266513 0.010865858 0.16062915
-0.021963293 0.0051505971 0.16339329
-0.022528959 0.0024605077 0.16511862
-0.02240303 0.00035311311 0.16706078
-0.022395259 -0.001899331 0.1688333
-0.021949258 -0.0040166327 0.16963725
-0.021095295 -0.0063644326 0.17124547
-0.014939283 0.03417645 0.14827071
-0.015556851 0.031814992 0.14879721
-0.015661245 0.029642388 0.14862858
-0.016277071 0.026847264 0.15119414
-0.016425943 0.024074001 0.15226908
-0.016744103 0.021286225 0.15455149
-0.018062294 0.017519483 0.15942612
-0.018272547 0.01440018 0.1600616
-0.018502317 0.011503271 0.16186741
-0.018691514 0.0060338248 0.16448447
-0.019405708 0.003380463 0.16607188
-0.019758547 0.0010880439 0.16845477
-0.0200001 -0.0010287799 0.16909528
-0.019346865 -0.0033929592 0.1701844
-0.018175917 -0.0054705185 0.17101382
-0.012478786 0.034166344 0.14862391
-0.012794903 0.03177442 0.14922024
-0.013136128 0.028982764 0.1499231
-0.01358324 0.026450098 0.15161736
-0.013960133 0.024039105 0.15304329
-0.014145433 0.021464936 0.1545435
-0.014962712 0.01805135 0.15859054
-0.015580448 0.014726856 0.16034169
-0.015561747 0.01165475 0.16284494
-0.016441174 0.0065567321 0.1651168
-0.017830757 0.0034380204 0.16689432
-0.018141305 0.0013907608 0.16848265
-0.017623048 -0.00035234762 0.16963024
-0.017441157 -0.0029245834 0.170037
-0.015573181 -0.0052881171 0.17002241
-0.0099804653 0.034286465 0.14858793
-0.01021361 0.031973656 0.1495716
-0.010541004 0.028686596 0.15120889
-0.011111271 0.026200309 0.15240388
-0.011194822 0.024120878 0.15367852
-0.011136436 0.021482477 0.15584224
-0.010702946 0.018755242 0.15786701
-0.012103764 0.015302422 0.15928501
-0.011859485 0.012386223 0.16316779
-0.013155784 0.0083972756 0.16609405
-0.015770039 0.0035318106 0.16622816
-0.015541354 0.0015963245 0.16790499
-0.015037305 -8.9165194e-05 0.16942716
-0.014533437 -0.0019825294 0.16969828
-0.013240543 -0.0046856645 0.16957921
-0.0075314376 0.034429304 0.14871554
-0.0079555204 0.031770393 0.15017495
-0.0082024764 0.028690476 0.15207052
-0.0081929071 0.026482245 0.15293786
-0.0080838175 0.024325997 0.15386672
-0.0076684519 0.021601377 0.15739244
-0.0073662 0.018803239 0.15898925
-0.0072023044 0.016259231 0.16005079
-0.0076003955 0.013294536 0.16315696
-0.0077380436 0.010908959 0.1676511
-0.011456752 0.0050848564 0.16765817
-0.012630956 0.0025888206 0.16901174
-0.011992202 0.0007552763 0.16986631
-0.01135128 -0.0012651099 0.16965465
-0.011016182 -0.0031826145 0.17030972
-0.0049326923 0.034056123 0.14848357
-0.0054547908 0.03129451 0.15071966
-0.005767196 0.028642351 0.15236332
-0.005543171 0.026670147 0.15381874
-0.0054686139 0.02437105 0.15531951
-0.0048322561 0.021497015 0.15896055
-0.004850402 0.019283645 0.16021031
-0.0050446484 0.016650345 0.16140285
-0.0049016522 0.01364632 0.16443107
-0.0046188021 0.010602453 0.16876996
-0.0050469097 0.0071060117 0.16982685
-0.0081326999 0.0040004635 0.16998294
-0.0090694623 0.0009892903 0.16974705
-0.008860996 -0.00083967409 0.16956946
-0.00540841 -0.0053904923 0.17312822
-0.0025061758 0.033806328 0.14872195
-0.002985362 0.031249868 0.15006633
-0.0027141497 0.02884821 0.15204002
-0.0026835066 0.026551295 0.15345991
-0.0025507724 0.024489561 0.15582703
-0.0022355204 0.021670593 0.15975103
-0.0021543293 0.019619841 0.1611474
-0.0023777257 0.016816828 0.16314909
-0.0020964695 0.013866678 0.16556665
-0.0013452637 0.010393881 0.17019722
-0.0020868822 0.0076751192 0.17086771
-0.0022469833 0.0046578175 0.17289464
-0.0033456341 0.001873754 0.17270464
-0.0026648627 -0.0010761033 0.17330334
-0.00072114309 -0.0058346586 0.17680052
6.0300496e-05 0.033031374 0.14940915
0.00067115523 0.031095857 0.15071969
0.00021432158 0.028694179 0.15280972
0.00098046882 0.026870318 0.15537316
0.0013635757 0.024284551 0.15747593
0.0007716649 0.022042323 0.15959837
0.00047335768 0.020028925 0.16187105
0.00017432841 0.017145459 0.16398504
0.00031308853 0.014302105 0.16597055
0.0016858582 0.010694406 0.17049415
0.0011729319 0.0078491205 0.17169839
0.00092384778 0.0050772564 0.1733568
0.0004227219 0.0023174488 0.17424344
0.00084997213 -0.0008732893 0.17642193
0.0013433967 -0.0042866739 0.17758004
0.0026270305 0.033927299 0.14952359
0.0029435875 0.031675387 0.15119165
0.0033154017 0.02938145 0.15296778
0.0043773698 0.026690155 0.15585713
0.0043526245 0.024699919 0.1574268
0.003827638 0.02263426 0.158943
0.0033079027 0.020458294 0.16034621
0.0029743807 0.017232126 0.16397683
0.0027997543 0.014604306 0.16646382
0.0047943275 0.01084794 0.1706519
0.0047010342 0.0078573031 0.17207687
0.0041268389 0.0057709911 0.17314959
0.004148684 0.0030258191 0.17492321
0.003299963 0.0001880793 0.17731644
0.0039310339 -0.0027205781 0.17869473
0.005300249 0.034303222 0.14898424
0.0055523384 0.032307871 0.15100579
0.0056836614 0.030160805 0.15286174
0.0066876081 0.026829844 0.15597229
0.0065198056 0.024928752 0.158169
0.0060608992 0.022974644 0.15970974
0.0061701741 0.020629369 0.16141067
0.0057774768 0.018044861 0.16269855
0.0069692698 0.013775489 0.16810912
0.0071631074 0.011417642 0.17107624
0.0074712252 0.0086279307 0.1721223
0.0070151235 0.0064107808 0.17428383
0.0062837009 0.0042583118 0.17654701
0.0058269529 0.00072498311 0.17922953
0.0059691337 -0.0018594929 0.18094325
0.0075931633 0.034608331 0.14914313
0.0078235026 0.032745525 0.15142204
0.0083119841 0.030687431 0.15250143
0.009196477 0.027541803 0.15800321
0.0085570738 0.025402021 0.15988076
0.0082831951 0.023477811 0.16050337
0.0081060901 0.021292709 0.16194509
0.010280777 0.01593003 0.16707683
0.0099592591 0.013807106 0.1691594
0.0096346205 0.01150605 0.17103128
0.01014965 0.0094077103 0.17234415
0.0099387579 0.0073106904 0.17451188
0.0087221861 0.0046229027 0.17816819
0.0096001774 0.00054394518 0.18174282
0.0093805669 -0.0016743314 0.18299606
0.0099188667 0.03469019 0.14858299
0.010225395 0.032851968 0.15010041
0.010550343 0.030911669 0.15264951
0.011325249 0.028125335 0.15905334
0.011044333 0.025605578 0.16031751
0.010868177 0.023574691 0.16086303
0.010280183 0.021094136 0.16296507
0.012271398 0.016235987 0.16726373
0.012134042 0.014174117 0.16926289
0.012178144 0.012021543 0.17078221
0.012676969 0.0098452764 0.17264727
0.012466643 0.0077197412 0.17525646
0.01154448 0.0047323206 0.17908445
0.013514607 0.000929603 0.18155771
0.012236608 0.034634065 0.14742455
0.012606985 0.032564234 0.14899734
0.013574598 0.030374931 0.15511219
0.014253192 0.02777761 0.15979703
0.013955468 0.025674349 0.16090032
0.013881968 0.023454236 0.16221666
0.013286114 0.02038306 0.1650791
0.014377596 0.016728045 0.16730562
0.014221368 0.014676334 0.16932906
0.01412482 0.012747732 0.17089547
0.015072503 0.01048201 0.17321737
0.014419485 0.0080749253 0.17570597
0.014365727 0.0052785031 0.17849246
0.015777068 0.0017330442 0.17966564
0.016438119 -0.0009479518 0.18127173
0.014297403 0.034256242 0.14664626
0.015269929 0.031356547 0.14822312
0.016716614 0.028810289 0.15644591
0.016162761 0.025988529 0.16137412
0 0 0 1 0 0 0 1 0 0 0 1 0 0 0 0 0 240 1 0 0
