ply
format ascii 1.0
comment PCL generated
element vertex 240
property float x
property float y
property float z
element camera 1
property float view_px
property float view_py
property float view_pz
property float x_axisx
property float x_axisy
property float x_axisz
property float y_axisx
property float y_axisy
property float y_axisz
property float z_axisx
property float z_axisy
property float z_axisz
property float focal
property float scalex
property float scaley
property float centerx
property float centery
property int viewportx
property int viewporty
property float k1
property float k2
end_header
-0.027377021 0.032896001 0.14606012
-0.027013047 0.030484213 0.1463559
-0.026660478 0.028134668 0.14806491
-0.02649104 0.025865221 0.14959624
-0.026452761 0.023604924 0.15257631
-0.027402809 0.020331392 0.15575525
-0.031294577 0.014639616 0.15830711
-0.031747326 0.011891639 0.15964745
-0.031682417 0.0089647146 0.16062766
-0.031431261 0.0058971043 0.16133174
-0.031665657 0.0025337555 0.16234617
-0.031852402 -0.00039756915 0.1640874
-0.031896479 -0.0030154814 0.16513038
-0.025082288 0.033093233 0.14562748
-0.024461357 0.03055324 0.14652878
-0.023929387 0.028142516 0.14745714
-0.023793112 0.025979849 0.14927506
-0.023682343 0.023993131 0.15158141
-0.024465321 0.020559851 0.15364246
-0.025601357 0.016524062 0.15774597
-0.027086416 0.012956729 0.15865971
-0.027793471 0.0098413592 0.15980519
-0.028279448 0.0066909981 0.16038074
-0.028180148 0.003412822 0.16151558
-0.0288684 4.4450946e-05 0.16365016
-0.029143071 -0.0028607743 0.16601601
-0.027078349 -0.0054749371 0.1666065
-0.022143504 0.033573251 0.14584798
-0.02128678 0.031103903 0.14718959
-0.021119369 0.028731316 0.14782964
-0.021116886 0.026412126 0.14973591
-0.021212308 0.023900686 0.15143961
-0.021964645 0.020640966 0.15474832
-0.023013132 0.016739344 0.15780349
-0.02359149 0.013296241 0.15853465
-0.024207382 0.010399002 0.15933393
-0.025489964 0.0069877151 0.16061155
-0.024780646 0.003205695 0.16323388
-0.024478843 0.00055605674 0.16500308
-0.024615388 -0.0025612942 0.16685145
-0.023910444 -0.0049873563 0.16719031
-0.023170238 -0.0075515807 0.16776319
-0.01798786 0.033923566 0.14747676
-0.01846871 0.031636328 0.1483445
-0.018530531 0.029248657 0.14859891
-0.018954884 0.027105302 0.15088828
-0.018828275 0.024098514 0.15151711
-0.019179463 0.021275969 0.15455763
-0.020579392 0.017192459 0.15855786
-0.020693505 0.013995974 0.15902857
-0.02121193 0.010776345 0.16067244
-0.021631179 0.0056976206 0.16321215
-0.022168638 0.0030830693 0.16483556
-0.022115709 0.00085330871 0.16656473
-0.022173109 -0.0016250702 0.16776612
-0.021699041 -0.0039516301 0.16800864
-0.021000877 -0.0065375282 0.16941814
-0.015047397 0.034056976 0.14814396
-0.015691157 0.03176615 0.1488864
-0.015788538 0.029626543 0.14887726
-0.016386867 0.026927155 0.15152545
-0.016486278 0.0241875 0.15269066
-0.016773684 0.021443093 0.1550045
-0.017904131 0.017427696 0.15950961
-0.018128969 0.014253605 0.16003236
-0.018410901 0.011314298 0.16178845
-0.018434769 0.0066131265 0.16514815
-0.019110292 0.0038819164 0.16627072
-0.019573318 0.001173487 0.16804902
-0.019741731 -0.00092362135 0.16815262
-0.019163562 -0.0034449308 0.16893782
-0.018128514 -0.0055839522 0.16985986
-0.012532477 0.0340143 0.14832062
-0.012874041 0.031670496 0.14909495
-0.013264159 0.029015545 0.15015863
-0.013710013 0.026651995 0.15210241
-0.014053316 0.024256909 0.15355185
-0.014180618 0.021678062 0.1550352
-0.014896818 0.018189535 0.1588818
-0.015468309 0.014590027 0.16029878
-0.015517998 0.011456586 0.16275118
-0.016313486 0.0069103274 0.16579758
-0.017607486 0.0038204265 0.16725361
-0.017966177 0.0014946625 0.16830313
-0.017507942 -0.00041189988 0.16904649
-0.017331365 -0.0029940945 0.16899332
-0.015488608 -0.0053311773 0.16923551
-0.010015165 0.034087904 0.14813752
-0.010246935 0.03180927 0.1492099
-0.010631344 0.028740318 0.15133603
-0.011221576 0.026388628 0.15277801
-0.011285022 0.024364349 0.15411663
-0.011185981 0.021795912 0.15631329
-0.010788817 0.019158294 0.15838461
-0.012047201 0.015288277 0.15942299
-0.011838462 0.012180358 0.1630512
-0.013149384 0.0083575118 0.1663225
-0.015610779 0.0041307518 0.16678603
-0.015389958 0.0018415288 0.16790609
-0.014911751 -0.00013328683 0.16899318
-0.014471416 -0.0020168799 0.16925515
-0.013145231 -0.0047075027 0.1691329
-0.007563395 0.034219798 0.14820446
-0.0079713315 0.031567048 0.14969864
-0.008236588 0.028689163 0.15201446
-0.0082462365 0.026484229 0.15294148
-0.0081859287 0.024355421 0.15394977
-0.0078032431 0.021940324 0.15781131
-0.0075167236 0.019074606 0.15927532
-0.0073367674 0.016412808 0.16007388
-0.0075736968 0.013102961 0.16275808
-0.0075266897 0.010309476 0.1669146
-0.011278133 0.0050293491 0.1673606
-0.012482921 0.0025185351 0.16864085
-0.011866762 0.00068413594 0.16934036
-0.011247776 -0.0013076972 0.16928333
-0.010972927 -0.0032322879 0.17004481
-0.0049245763 0.033970412 0.14808673
-0.0054621063 0.031026658 0.15011732
-0.0057653668 0.028461538 0.15204276
-0.0055360529 0.02652788 0.15356557
-0.0055056312 0.024347149 0.15524279
-0.0049390383 0.021741962 0.15928605
-0.0049484931 0.019448232 0.1604002
-0.005126114 0.01669341 0.16133526
-0.0048497729 0.013396926 0.16396613
-0.0044284286 0.010087103 0.16787091
-0.0048730881 0.0066320696 0.1689703
-0.0079080854 0.0038160835 0.16917101
-0.0088952798 0.00085051073 0.16904658
-0.0087334802 -0.00094746641 0.16910356
-0.0056158602 -0.0053136321 0.17334323
-0.0024978057 0.033759754 0.14835772
-0.0029838711 0.031061696 0.14956361
-0.0027022485 0.028460549 0.15149213
-0.0027139687 0.026190184 0.15303005
-0.0025832464 0.024344694 0.15560967
-0.0023202838 0.021802932 0.15989564
-0.0022247133 0.019701341 0.16122721
-0.0023912126 0.016717365 0.16289176
-0.0020507493 0.013587717 0.16504481
-0.0012295831 0.009983955 0.16935736
-0.0019811818 0.0073082857 0.17013624
-0.0023215036 0.0047046812 0.17279638
-0.0035528666 0.0020228813 0.17299728
-0.0029182432 -0.00089757959 0.17366619
-0.0012481826 -0.0054715094 0.17748909
0.00023884707 0.033223003 0.14918032
0.0008935568 0.031194413 0.15029904
0.00036328423 0.028525412 0.15221749
0.0010080608 0.026651144 0.15497011
0.0013635464 0.024134371 0.15714915
0.00069748843 0.022006255 0.15943305
0.0004384261 0.019998726 0.16173622
0.00018008951 0.016949395 0.16362767
0.00035203743 0.013969316 0.16536404
0.0017509069 0.010261486 0.16959922
0.0011777185 0.0075521744 0.17106213
0.00084733136 0.0050662002 0.17322421
0.00024285307 0.0024441944 0.17443973
0.00061020016 -0.0006347716 0.17678025
0.00090553594 -0.0039985306 0.17808764
0.0028759944 0.034077343 0.149259
0.0031773769 0.031721465 0.15078011
0.0035233977 0.029320631 0.15242609
0.0044069169 0.026523534 0.15549825
0.0043762433 0.024558704 0.15708692
0.0038294394 0.022496089 0.15862428
0.0032605762 0.020405024 0.16014344
0.0029611548 0.017004697 0.16354555
0.0028435469 0.014203759 0.16577402
0.0048065628 0.010312992 0.1695271
0.0046694474 0.0074231089 0.17117052
0.0040220958 0.005522796 0.17268035
0.003997996 0.0029898759 0.17479783
0.0032230667 0.0002367366 0.17726775
0.00377031 -0.0027042045 0.17864503
0.0055979961 0.03448344 0.14873771
0.0058066444 0.032353386 0.15062706
0.0059033623 0.030083012 0.15234128
0.0067328094 0.026615046 0.15555726
0.0065393583 0.024759375 0.15777622
0.0060494901 0.022849131 0.15938385
0.0060900901 0.020644281 0.16128725
0.0056803967 0.018053688 0.16257136
0.006859371 0.013437948 0.16711389
0.0071764821 0.010842293 0.16985209
0.0074347532 0.0080530625 0.17096116
0.0070058717 0.0059873792 0.17336611
0.0063711093 0.004051473 0.17587817
0.0060908319 0.0004592672 0.17861789
0.0062321969 -0.0021041653 0.1803537
0.0079125958 0.03485414 0.14902066
0.0080829589 0.032800801 0.15112504
0.0085553024 0.0306466 0.15205079
0.0092069786 0.027370654 0.15758717
0.0085591692 0.02525563 0.15946113
0.0082691098 0.02336459 0.16014117
0.0080006411 0.021356009 0.16182451
0.010126879 0.015730392 0.1662863
0.0098802922 0.013341223 0.16803457
0.0096364291 0.010816031 0.16964905
0.01014261 0.0086939503 0.17096579
0.0099993618 0.006634037 0.17319901
0.0090652797 0.0040087337 0.17699422
0.010209925 -0.00062716182 0.17992662
0.009941997 -0.0027512836 0.18125537
0.010302922 0.035182439 0.1487406
0.010594349 0.033225007 0.15010862
0.010825142 0.031019006 0.15242049
0.011266785 0.028036047 0.15877029
0.01102563 0.025485614 0.15995045
0.01083139 0.023495413 0.16059072
0.010117923 0.021242298 0.16293666
0.012134124 0.01599953 0.16643463
0.012062334 0.013651595 0.16806976
0.012147007 0.011212999 0.16919686
0.01269378 0.0089717461 0.17102687
0.012630892 0.006787261 0.17358047
0.0120312 0.0036502078 0.17731494
0.013995741 -0.00085209688 0.17881598
0.012750314 0.035502549 0.14796172
0.013145918 0.033375539 0.14944422
0.01358722 0.030793725 0.15541415
0.01416627 0.027801709 0.15968867
0.01389033 0.025654035 0.16071346
0.013783934 0.023481146 0.16214614
0.01311545 0.020408757 0.16500354
0.014268647 0.016451847 0.16646229
0.014175976 0.014072563 0.16804121
0.014115287 0.011917422 0.16927096
0.015146428 0.009497812 0.17139894
0.014624376 0.0069754682 0.17377791
0.014768762 0.0039232029 0.17625976
0.015917858 -0.00014493552 0.17660905
0.016493978 -0.0030719107 0.17782062
0.01494127 0.035475112 0.14753962
0.016104402 0.032782964 0.14927362
0.016655859 0.029018143 0.15646422
0.016055053 0.026043847 0.16133924
0 0 0 1 0 0 0 1 0 0 0 1 0 0 0 0 0 240 1 0 0
