ply
format ascii 1.0
comment PCL generated
element vertex 240
property float x
property float y
property float z
element camera 1
property float view_px
property float view_py
property float view_pz
property float x_axisx
property float x_axisy
property float x_axisz
property float y_axisx
property float y_axisy
property float y_axisz
property float z_axisx
property float z_axisy
property float z_axisz
property float focal
property float scalex
property float scaley
property float centerx
property float centery
property int viewportx
property int viewporty
property float k1
property float k2
end_header
-0.027870227 0.033007916 0.14650251
-0.027494304 0.030593794 0.14687331
-0.027069932 0.028312081 0.14870636
-0.026810223 0.026118746 0.15035129
-0.026615161 0.023959111 0.15346719
-0.027348867 0.020645903 0.15678337
-0.031188466 0.015099851 0.16026124
-0.031641439 0.01229457 0.16144539
-0.031667389 0.0092917243 0.16219468
-0.031602368 0.0061816829 0.16261464
-0.03189756 0.0027674532 0.16343434
-0.032096885 -0.00025708103 0.1649515
-0.032126077 -0.0029323776 0.16579184
-0.025592824 0.033189952 0.14594136
-0.024929985 0.03064405 0.14689818
-0.024359632 0.028250951 0.14790455
-0.024118502 0.026182486 0.14980106
-0.02389694 0.024336234 0.15220149
-0.024575645 0.020896472 0.15443178
-0.025423914 0.016776614 0.15861337
-0.02703004 0.013259413 0.16011193
-0.027796311 0.01008717 0.16119494
-0.028478391 0.0069140438 0.16163555
-0.028488474 0.0036299948 0.16278805
-0.029149592 0.00021653413 0.16471468
-0.029401712 -0.0027855001 0.1667776
-0.027210204 -0.0054668654 0.16775806
-0.022613151 0.033652831 0.14597327
-0.021657461 0.031136049 0.14723186
-0.021466071 0.028808424 0.14801395
-0.021384461 0.026604423 0.15004908
-0.021421796 0.02423604 0.15188904
-0.02200057 0.020982632 0.15532847
-0.022836754 0.01693619 0.15823458
-0.023458531 0.0134717 0.15913257
-0.02418636 0.010564684 0.16011672
-0.025693797 0.0070860065 0.16164069
-0.025041092 0.0031412847 0.1644683
-0.024448033 0.00028789588 0.16609028
-0.024715578 -0.0026422108 0.16813092
-0.024152867 -0.0049392027 0.16891085
-0.023544127 -0.0073589925 0.16987844
-0.018281791 0.034012523 0.14736143
-0.018742776 0.031761128 0.1483116
-0.01881915 0.029393312 0.14869176
-0.019173039 0.027383078 0.15107951
-0.019015949 0.024437118 0.15183493
-0.019253008 0.02172379 0.15499838
-0.020402523 0.017317532 0.15872121
-0.020483254 0.014118176 0.15909831
-0.020952068 0.010903571 0.16092852
-0.021865485 0.0049214191 0.16395541
-0.022333086 0.0024662539 0.16576882
-0.022260332 0.00060679181 0.16777326
-0.022382276 -0.0015990492 0.16918179
-0.021996899 -0.0038337149 0.16973545
-0.021429408 -0.0061751623 0.17146094
-0.015254753 0.034245215 0.14823295
-0.015929887 0.031972576 0.14897542
-0.016038785 0.029838165 0.14903516
-0.016599337 0.027287537 0.15175094
-0.016673524 0.024580514 0.15301523
-0.016891077 0.022032006 0.1553887
-0.01772096 0.017602896 0.15950441
-0.017924175 0.01437131 0.16011816
-0.018228602 0.011351113 0.16200633
-0.018350415 0.0059480416 0.16550453
-0.019201856 0.0033993847 0.16709504
-0.019826528 0.0010259466 0.169255
-0.020100011 -0.00093759783 0.16965695
-0.019520514 -0.0032955164 0.17070816
-0.018526904 -0.0052436497 0.17178684
-0.012736267 0.034231894 0.14863199
-0.013086465 0.031937677 0.14942802
-0.013556249 0.029415557 0.15059629
-0.013933259 0.02703804 0.15237711
-0.014262456 0.024709713 0.15384179
-0.01433272 0.022168647 0.15537158
-0.014872418 0.018584887 0.15911202
-0.015378183 0.014718194 0.16041103
-0.015399941 0.011390765 0.16295417
-0.016213235 0.0063608815 0.16615348
-0.01775551 0.0035451755 0.1682442
-0.018243553 0.0014616926 0.16964063
-0.017926013 -0.00030171339 0.17070913
-0.017718501 -0.0028874434 0.17081133
-0.015890272 -0.0049742227 0.17121057
-0.010226936 0.034311626 0.14852914
-0.010459692 0.032077692 0.14967901
-0.010921427 0.029102152 0.15188433
-0.011491095 0.026654176 0.15310228
-0.011484697 0.024613293 0.15428855
-0.011270508 0.022179766 0.15651709
-0.01085165 0.019491559 0.15859433
-0.01214568 0.015462047 0.15964264
-0.011788255 0.012148184 0.16326335
-0.012865838 0.0078824665 0.16644408
-0.015787717 0.003891353 0.16805275
-0.015635535 0.0018512128 0.16950011
-0.015338401 -4.7806388e-06 0.1707644
-0.014967378 -0.0016828239 0.17114213
-0.013619509 -0.0043066568 0.17128868
-0.0077781049 0.03443202 0.14853796
-0.0081896745 0.031830989 0.15018576
-0.0085159224 0.028872076 0.15240869
-0.0084523829 0.026598213 0.15310971
-0.0083756698 0.02442807 0.15406206
-0.0078619402 0.021977605 0.15795271
-0.0076299515 0.01905597 0.15943627
-0.00756296 0.016392937 0.16041879
-0.0078309532 0.013213689 0.16338624
-0.0077086007 0.010426719 0.16749515
-0.011617697 0.0047114487 0.16858408
-0.012978797 0.0025297038 0.1700906
-0.012498677 0.00094507798 0.17107677
-0.011868567 -0.00094834476 0.17134012
-0.011614516 -0.0027268257 0.17228374
-0.0051276293 0.034062989 0.14808741
-0.0056714839 0.031225163 0.15056315
-0.0060039437 0.028577471 0.15221474
-0.0056958096 0.026541591 0.15361892
-0.0056400318 0.024358505 0.15531904
-0.0049605551 0.021644715 0.15934077
-0.0050233454 0.019341156 0.16046906
-0.0052844961 0.01662018 0.16156462
-0.005071911 0.013408447 0.16443126
-0.0046687843 0.0098888408 0.16816261
-0.0053300178 0.0065926751 0.16950066
-0.0086579025 0.0041789548 0.17082851
-0.0096132243 0.0012432272 0.17127629
-0.0094498787 -0.00048869534 0.17167978
-0.0063267564 -0.0047101043 0.17545938
-0.0027384979 0.033765227 0.14818992
-0.0032604488 0.031111302 0.1496525
-0.0028632379 0.028448997 0.15158677
-0.0028752431 0.02616486 0.15305124
-0.0026995684 0.024322178 0.15570277
-0.0023227299 0.02164248 0.15998095
-0.0022577085 0.0195325 0.16128539
-0.0025049024 0.016532874 0.16300867
-0.0022539091 0.013392849 0.16520411
-0.0013476535 0.0094791455 0.16920112
-0.0022407456 0.0070351856 0.17022468
-0.0024421555 0.004317794 0.17258953
-0.0036880644 0.0017251972 0.17291583
-0.0032939659 -0.00071570033 0.17450188
-0.0014781507 -0.0050779893 0.1786288
0.00025067193 0.032977872 0.14896066
0.00095464278 0.030952504 0.15021369
0.00040648592 0.0283827 0.15224999
0.0010492684 0.026243707 0.15495379
0.0014417974 0.023748137 0.15719755
0.00073067326 0.021786846 0.15949655
0.00043857092 0.01982677 0.1617986
0.00010817475 0.016683837 0.16365615
0.00016248727 0.013642178 0.16536075
0.0016732197 0.0096995924 0.16926958
0.001117803 0.0070618168 0.17078775
0.00076142629 0.0046412358 0.17287147
0.0001227186 0.0022020969 0.17431444
0.00036040333 -0.00044322843 0.17732888
0.00064607238 -0.0036439437 0.17895643
0.0029107283 0.033854526 0.14917515
0.0032122908 0.031528115 0.15073732
0.0035435495 0.029167246 0.15246774
0.0045244796 0.026006661 0.15545601
0.0044567124 0.024174485 0.15710843
0.0038776121 0.022232708 0.15866236
0.0032916411 0.02017777 0.16015296
0.002893128 0.016731983 0.1636088
0.0026484618 0.013839941 0.16572995
0.0047768187 0.0098427152 0.16918783
0.0046425145 0.0070655132 0.17096943
0.0039555775 0.0051869312 0.17247783
0.0038331796 0.0028453157 0.17483056
0.0029494592 0.00044400754 0.17769633
0.0034592682 -0.0023301197 0.17939235
0.0056984397 0.034382239 0.14873175
0.0058598281 0.032229606 0.15064853
0.0059117349 0.029986734 0.15243682
0.0068512261 0.026140554 0.15551567
0.006615621 0.024408897 0.15777665
0.0061030341 0.022603555 0.15936217
0.0062090768 0.020305781 0.16110384
0.0057430905 0.017757582 0.16241916
0.0066758399 0.013121504 0.16688745
0.0071145911 0.010393632 0.16932784
0.0073347269 0.0077449 0.1706607
0.0068800543 0.0058885729 0.17328157
0.0061063254 0.0041904682 0.17593728
0.005771813 0.00080657675 0.1790648
0.0058860034 -0.0015831043 0.18102871
0.0080625461 0.034831174 0.14912945
0.0081347357 0.032739006 0.15120521
0.0085832691 0.030613711 0.15220267
0.0091942688 0.027023381 0.15759817
0.0085134348 0.025050398 0.15948482
0.0082277674 0.023135254 0.16014315
0.0081190364 0.020917248 0.16144411
0.010018794 0.015353664 0.1658773
0.0097546475 0.012944093 0.16755936
0.0095576653 0.010293004 0.16899812
0.010086783 0.008361835 0.17062013
0.009915201 0.0066038412 0.17321214
0.0086858794 0.0043894043 0.17720051
0.0098414132 -0.00025127135 0.18043606
0.0095345806 -0.0022495582 0.18189998
0.010500217 0.035254147 0.14899206
0.010734043 0.03325814 0.15029179
0.010855031 0.031005824 0.15258732
0.011191458 0.027736735 0.15849769
0.010936296 0.025334349 0.15989606
0.010779622 0.023345323 0.16047198
0.010255205 0.020714615 0.16240631
0.012040251 0.015651505 0.16603583
0.011974271 0.013243706 0.16752352
0.01205851 0.010629559 0.16844508
0.01268371 0.0086318897 0.1705897
0.012439122 0.0069248099 0.1738853
0.01158898 0.0042057312 0.17780469
0.013696843 -0.00043395913 0.17958504
0.013009289 0.03568472 0.1483966
0.013371 0.033503462 0.14978607
0.013546728 0.03058471 0.15551829
0.0140328 0.02767233 0.15960036
0.013847773 0.025533954 0.16060898
0.013758053 0.023344439 0.16212267
0.013035564 0.020234516 0.16483785
0.014156997 0.016253026 0.16623831
0.014079212 0.013753289 0.1676117
0.014027005 0.011505377 0.16865566
0.015077376 0.0092306156 0.17090826
0.014379555 0.0072796596 0.17407084
0.014372861 0.004566499 0.17703159
0.015718322 0.00032965047 0.17763484
0.016302913 -0.0026213308 0.17889863
0.015249265 0.03571824 0.14811125
0.01651961 0.032901432 0.14970815
0.016282393 0.029242609 0.15653864
0.015993413 0.025957916 0.16119584
0 0 0 1 0 0 0 1 0 0 0 1 0 0 0 0 0 240 1 0 0
