ply
format ascii 1.0
comment PCL generated
element vertex 240
property float x
property float y
property float z
element camera 1
property float view_px
property float view_py
property float view_pz
property float x_axisx
property float x_axisy
property float x_axisz
property float y_axisx
property float y_axisy
property float y_axisz
property float z_axisx
property float z_axisy
property float z_axisz
property float focal
property float scalex
property float scaley
property float centerx
property float centery
property int viewportx
property int viewporty
property float k1
property float k2
end_header
-0.027666474 0.032909438 0.14585097
-0.027283398 0.030476157 0.1462504
-0.026921613 0.028183319 0.14814375
-0.026751693 0.0260514 0.14993784
-0.02658584 0.023880018 0.15317263
-0.02733892 0.020786198 0.15675832
-0.031275526 0.015298813 0.16113827
-0.031743173 0.012552205 0.16246541
-0.031829003 0.0095475866 0.16337265
-0.031863626 0.0063637397 0.16388135
-0.032228883 0.0029059688 0.16476996
-0.032400582 -0.00011262784 0.16645968
-0.032413624 -0.0027589186 0.16748576
-0.025369504 0.033134568 0.14539824
-0.02474118 0.030566994 0.14640905
-0.024211682 0.028151028 0.14749242
-0.024024474 0.02614373 0.14949083
-0.023845511 0.024284758 0.15197697
-0.024554947 0.020840675 0.15438581
-0.025434518 0.017055832 0.15914023
-0.027128095 0.013485189 0.16108152
-0.027944105 0.010319402 0.16228034
-0.02876802 0.0070466693 0.16272463
-0.028829651 0.0036680028 0.1637556
-0.0294623 0.00027868291 0.16587442
-0.029604165 -0.0026138024 0.16822039
-0.0272386 -0.0052432776 0.16851959
-0.022409653 0.033665646 0.14559431
-0.021519503 0.031126311 0.14687438
-0.021361249 0.028811848 0.14774479
-0.02132844 0.02665725 0.14986928
-0.02136649 0.024207518 0.15172827
-0.021984141 0.020990672 0.15527728
-0.02284354 0.017164895 0.15863252
-0.023500314 0.013727456 0.16007696
-0.024273725 0.010836439 0.16130686
-0.02596684 0.0072079226 0.16267601
-0.025209781 0.0031455352 0.16512641
-0.024454447 0.00043335941 0.16661303
-0.024629563 -0.0024746517 0.16840975
-0.024026234 -0.0047718119 0.16890359
-0.023404332 -0.0072478079 0.16957892
-0.018151555 0.034023568 0.14703327
-0.018606108 0.031770494 0.14797209
-0.018713668 0.029414056 0.14841279
-0.019127443 0.027458394 0.15088907
-0.018975439 0.024419298 0.15170398
-0.019229185 0.021736035 0.15490855
-0.02039556 0.01752138 0.15893653
-0.020512395 0.014333162 0.15970336
-0.020976324 0.011225417 0.16189364
-0.022099238 0.0052114422 0.16475573
-0.022413267 0.0027169869 0.16649687
-0.022226617 0.00073719304 0.16829298
-0.022230519 -0.0014555143 0.16948283
-0.021864718 -0.00373138 0.16977374
-0.021308921 -0.0062174313 0.17123148
-0.015133389 0.034271859 0.14801188
-0.015815025 0.031977452 0.14866582
-0.015934857 0.029837092 0.14872502
-0.016528687 0.027252544 0.15152177
-0.016620329 0.024563191 0.15285565
-0.016848985 0.02206821 0.15530924
-0.017669125 0.01774144 0.15946893
-0.017935015 0.014565099 0.16052325
-0.018255711 0.011695301 0.1628156
-0.018606722 0.0065781414 0.16698946
-0.019339059 0.0037771328 0.16813195
-0.019842286 0.0011059085 0.16992188
-0.020018015 -0.0008045109 0.17010829
-0.019402547 -0.003271223 0.17080224
-0.018424399 -0.0053044013 0.17162992
-0.012641688 0.034214292 0.14845249
-0.012991676 0.031922624 0.14918147
-0.013498637 0.029358774 0.15027262
-0.013855878 0.026932715 0.15203585
-0.01418765 0.024659432 0.15362535
-0.01429308 0.022181947 0.15529929
-0.014883988 0.018685305 0.15903723
-0.01541889 0.014906132 0.16077825
-0.015480482 0.011822219 0.1638514
-0.016502479 0.007067156 0.16781323
-0.017926455 0.0039292583 0.16952656
-0.018296815 0.0016230558 0.17055333
-0.017897362 -0.00029887012 0.17127571
-0.017636588 -0.0028425537 0.17091496
-0.01586904 -0.0049392106 0.17084949
-0.01014482 0.03428733 0.14840534
-0.010384791 0.032036845 0.14952458
-0.010903765 0.029022679 0.15160318
-0.011462213 0.026526272 0.15271863
-0.011432738 0.024500731 0.15399168
-0.011239169 0.022184042 0.15650371
-0.010812856 0.019510934 0.15862572
-0.012206458 0.015675135 0.16016269
-0.011880859 0.012662457 0.16421899
-0.013058126 0.0086332848 0.16794875
-0.016007686 0.0044986052 0.16967842
-0.015727917 0.0021863154 0.1706138
-0.015387254 -9.7147658e-06 0.17131865
-0.01499818 -0.0016615132 0.17127064
-0.0136249 -0.0042992258 0.17082256
-0.0077099609 0.034428183 0.14850926
-0.0081552658 0.031856112 0.15022334
-0.0085034249 0.028795581 0.15216191
-0.0084045911 0.02655392 0.15291321
-0.0082815373 0.024394343 0.1538744
-0.0077948291 0.021928171 0.15794046
-0.0075025531 0.018966112 0.15936251
-0.0074422047 0.016409388 0.16045594
-0.0077741034 0.013441091 0.16368034
-0.0075571015 0.010578439 0.16769317
-0.011790503 0.0050279624 0.16941273
-0.01301043 0.0026549171 0.17076771
-0.012440047 0.00087572407 0.17123172
-0.011847852 -0.0010244431 0.1710149
-0.011512881 -0.0029243373 0.17169945
-0.0050693732 0.03417154 0.14825909
-0.0056768861 0.031413354 0.15097298
-0.0059809918 0.028633887 0.15223195
-0.0056487271 0.026601994 0.1536456
-0.0055899941 0.024385083 0.15534136
-0.0048690522 0.021561487 0.1593063
-0.0048983241 0.019242534 0.1603889
-0.0051453854 0.016589398 0.16153824
-0.0049562915 0.013506326 0.16455919
-0.0045317351 0.009870505 0.16824572
-0.0051961215 0.0066044303 0.16974944
-0.0084896274 0.0039546257 0.17058051
-0.0095049813 0.00099205272 0.17072465
-0.0093820328 -0.00073545438 0.17094578
-0.00621618 -0.0049924692 0.17468353
-0.0026884482 0.033954196 0.148477
-0.0032214189 0.031376913 0.15018
-0.002811813 0.028693095 0.15188693
-0.0027829448 0.026368825 0.15327491
-0.0026586503 0.024420492 0.15589473
-0.0022504546 0.021484021 0.1598842
-0.0021556381 0.019397084 0.161201
-0.0023583272 0.01647879 0.16300094
-0.0021182168 0.013438347 0.1653287
-0.0013378921 0.0097051011 0.16974297
-0.002218863 0.0072746845 0.17081948
-0.0025815456 0.0048164651 0.17348292
-0.0038429371 0.0021698819 0.17351718
-0.0033890449 -0.00057703949 0.17449494
-0.0016175358 -0.005283867 0.17839244
0.00010223893 0.033174358 0.14910713
0.00077222718 0.031130042 0.15023378
0.0003039329 0.028648689 0.1523495
0.00088220625 0.026467133 0.15537553
0.0013888407 0.02377503 0.15736663
0.00079109555 0.021642562 0.15942031
0.00046264209 0.019739024 0.16176012
0.000155199 0.016740382 0.16382292
0.0002433139 0.013794905 0.16570973
0.0016272846 0.010015424 0.170055
0.0010092442 0.0074575506 0.17167123
0.00060749584 0.0050639231 0.17378165
-2.7716264e-05 0.0025031043 0.17495523
0.00025685431 -0.00054185133 0.17753099
0.00048629683 -0.0039049692 0.17879032
0.0027510501 0.033989217 0.14910622
0.0030646885 0.031644661 0.1506325
0.0034122914 0.029262239 0.15233846
0.0043340214 0.026198193 0.15571941
0.0043598912 0.024329016 0.15727817
0.0038947735 0.02218001 0.15867449
0.0034006282 0.020173512 0.16028351
0.0028994556 0.016987929 0.16409387
0.0026522735 0.014159419 0.16631027
0.0046871076 0.010077818 0.17002553
0.0044974582 0.007301697 0.17176987
0.0037683949 0.0054829223 0.17321827
0.0036731947 0.0030078951 0.17538951
0.0028874942 0.00020067356 0.17782204
0.0033772045 -0.0027940546 0.17912063
0.0055379597 0.034453932 0.14851712
0.0057246671 0.032283723 0.15041357
0.0058001848 0.030020213 0.15218706
0.0066405456 0.026312571 0.15566996
0.0064890506 0.024544209 0.15790708
0.0061142752 0.022713292 0.15945299
0.0062193829 0.020570755 0.16138874
0.0057398062 0.018165993 0.16293037
0.0065370905 0.013388336 0.16782729
0.006983046 0.0105304 0.17006025
0.0071404437 0.0078881392 0.17129965
0.0067235511 0.005936604 0.17383261
0.0060268585 0.0041071111 0.17639509
0.0058199475 0.00024135601 0.17896628
0.0059468052 -0.0023589255 0.18064132
0.0079284878 0.034862824 0.14874867
0.0080438815 0.032737188 0.15084712
0.0084754247 0.030588975 0.15183277
0.0090494426 0.027177475 0.15763865
0.0084702466 0.025212308 0.15955381
0.0081959236 0.023340259 0.16027912
0.0080746021 0.021290809 0.16176282
0.0099011362 0.015473581 0.16668177
0.0096093314 0.013080857 0.1683495
0.0093954895 0.010364856 0.16958609
0.0099201621 0.0083583919 0.17110686
0.0097797178 0.0064726304 0.173605
0.0086955912 0.0039372989 0.17743257
0.0099053374 -0.0012336699 0.17986751
0.0095675839 -0.0033228663 0.18114051
0.010405572 0.035169661 0.14849335
0.010626336 0.033174258 0.14978297
0.010781573 0.030930663 0.15209882
0.01111126 0.027833257 0.15833023
0.010927576 0.025444886 0.15977317
0.01075428 0.02350962 0.16045354
0.010239106 0.020988751 0.16256167
0.011899919 0.015684869 0.1667085
0.011806648 0.013308908 0.16821413
0.011897869 0.010724039 0.16907851
0.012492722 0.0086113429 0.17114645
0.012351262 0.0065622004 0.17413393
0.011629968 0.0034430714 0.17770109
0.013586362 -0.0016110966 0.17858852
0.012907975 0.035463352 0.1477057
0.013251782 0.033277657 0.14908643
0.01350803 0.030578926 0.15509102
0.014122105 0.027721897 0.15924445
0.013945538 0.025552953 0.16020247
0.013904473 0.023294095 0.16171414
0.013237184 0.020236572 0.16460896
0.014001398 0.016257014 0.16684219
0.013886436 0.013802426 0.16828884
0.013826616 0.011578063 0.16931763
0.014913849 0.0092805019 0.17154963
0.014293949 0.0068231295 0.1742519
0.014352689 0.0036973716 0.1767298
0.015435412 -0.00078439567 0.17654732
0.015890196 -0.0039080186 0.17739731
0.01513567 0.035361368 0.14726157
0.016374113 0.032451902 0.14876905
0.016239252 0.029324263 0.15613368
0.016171968 0.025874719 0.1606224
0 0 0 1 0 0 0 1 0 0 0 1 0 0 0 0 0 240 1 0 0
