ply
format ascii 1.0
comment PCL generated
element vertex 240
property float x
property float y
property float z
element camera 1
property float view_px
property float view_py
property float view_pz
property float x_axisx
property float x_axisy
property float x_axisz
property float y_axisx
property float y_axisy
property float y_axisz
property float z_axisx
property float z_axisy
property float z_axisz
property float focal
property float scalex
property float scaley
property float centerx
property float centery
property int viewportx
property int viewporty
property float k1
property float k2
end_header
-0.027905731 0.032902982 0.14557543
-0.027541369 0.030523906 0.14616309
-0.027099289 0.028410643 0.14823452
-0.026874982 0.02640835 0.15017734
-0.026531311 0.024436891 0.15348347
-0.027222574 0.021325741 0.15696833
-0.031389203 0.015110845 0.16071726
-0.031872846 0.012329486 0.16197267
-0.031964447 0.0092803994 0.16286662
-0.032023843 0.0060695615 0.16360268
-0.032434627 0.0025522299 0.16461301
-0.032609072 -0.00053612672 0.16626151
-0.032592516 -0.003230423 0.16724391
-0.025646124 0.033009581 0.14495915
-0.024989601 0.030534443 0.14620067
-0.024434339 0.02821807 0.14744434
-0.024180951 0.026368083 0.14958954
-0.023858482 0.024633335 0.15221523
-0.024571108 0.02131974 0.15445961
-0.025397845 0.017175162 0.15874179
-0.027234299 0.013283334 0.16045849
-0.028092772 0.010045351 0.16151209
-0.028947264 0.0067426725 0.16221616
-0.029033581 0.0033847457 0.16367871
-0.029685833 -8.5171108e-05 0.16570105
-0.029747318 -0.0031002469 0.16783623
-0.027232883 -0.0056136698 0.16804454
-0.022654863 0.033433236 0.14495558
-0.021686666 0.030961001 0.14647923
-0.021546697 0.028730178 0.14752448
-0.021446817 0.026754092 0.14983672
-0.021439329 0.024457568 0.15175296
-0.02194936 0.021307336 0.155175
-0.022808643 0.017244169 0.15808922
-0.023557724 0.013583692 0.15920648
-0.024404822 0.010585577 0.1603647
-0.026166203 0.0068660215 0.16199785
-0.025445735 0.0028745919 0.16517588
-0.024654128 0.00025143541 0.16682446
-0.024672735 -0.0027145643 0.16810887
-0.023985315 -0.0050788885 0.16841759
-0.023333503 -0.0075711622 0.16911067
-0.018127846 0.033748262 0.14629366
-0.018632887 0.031571958 0.14738131
-0.018823683 0.029272599 0.14801653
-0.019186843 0.027516533 0.15065704
-0.019036693 0.024527373 0.15154792
-0.019198932 0.021910785 0.15473007
-0.020329399 0.01749498 0.15821673
-0.020513507 0.014201327 0.15867251
-0.020953106 0.010823867 0.16069438
-0.022538261 0.0046213353 0.16448705
-0.022782832 0.0022242013 0.16645762
-0.022363173 0.00038608542 0.16825874
-0.022246491 -0.0017539181 0.16914324
-0.021823211 -0.0040532155 0.16929828
-0.021254977 -0.0065194047 0.17083398
-0.015027151 0.034033909 0.14720248
-0.015756328 0.031770777 0.1479549
-0.015955815 0.029651932 0.14816944
-0.016535997 0.027278852 0.15124071
-0.016627004 0.024606122 0.15260243
-0.016792145 0.022147307 0.15502618
-0.017561739 0.017637448 0.15860079
-0.017832493 0.014241543 0.15938647
-0.018123383 0.011084965 0.16154993
-0.018570345 0.0056092865 0.16570024
-0.019410457 0.0030634445 0.16737327
-0.019871594 0.00068561319 0.16948962
-0.020001218 -0.0011926193 0.16954203
-0.019311717 -0.0035995101 0.17032728
-0.018369196 -0.005582625 0.17117269
-0.012521097 0.033970252 0.14769723
-0.01288492 0.031711347 0.14844157
-0.01341517 0.029191831 0.14970024
-0.013825815 0.026889302 0.15166463
-0.014111875 0.024669677 0.15327677
-0.01422659 0.022191111 0.15499839
-0.014810364 0.018787494 0.15860005
-0.015274302 0.014511918 0.15973675
-0.015295892 0.011042904 0.16263978
-0.016392861 0.0059210649 0.16635205
-0.0178426 0.0032415001 0.16847743
-0.018286148 0.0011556452 0.16981022
-0.017909318 -0.00064775895 0.17064784
-0.017620198 -0.0031857688 0.17038888
-0.01581434 -0.0051432154 0.17038891
-0.010024573 0.034045205 0.14777146
-0.010259825 0.03181624 0.14890282
-0.01077458 0.028862394 0.15110961
-0.01135857 0.026409999 0.1523091
-0.011323213 0.024407355 0.15362807
-0.011137003 0.022238508 0.15623917
-0.0107634 0.019721119 0.15866403
-0.012041096 0.015403205 0.15958434
-0.011652715 0.011947666 0.16339789
-0.012910633 0.007653025 0.16703743
-0.015848538 0.0037269858 0.16854316
-0.01570249 0.0016574835 0.16994856
-0.015462374 -0.00034036482 0.17092459
-0.015114613 -0.001879796 0.17076908
-0.013612837 -0.0044258521 0.17053087
-0.0076047666 0.034197837 0.14797696
-0.0080969213 0.031670235 0.14962316
-0.008384278 0.028663451 0.15174444
-0.008254285 0.026422828 0.15268053
-0.0082028089 0.024375493 0.15386055
-0.0077563911 0.022227 0.15833858
-0.0075350129 0.019399963 0.16004944
-0.0074349632 0.016867872 0.1612899
-0.0075985938 0.013457497 0.16397396
-0.0075275996 0.010363769 0.16789243
-0.011913784 0.0046828892 0.16980548
-0.013192709 0.0023147 0.1707976
-0.012667195 0.00066094508 0.171316
-0.011991982 -0.0011234224 0.1709573
-0.011665527 -0.0029918829 0.17156841
-0.004884677 0.034008887 0.14788957
-0.0055788504 0.031212399 0.15044698
-0.0058288304 0.028452223 0.15194438
-0.005520131 0.026541008 0.15358868
-0.0055248854 0.024552399 0.15557431
-0.0049996763 0.022124825 0.16017179
-0.0050518853 0.019879093 0.16139786
-0.0052666282 0.01719152 0.16259488
-0.0049443459 0.013790466 0.16524374
-0.0046631345 0.01020474 0.16910869
-0.0054835919 0.0071147308 0.17112535
-0.0089450814 0.0040040007 0.17180803
-0.0097669903 0.00097467256 0.17154182
-0.0096164821 -0.000714069 0.17150287
-0.0064329617 -0.0050308108 0.17493977
-0.0025146748 0.033795729 0.14814314
-0.003097113 0.031179057 0.14973518
-0.00261033 0.028451771 0.15174106
-0.0026388634 0.026254047 0.15339155
-0.0026410504 0.024655061 0.15632099
-0.0023754791 0.022294937 0.16117802
-0.0023008112 0.02025356 0.16254713
-0.0025411942 0.017186563 0.16422689
-0.0022603781 0.01408151 0.16650037
-0.0013748145 0.0099074114 0.1706965
-0.0023477045 0.007575857 0.17192313
-0.0025593648 0.0050109006 0.1744574
-0.0039981399 0.0024545181 0.17444149
-0.0036675825 -0.00044370961 0.17537783
-0.0016197414 -0.0055129821 0.17863409
0.00037968223 0.033050947 0.14890967
0.0010377907 0.031025711 0.15011619
0.00054696883 0.028502744 0.15224889
0.0010631507 0.026601234 0.15560551
0.0014298878 0.024073839 0.15780215
0.00072986761 0.022358531 0.16050965
0.00049287151 0.020580046 0.16299012
-1.6408554e-05 0.017629704 0.16522583
4.3147513e-05 0.014621981 0.16713071
0.0016399595 0.010095039 0.17081347
0.00099020847 0.0075031347 0.17232808
0.00064449105 0.0050606215 0.17443155
-3.8527385e-05 0.0024890017 0.17560408
0.00035075311 -0.00078443234 0.17799746
0.0005378623 -0.0041910177 0.17904614
0.0030362899 0.033873722 0.14897172
0.0033309257 0.031536296 0.15051596
0.0036521368 0.029154336 0.15226248
0.0045525627 0.02609784 0.15572947
0.0044633672 0.024405092 0.15742956
0.0038365892 0.022495642 0.15906113
0.003342554 0.020610344 0.16085027
0.0028241272 0.017808525 0.1653453
0.0024618655 0.015009328 0.16772379
0.0047213826 0.0099373795 0.17046238
0.0045036962 0.0070776502 0.17203125
0.0037617015 0.0052297106 0.17351611
0.0037137705 0.0026806865 0.17568202
0.0029946284 -0.00013857185 0.17809764
0.0034892994 -0.0032312232 0.17915682
0.0058295853 0.03429706 0.14833863
0.0059960042 0.03215396 0.15028417
0.0060500074 0.029899487 0.15210393
0.0069696829 0.026015136 0.15555741
0.0066436795 0.024469914 0.1578773
0.0061766724 0.022729391 0.15940912
0.0063397293 0.020477591 0.16120841
0.0057653557 0.018260565 0.16303976
0.0066640261 0.013318453 0.16853207
0.00700363 0.010362126 0.17052084
0.0070939595 0.0076655038 0.17162435
0.0067192945 0.005572652 0.17399049
0.0061127739 0.0035694158 0.17643607
0.0060386905 -0.00037013917 0.17884572
0.0062045348 -0.0030555076 0.18036656
0.0082036713 0.034680065 0.14849831
0.0083377259 0.0325878 0.15067892
0.0087252529 0.030456414 0.15173052
0.0093449568 0.026917292 0.15748495
0.008601537 0.025134688 0.15944147
0.0082864873 0.023250533 0.16009864
0.0082975989 0.020943457 0.16123663
0.010033935 0.015295996 0.16736834
0.0096918875 0.012829422 0.16890252
0.0093410658 0.010188037 0.17003249
0.0098594418 0.0080801016 0.1713907
0.0097664045 0.00604067 0.1737946
0.0087775774 0.0030830915 0.17740192
0.010104653 -0.0022883757 0.17897309
0.0097630443 -0.004389694 0.18014282
0.010641399 0.034977917 0.14817896
0.010856412 0.033025224 0.14953639
0.010999799 0.030818636 0.15193826
0.011356538 0.027619228 0.15834542
0.010988686 0.025391603 0.15990654
0.01078351 0.023451691 0.16048482
0.010257017 0.020718394 0.16221838
0.011968202 0.015371938 0.16716799
0.011836912 0.012929003 0.16855566
0.011789098 0.010379272 0.16931526
0.012403463 0.0081078485 0.17115059
0.012353114 0.0059375837 0.17420322
0.011741662 0.0025274863 0.17739947
0.01368853 -0.0026877476 0.17741676
0.013119883 0.035289597 0.14737333
0.013465815 0.033172619 0.14883839
0.013777919 0.030429272 0.15513766
0.014119513 0.027744018 0.15970375
0.013851034 0.025675202 0.16078675
0.013692181 0.023492955 0.16240345
0.01296248 0.020225726 0.16513233
0.014062569 0.015750617 0.16697297
0.013909244 0.013233989 0.16831218
0.013772805 0.010988729 0.16926412
0.014897798 0.0084441816 0.17120557
0.014273521 0.0060489667 0.17411746
0.014379782 0.0027698025 0.17630808
0.015386934 -0.0016765662 0.17545931
0.015768651 -0.0049074572 0.17580324
0.01534612 0.035228856 0.1469785
0.016656328 0.032448802 0.14861107
0.016493052 0.029128149 0.15674439
0.015976429 0.026129708 0.16146716
0 0 0 1 0 0 0 1 0 0 0 1 0 0 0 0 0 240 1 0 0
