ply
format ascii 1.0
comment PCL generated
element vertex 240
property float x
property float y
property float z
element camera 1
property float view_px
property float view_py
property float view_pz
property float x_axisx
property float x_axisy
property float x_axisz
property float y_axisx
property float y_axisy
property float y_axisz
property float z_axisx
property float z_axisy
property float z_axisz
property float focal
property float scalex
property float scaley
property float centerx
property float centery
property int viewportx
property int viewporty
property float k1
property float k2
end_header
-0.028408652 0.033079639 0.14665101
-0.028015662 0.03066114 0.14717557
-0.027487246 0.028477577 0.14915989
-0.027179729 0.026458716 0.15108526
-0.026688445 0.024617493 0.15454911
-0.027171651 0.021932604 0.15849186
-0.031444058 0.015951043 0.16344014
-0.031952944 0.013230001 0.16484265
-0.03215377 0.010199034 0.16591901
-0.032362785 0.0069595599 0.16681848
-0.032912266 0.0034144677 0.16789795
-0.033046272 0.00023257057 0.16951445
-0.032972004 -0.0025736568 0.17034912
-0.026178811 0.033207286 0.14595321
-0.025457144 0.030677071 0.14710708
-0.024840929 0.028297795 0.1482648
-0.024497127 0.026407642 0.15038577
-0.024076266 0.024615232 0.15301006
-0.024742959 0.021603381 0.15575588
-0.025421683 0.017831577 0.16054304
-0.027458364 0.01392747 0.1628437
-0.028420389 0.010729753 0.16414173
-0.029450923 0.0074421521 0.165023
-0.029627386 0.004039024 0.16646837
-0.03022564 0.00056174857 0.16851781
-0.030095171 -0.0026128679 0.17049128
-0.027409999 -0.0053612962 0.1696052
-0.023182213 0.033673987 0.14588115
-0.022108614 0.031162843 0.14732401
-0.021918846 0.028878512 0.14826596
-0.021732168 0.02681491 0.15051195
-0.021663418 0.024435779 0.15245979
-0.022075845 0.021557698 0.15627125
-0.022891728 0.017733861 0.15959939
-0.02379423 0.014101732 0.16121009
-0.024762304 0.011132907 0.16269518
-0.026705405 0.0073831561 0.16449922
-0.025770787 0.0032333951 0.16721237
-0.024744475 0.00041457493 0.16820115
-0.024738658 -0.0026507445 0.16923937
-0.024016526 -0.0049251942 0.16929677
-0.023376592 -0.0074108043 0.16969526
-0.018517898 0.03408964 0.14720628
-0.019006534 0.031855498 0.14823155
-0.019171147 0.029497525 0.14875107
-0.019422172 0.027600486 0.15129158
-0.019259391 0.024573168 0.1521599
-0.019311763 0.022045899 0.15550332
-0.020428447 0.017845148 0.15945365
-0.020764137 0.01454736 0.16024685
-0.021243025 0.011272658 0.16268465
-0.022617046 0.0050854599 0.16642682
-0.022788439 0.0026138502 0.16808893
-0.022444671 0.00055497204 0.16960563
-0.022354806 -0.0017092486 0.17036918
-0.021912804 -0.0039325175 0.17031391
-0.021416221 -0.0065136063 0.17153296
-0.01527833 0.0342662 0.14782429
-0.016056312 0.032031659 0.14862676
-0.016300865 0.029925404 0.14882748
-0.016712105 0.027327415 0.15177613
-0.016780341 0.024609165 0.15305319
-0.016882135 0.022208204 0.15560476
-0.01766677 0.01782665 0.15955971
-0.018097924 0.01445851 0.16071877
-0.018386086 0.011411451 0.16328536
-0.018509828 0.0060824016 0.16805418
-0.019447055 0.003400194 0.16940315
-0.020030135 0.00075572199 0.17110024
-0.020138295 -0.0010217247 0.17083313
-0.019482002 -0.0035403732 0.17149526
-0.018611748 -0.0056020571 0.17210947
-0.012688238 0.033962354 0.1479301
-0.013114362 0.031793736 0.14879276
-0.013616133 0.029236646 0.15007271
-0.013973652 0.0268631 0.15203045
-0.014226584 0.024606546 0.15360872
-0.014329192 0.022208469 0.15550061
-0.014875776 0.018979233 0.15941611
-0.015550854 0.014613607 0.16089141
-0.015498724 0.011262532 0.16415454
-0.016303951 0.0062292507 0.16863059
-0.017905023 0.0034084879 0.17054649
-0.01846428 0.0012323976 0.17164855
-0.018184917 -0.00064040459 0.17233129
-0.017839752 -0.0031342125 0.17179887
-0.016058646 -0.0050885836 0.17153268
-0.010164375 0.033775769 0.1476915
-0.010427791 0.031696204 0.14906068
-0.010890748 0.028881632 0.15147449
-0.011470032 0.026464157 0.15276676
-0.011428012 0.024436338 0.15407847
-0.011215988 0.022355396 0.15676893
-0.010836718 0.020024642 0.15937729
-0.012290331 0.01545535 0.16057201
-0.011779873 0.0121712 0.16466159
-0.012790679 0.007877985 0.16881712
-0.015831621 0.003851278 0.17072751
-0.015841482 0.0017192902 0.17206001
-0.015735177 -0.00035792193 0.17293665
-0.015379781 -0.0019569062 0.17258903
-0.013886443 -0.0044557829 0.17194188
-0.0077385087 0.033762001 0.14767106
-0.0082321232 0.031523664 0.14968786
-0.0085068671 0.0287601 0.15217152
-0.008347691 0.026598111 0.15326141
-0.0082607195 0.0245777 0.15446879
-0.0078321155 0.02252434 0.15901259
-0.0075965729 0.019703193 0.16071634
-0.007526116 0.01712027 0.16202715
-0.0077351332 0.013946054 0.1651663
-0.0076386565 0.011237305 0.16941269
-0.011893952 0.0045860107 0.17209786
-0.013305292 0.0021971487 0.17304683
-0.012878833 0.00041099545 0.17341864
-0.012233451 -0.0013062612 0.17289853
-0.011991185 -0.0032357816 0.17326137
-0.0050762529 0.033274241 0.14738303
-0.005696374 0.03109327 0.15050176
-0.0059473156 0.028648138 0.15250076
-0.0056176647 0.026801499 0.1542215
-0.0056115836 0.024808973 0.15623799
-0.005024265 0.022438081 0.16082463
-0.0050704335 0.020145575 0.16199283
-0.0053160279 0.017438848 0.1632463
-0.0050293193 0.014309454 0.16629335
-0.0048291576 0.010755315 0.17031044
-0.0056030406 0.0070859408 0.17206609
-0.0088515552 0.0036030975 0.17361142
-0.0098343501 0.00063085178 0.17321314
-0.0098059718 -0.0010439225 0.17320605
-0.0064576603 -0.0054008556 0.17572211
-0.0027120363 0.032930922 0.14751248
-0.0032874546 0.030792402 0.14966466
-0.0027206906 0.028677482 0.15233846
-0.0027188873 0.026584798 0.15408088
-0.0027281633 0.025010474 0.15703465
-0.0023078823 0.022511892 0.16171043
-0.0022546065 0.020372843 0.16293338
-0.0025264756 0.017412379 0.16472708
-0.0022734529 0.014449471 0.16719849
-0.0014439935 0.010063266 0.17136274
-0.0024346299 0.0075860643 0.17266825
-0.0025115679 0.0049685859 0.17518418
-0.0039628246 0.0023919062 0.17514814
-0.003536134 -0.00069699064 0.17584269
-0.001170065 -0.0058948002 0.17847
0.0001737687 0.032519944 0.14874201
0.00089192454 0.030650824 0.15014419
0.00049723254 0.028387746 0.15254769
0.0010550115 0.026765654 0.15616721
0.0014370747 0.024124736 0.15814777
0.00077336549 0.02242073 0.16078754
0.00057888892 0.020467527 0.16311525
0.00012384445 0.017557688 0.16530386
0.00010427517 0.014669484 0.16737272
0.0016025238 0.010057466 0.17112975
0.00098721089 0.0074692168 0.17275868
0.00067101413 0.0050248858 0.17489874
3.9778744e-05 0.0023822442 0.17598315
0.00054268033 -0.0010660993 0.17798549
0.00089282444 -0.0045226091 0.17884515
0.0027771471 0.033536043 0.14892814
0.0031509711 0.031273074 0.15055898
0.003545997 0.028974244 0.15240599
0.0044591222 0.026228333 0.15617971
0.0044474993 0.024409533 0.15770221
0.0037766148 0.022419676 0.15919277
0.0033349313 0.020511137 0.16086638
0.0029567305 0.017508639 0.16513072
0.002577439 0.014783493 0.16757685
0.004767519 0.0098669128 0.17074555
0.0045925924 0.0070538283 0.17240147
0.0037988382 0.0052285837 0.17387123
0.0037959758 0.0025935511 0.17592199
0.0031211362 -0.00029102154 0.17823274
0.0037103503 -0.0033738692 0.17922519
0.0055523505 0.034137603 0.14838335
0.0057859449 0.032024264 0.15036155
0.0059080925 0.02982074 0.1522565
0.0067457161 0.026267642 0.15595919
0.006552177 0.024522247 0.15812419
0.0061623156 0.02266751 0.15947415
0.0063376413 0.020369397 0.16120242
0.0057557598 0.018069483 0.16289844
0.0066752541 0.013197467 0.16867563
0.0070475796 0.01031276 0.17075568
0.0071865069 0.0077326703 0.17216183
0.0067943139 0.0057684542 0.17459123
0.0061481385 0.0037509738 0.17698409
0.0060496451 -0.00030890113 0.17930982
0.0062480913 -0.002994952 0.18081203
0.0078909667 0.034682069 0.14861593
0.0080891382 0.032596458 0.15079781
0.0085603446 0.030499587 0.15190272
0.0092547135 0.026939368 0.15778029
0.0086189285 0.025005631 0.15959246
0.008266232 0.023105791 0.16012593
0.0082680387 0.02082756 0.1612227
0.010058589 0.014728158 0.16688645
0.0096984701 0.012559848 0.16881172
0.0093896138 0.010092136 0.17028899
0.0099367052 0.0082293199 0.17201126
0.0098092398 0.006414107 0.1746272
0.0087051252 0.0036995979 0.17844635
0.010081486 -0.0016038618 0.18040685
0.0097778123 -0.0037419735 0.18150058
0.010300762 0.035112411 0.14834151
0.010582144 0.033162031 0.14968883
0.010799696 0.030966889 0.15211353
0.011333137 0.027495027 0.15852775
0.011029198 0.025131201 0.15987897
0.010774936 0.023172922 0.16032474
0.010239776 0.020389296 0.16197626
0.012005301 0.014720144 0.16658723
0.011837915 0.012560711 0.16839853
0.011871527 0.010315386 0.169719
0.012472183 0.0084462175 0.17203654
0.012359843 0.0064904848 0.1753251
0.01164357 0.0033397847 0.1787881
0.013826147 -0.0016842654 0.17953192
0.012748311 0.035519842 0.14753385
0.013157371 0.033391599 0.14895648
0.013671891 0.030337645 0.15516697
0.014322831 0.027205981 0.1594032
0.014032152 0.025111506 0.16034763
0.013985813 0.022789475 0.16165857
0.013365721 0.019365355 0.16410199
0.014110452 0.015043375 0.16626699
0.013955272 0.012854478 0.16810071
0.013830073 0.010906585 0.16953714
0.014914986 0.0089987041 0.17226571
0.014241586 0.006717518 0.17536184
0.01433744 0.0036300432 0.1778847
0.015664857 -0.000696584 0.17770699
0.016256113 -0.0038254925 0.17838347
0.014957197 0.035510555 0.14708756
0.016329454 0.032675412 0.14854872
0.016452318 0.028675517 0.15630515
0.016304465 0.025302086 0.16065842
0 0 0 1 0 0 0 1 0 0 0 1 0 0 0 0 0 240 1 0 0
