ply
format ascii 1.0
comment PCL generated
element vertex 240
property float x
property float y
property float z
element camera 1
property float view_px
property float view_py
property float view_pz
property float x_axisx
property float x_axisy
property float x_axisz
property float y_axisx
property float y_axisy
property float y_axisz
property float z_axisx
property float z_axisy
property float z_axisz
property float focal
property float scalex
property float scaley
property float centerx
property float centery
property int viewportx
property int viewporty
property float k1
property float k2
end_header
-0.030070603 0.032808032 0.14823245
-0.02943296 0.03045973 0.14885217
-0.028564127 0.028466158 0.15090889
-0.02796801 0.026653612 0.15298843
-0.027138416 0.025132516 0.15675989
-0.027263198 0.022748169 0.16100195
-0.031405989 0.016322048 0.16791281
-0.031713378 0.013834988 0.16977894
-0.031689618 0.010843139 0.17145966
-0.03179267 0.0076174475 0.17321151
-0.032280181 0.0042638667 0.17504795
-0.031939637 0.001361549 0.17713653
-0.031638816 -0.0012799135 0.17837699
-0.027931919 0.033042308 0.1473441
-0.02683886 0.030590499 0.14855576
-0.025962315 0.028284492 0.14976361
-0.025279138 0.026570637 0.15206698
-0.02466253 0.025024237 0.15486425
-0.025144735 0.022286601 0.15805525
-0.025507662 0.0186351 0.16324577
-0.027631316 0.01425101 0.16689892
-0.028405679 0.011054655 0.1688823
-0.029545723 0.0075941626 0.17059468
-0.029806482 0.004160678 0.1728224
-0.029850625 0.0011041209 0.17518543
-0.028879922 -0.0019420293 0.17724466
-0.026784241 -0.0059078494 0.17565955
-0.024910953 0.033642221 0.14694087
-0.023258343 0.03107013 0.14834481
-0.022958653 0.028818503 0.14940329
-0.022470005 0.026939176 0.15174004
-0.022253787 0.024887869 0.15410428
-0.022401659 0.022277953 0.15827248
-0.023035638 0.018552026 0.16190256
-0.024024151 0.014723854 0.1645246
-0.02498172 0.011465133 0.1664589
-0.027127206 0.0071016615 0.16939974
-0.025969421 0.0013678648 0.17320858
-0.025107866 -0.001461324 0.17344597
-0.024660062 -0.0039330069 0.17446294
-0.023938213 -0.0058503724 0.17379294
-0.023016362 -0.0080131562 0.17322558
-0.01930055 0.034184828 0.14782515
-0.019809246 0.031905618 0.14885993
-0.02002448 0.029505324 0.14942119
-0.020011118 0.027755653 0.15196803
-0.019813614 0.025115818 0.15353724
-0.019672684 0.023013204 0.15729629
-0.020714369 0.018757669 0.16138861
-0.021006793 0.015401853 0.16316685
-0.021381795 0.011826545 0.16610119
-0.024237333 0.0026596661 0.1716852
-0.023757517 8.2517705e-05 0.17205447
-0.022573806 -0.001248235 0.17341489
-0.022203287 -0.0026886328 0.174312
-0.021805193 -0.0045415512 0.17375107
-0.02050137 -0.0070107444 0.17382909
-0.015776616 0.034648851 0.14865541
-0.016602309 0.032314368 0.14925446
-0.016936975 0.030151514 0.14942734
-0.01729282 0.027828598 0.15250444
-0.017254369 0.025471685 0.15428609
-0.017270854 0.023572683 0.15710469
-0.018014653 0.018781133 0.16090836
-0.018449029 0.015244514 0.1633717
-0.018732162 0.011929076 0.16663456
-0.020661404 0.005046099 0.17104082
-0.020774134 0.0020954194 0.17208025
-0.020301512 -0.00039946529 0.17383827
-0.020295762 -0.0017163085 0.17353383
-0.019144239 -0.0038559933 0.17366096
-0.017853756 -0.0055257166 0.1731426
-0.013135136 0.034513846 0.14910038
-0.013511955 0.032279179 0.14966603
-0.014083643 0.029640278 0.15082751
-0.014495579 0.027545249 0.15290488
-0.014710818 0.025675908 0.15482441
-0.014769169 0.023492448 0.15677449
-0.015191779 0.019885706 0.16040756
-0.01605398 0.015151412 0.16334456
-0.016038433 0.011683866 0.16750294
-0.018137252 0.0060358071 0.17180817
-0.019344604 0.0028729779 0.17323394
-0.019035548 0.00064907171 0.17402323
-0.018314978 -0.0010260508 0.17452957
-0.017569385 -0.0032595205 0.173722
-0.015605845 -0.0038236342 0.17223333
-0.010580632 0.034461439 0.14886008
-0.010775317 0.032264221 0.14997764
-0.01121271 0.029168351 0.15190481
-0.011820398 0.026997438 0.1534536
-0.011794877 0.025326941 0.15498017
-0.011407491 0.023271251 0.1573724
-0.010667129 0.020588402 0.15921412
-0.012776778 0.0158845 0.16260253
-0.012179011 0.012696354 0.16773704
-0.013852984 0.0084024724 0.17307954
-0.017224915 0.0039964211 0.174482
-0.016586926 0.0016305577 0.17507182
-0.01597527 -0.00036652642 0.17516457
-0.015572371 -0.0015180935 0.17469573
-0.013627868 -0.002861486 0.1732171
-0.0082256962 0.03455513 0.14875337
-0.0085743805 0.032004442 0.15045197
-0.0087571843 0.028954098 0.15226637
-0.0085037332 0.026973093 0.15346004
-0.008377715 0.025094865 0.15470842
-0.0074620335 0.022663984 0.15831377
-0.0072368938 0.019846214 0.15978152
-0.0076148212 0.017596867 0.16207245
-0.007833411 0.014503567 0.16660564
-0.0072542345 0.012439669 0.1712894
-0.013245995 0.0049431715 0.17617479
-0.014186548 0.0022841576 0.176406
-0.013449458 0.00085166807 0.17617843
-0.01262382 -0.00016182169 0.17532799
-0.012072016 -0.0019491337 0.1750409
-0.0054223617 0.034352634 0.14858223
-0.0060549667 0.031456929 0.15117355
-0.0060858042 0.028851103 0.15246062
-0.005614493 0.027110051 0.15410626
-0.0054912819 0.025126716 0.15613402
-0.0045423741 0.022192409 0.15976831
-0.0046056597 0.020102201 0.16091254
-0.0053423182 0.017791234 0.16312572
-0.0049894941 0.014842733 0.16735281
-0.0043942733 0.011651371 0.17218918
-0.0052957493 0.0082782162 0.17419797
-0.00991775 0.0046664346 0.17726153
-0.010263304 0.0018022975 0.17653786
-0.010165965 0.00026336749 0.17613614
-0.0068737771 -0.004215132 0.17726427
-0.0030798297 0.034065343 0.14867249
-0.0036548404 0.031437472 0.15045871
-0.0026888112 0.028889215 0.15230931
-0.0026473189 0.026767898 0.15388303
-0.0024612576 0.025109518 0.15694344
-0.0019635432 0.021808809 0.16036357
-0.0019877369 0.019805806 0.1616884
-0.0025111646 0.017477356 0.16485316
-0.0023035761 0.015061717 0.16810231
-0.0010129899 0.010969922 0.17414446
-0.0021589494 0.0085921828 0.17503461
-0.0023552328 0.0057825875 0.17696033
-0.0041767531 0.0036347972 0.17691217
-0.0038457443 0.00040214366 0.17834535
-0.0017639946 -0.0055260747 0.17955935
0.00011900075 0.032995135 0.14960553
0.0011182406 0.030920798 0.15088516
0.00069289614 0.028644925 0.15322143
0.0017413474 0.026188686 0.15633976
0.0019716171 0.023774924 0.15854086
0.0010797846 0.022043606 0.16041726
0.00057099783 0.020247372 0.16278762
7.1089664e-05 0.017728025 0.16547181
8.6198606e-06 0.015388206 0.16855526
0.0020794449 0.010904714 0.17444092
0.001331592 0.0081806434 0.17559522
0.00072110276 0.0054457518 0.17651325
-0.00033754786 0.0029175647 0.17738657
9.8592478e-05 -0.00081025698 0.17939082
0.00014664898 -0.0044069914 0.17969403
0.0028903431 0.033928741 0.14980452
0.0033236963 0.031623989 0.15137419
0.0037346326 0.029258961 0.15324393
0.0050800862 0.025893113 0.1568988
0.004935971 0.024200667 0.15848871
0.0041594626 0.022327377 0.15977025
0.0035203714 0.02060239 0.16142915
0.0028701038 0.017677248 0.16550158
0.002481844 0.015599875 0.16889034
0.0052102879 0.010166607 0.17395481
0.004887749 0.00732644 0.17491363
0.0039154361 0.0054811882 0.17561567
0.0036807221 0.0025405081 0.17729743
0.0027736991 -0.00054506835 0.17903607
0.0029965206 -0.0037891173 0.17955025
0.0057309452 0.034805309 0.14951374
0.0059153414 0.032563955 0.15134361
0.0060418854 0.030238649 0.15315914
0.0071532577 0.026145715 0.15703128
0.0067953905 0.024472836 0.15907727
0.0063735112 0.022878332 0.16032417
0.006367635 0.020878676 0.1622227
0.0056396211 0.018681932 0.16397707
0.0068498328 0.013076258 0.17189911
0.0072506946 0.010223566 0.17353575
0.0073539815 0.0078051314 0.17451604
0.0068961903 0.0054156356 0.17597784
0.0061759804 0.0030426662 0.17780681
0.0058643543 -0.0011873314 0.17943616
0.005859483 -0.0040213154 0.18057427
0.0080075394 0.03549742 0.14996983
0.0081545999 0.033259172 0.15194997
0.0086561628 0.0311123 0.15294144
0.0095333643 0.026675997 0.15893014
0.0086632874 0.024960117 0.16046335
0.0081479736 0.023365868 0.16112199
0.0079499073 0.021649515 0.16261613
0.010223685 0.014768683 0.1699065
0.0098067652 0.012366333 0.1715292
0.0093912799 0.0099828606 0.17256775
0.0099803861 0.0079255365 0.17371859
0.0099523114 0.0056049298 0.17569688
0.0089447815 0.0020671161 0.17856367
0.0099232048 -0.0033389714 0.17947839
0.0093836747 -0.0054506301 0.18028365
0.010410981 0.03600793 0.14989457
0.010660272 0.033998728 0.15110072
0.010811328 0.031671427 0.15334606
0.011455879 0.027295196 0.15978678
0.010932982 0.025098722 0.16100037
0.010541671 0.023499759 0.16170856
0.0094841653 0.021522323 0.1641183
0.011918521 0.014670978 0.1693577
0.011778102 0.012377101 0.17078567
0.011742452 0.010142665 0.17159116
0.012467182 0.0078673493 0.17326772
0.012578133 0.0051652156 0.17588387
0.011876234 0.0014234475 0.17852332
0.0135872 -0.003774937 0.17800961
0.012865178 0.036447819 0.1491847
0.013224005 0.034216579 0.15050153
0.014029048 0.030319924 0.15713337
0.014458197 0.027069261 0.16145216
0.013913155 0.025144542 0.16219446
0.013754958 0.023275871 0.16378979
0.013058175 0.020085743 0.16654207
0.01390488 0.015025617 0.16871037
0.013692609 0.01269099 0.17019786
0.013545424 0.010584947 0.17127453
0.014941898 0.0081684617 0.17315693
0.014395557 0.0051553454 0.17562298
0.014467463 0.0016608017 0.17727019
0.015258538 -0.0026012701 0.17616551
0.015479105 -0.00585829 0.17608258
0.015081454 0.036367424 0.14880098
0.016452981 0.03325177 0.15005203
0.017023208 0.028657718 0.15905483
0.01622914 0.025317157 0.16304243
0 0 0 1 0 0 0 1 0 0 0 1 0 0 0 0 0 240 1 0 0
