ply
format ascii 1.0
comment PCL generated
element vertex 240
property float x
property float y
property float z
element camera 1
property float view_px
property float view_py
property float view_pz
property float x_axisx
property float x_axisy
property float x_axisz
property float y_axisx
property float y_axisy
property float y_axisz
property float z_axisx
property float z_axisy
property float z_axisz
property float focal
property float scalex
property float scaley
property float centerx
property float centery
property int viewportx
property int viewporty
property float k1
property float k2
end_header
-0.024865404 0.035072207 0.14650333
-0.024845876 0.032771677 0.14663018
-0.024928238 0.030740103 0.14871913
-0.02507114 0.028538071 0.15033326
-0.025271205 0.02647448 0.15258111
-0.025866341 0.02399026 0.15628237
-0.027169857 0.021846473 0.16122043
-0.0274681 0.019423563 0.16328402
-0.027555035 0.016752327 0.16426364
-0.02742823 0.01399957 0.16511844
-0.027404029 0.011212931 0.16585594
-0.027649669 0.0083441241 0.16769674
-0.027565861 0.005596777 0.16757835
-0.022453589 0.034954995 0.14589664
-0.022342969 0.03275818 0.14694043
-0.022372412 0.030754847 0.14874046
-0.022577269 0.028592896 0.15036204
-0.022624761 0.026520494 0.15209988
-0.023032572 0.02400035 0.15479626
-0.02360549 0.021287542 0.15878591
-0.023938289 0.019085495 0.16073234
-0.024234755 0.016675541 0.16301875
-0.024333939 0.014006856 0.16393253
-0.024331024 0.011320204 0.16486119
-0.024693675 0.0085215392 0.16724651
-0.024969384 0.0056654178 0.16947232
-0.024563177 0.0027242077 0.17142045
-0.019841276 0.035115317 0.14599034
-0.019761479 0.033194579 0.1481512
-0.019881852 0.030976878 0.14915329
-0.019953664 0.028669219 0.15064082
-0.020145964 0.026445901 0.15197906
-0.02043331 0.024080772 0.15544426
-0.020962693 0.021555265 0.15913591
-0.021170799 0.01911192 0.16071741
-0.0213088 0.016724985 0.16259407
-0.021629753 0.014279472 0.16439675
-0.02177437 0.011438177 0.16717297
-0.021775821 0.0084345564 0.16887778
-0.021913545 0.0054511963 0.17115721
-0.021956228 0.0025705791 0.17211808
-0.02192794 -0.00026722596 0.17311452
-0.016912118 0.035305072 0.14689523
-0.017254733 0.033256702 0.14843446
-0.017249545 0.03089194 0.14897066
-0.017395746 0.028985765 0.15122843
-0.01753884 0.026568279 0.1521156
-0.017777454 0.024163412 0.15521637
-0.018294126 0.021785779 0.15968296
-0.018349769 0.019167814 0.16045812
-0.018660413 0.016735241 0.16292906
-0.018608989 0.014254762 0.1653949
-0.019009547 0.011361337 0.16898271
-0.019093057 0.0085717672 0.17011648
-0.019302104 0.005794134 0.17241073
-0.019448694 0.0029841582 0.17385401
-0.019699784 1.5657792e-05 0.17529954
-0.014287009 0.035275977 0.1468863
-0.014641882 0.033193108 0.14835577
-0.014672576 0.030920682 0.14870709
-0.01495111 0.028955221 0.15132539
-0.015084668 0.02661754 0.1529759
-0.015247393 0.024287209 0.15561861
-0.015541269 0.022052489 0.16041511
-0.015629278 0.019236157 0.16077675
-0.015886812 0.016808651 0.16301271
-0.015958475 0.014180585 0.16591667
-0.015871299 0.011396876 0.16852604
-0.016418625 0.0087828077 0.17151314
-0.016998498 0.0060958513 0.17490259
-0.017091239 0.0030862936 0.17595832
-0.016676439 -4.6958172e-05 0.17557769
-0.011849687 0.035106152 0.14675574
-0.012083603 0.033066612 0.14831977
-0.01216394 0.03090903 0.1498446
-0.012325838 0.028699799 0.15175766
-0.012489645 0.02648042 0.15342969
-0.012646724 0.024254279 0.15560105
-0.012832388 0.021988932 0.15942913
-0.012856068 0.019290559 0.16073951
-0.012945271 0.016716249 0.16269463
-0.013167998 0.014139354 0.16646299
-0.013304294 0.011368141 0.1705503
-0.013940046 0.0089773666 0.17395161
-0.014206309 0.0062302276 0.17635526
-0.01432051 0.0033575811 0.17624822
-0.013194964 -0.00020883151 0.1744547
-0.0093900925 0.034943491 0.14641441
-0.0095355157 0.033006359 0.14804317
-0.0096202483 0.031010265 0.15082955
-0.0098098889 0.028504811 0.15211369
-0.009722665 0.026394852 0.15393487
-0.009881502 0.024190342 0.15617658
-0.0098230364 0.021775732 0.15866695
-0.0099734468 0.019226916 0.15943044
-0.010122236 0.016716978 0.16279392
-0.010605531 0.0143728 0.16695327
-0.0105335 0.011376579 0.17226394
-0.011264096 0.0091520632 0.17520793
-0.011142068 0.0062177037 0.17595004
-0.010981806 0.0033487403 0.17595965
-0.010693084 0.00015280402 0.17548992
-0.0068666963 0.034922127 0.14642358
-0.0070102215 0.03289732 0.1481784
-0.0070989789 0.03102175 0.15119094
-0.0069861696 0.028486961 0.15189087
-0.0069946228 0.026300976 0.15359767
-0.0071067535 0.024328226 0.15709841
-0.0071679829 0.021639425 0.15939943
-0.0069620023 0.018987838 0.16023912
-0.0073165521 0.016774768 0.16342105
-0.0078365877 0.014617334 0.168051
-0.0074036163 0.011559006 0.172335
-0.0081501659 0.0090819215 0.1751869
-0.0082393857 0.0064010927 0.17655781
-0.0081890896 0.0035561791 0.1771538
-0.0086237686 0.0013312098 0.17901777
-0.0043791058 0.034842443 0.14659257
-0.0044632661 0.032774284 0.14850771
-0.0044255126 0.030882265 0.1509006
-0.0042804023 0.028713435 0.15294464
-0.0043553957 0.026612666 0.15530843
-0.0045754602 0.024608839 0.15962258
-0.0045359945 0.021996334 0.16068062
-0.0046266345 0.019438269 0.16201448
-0.0048367358 0.017091153 0.1649738
-0.0050782557 0.014934496 0.16968951
-0.0048113349 0.012276069 0.17394765
-0.0050221356 0.0095840152 0.17628776
-0.0052818786 0.0067992308 0.17727655
-0.0053463238 0.0039675771 0.17785881
-0.0050817681 0.00033956967 0.18084373
-0.0018822722 0.034864631 0.14702238
-0.0019252453 0.032635771 0.1484929
-0.0017026775 0.030386508 0.15017869
-0.0016807884 0.028285155 0.15231964
-0.0016036963 0.026391838 0.15484627
-0.0018126176 0.024654917 0.15933032
-0.0019169279 0.022230124 0.16106443
-0.001943568 0.019883635 0.16351995
-0.0018976887 0.017517095 0.16605502
-0.002049549 0.01532534 0.17144962
-0.0019237879 0.012579422 0.17469631
-0.0020636953 0.0098810047 0.17707269
-0.002347745 0.0068810792 0.17816982
-0.0022997293 0.0037816155 0.17816579
-0.0017128192 0.0002914306 0.18179251
0.00043658051 0.035074621 0.14858699
0.00063655135 0.032944735 0.1499193
0.00073395082 0.030448457 0.15125826
0.0010963875 0.028190317 0.15312414
0.0010062786 0.026216824 0.15622094
0.00088360911 0.024408722 0.15909061
0.00085491629 0.022368541 0.16170807
0.00071387051 0.020136701 0.16428019
0.00073340023 0.017817974 0.16683938
0.00085410028 0.015357892 0.17134537
0.00090724026 0.012582131 0.17464446
0.0010603905 0.0098042572 0.17637528
0.00074528955 0.0067394571 0.17731689
0.00074441114 0.0036681236 0.17847683
0.00091769325 0.000433429 0.18037835
0.0029224558 0.035495933 0.14899883
0.0030127275 0.033203188 0.15057613
0.0032305419 0.030825729 0.15183809
0.0037060718 0.028104031 0.15380123
0.0037074175 0.026100587 0.15616445
0.0036063588 0.024318913 0.15869771
0.0035986979 0.022076532 0.16068348
0.0035475693 0.020059153 0.16431797
0.0034605274 0.017736541 0.16721652
0.0035813097 0.015399891 0.17071751
0.00374132 0.01232874 0.17376958
0.0036734689 0.0095498888 0.17482622
0.0036573473 0.0066762511 0.17521404
0.0035914469 0.0035175204 0.17775044
0.0035308762 0.00052103179 0.17848209
0.0054479074 0.035627585 0.14831144
0.0055729896 0.033426452 0.15018775
0.0058340118 0.031147495 0.15186429
0.0061296164 0.028840018 0.15463653
0.0062054596 0.026529701 0.15731981
0.0062822276 0.024387091 0.1595289
0.006324816 0.022160118 0.16143031
0.0063495059 0.019985337 0.16356227
0.0062310216 0.017369356 0.16641833
0.0064514317 0.015110661 0.1705808
0.0063324217 0.012044756 0.17205136
0.006356705 0.009304326 0.17347559
0.006410684 0.0064703827 0.17563361
0.0065477155 0.0032070915 0.17779744
0.0064664562 9.7963821e-05 0.17937714
0.0079037044 0.03589445 0.14900328
0.0080858795 0.033739079 0.15102035
0.0084025851 0.031357579 0.15142021
0.0089347158 0.029104833 0.15609828
0.0086848829 0.027010243 0.15883544
0.0088356882 0.024615917 0.16009769
0.0089581376 0.022266772 0.16221488
0.0092351548 0.019506758 0.1649536
0.0091284001 0.017162921 0.16704193
0.0091852853 0.014775276 0.17007066
0.0091068391 0.011843131 0.17072782
0.0090383766 0.0092374757 0.17239179
0.0091840727 0.0062618186 0.1760553
0.0099581555 0.0020624611 0.17867012
0.0099080605 -0.00094831502 0.1802824
0.010388631 0.03600217 0.1486011
0.010634026 0.033762135 0.14995515
0.010833072 0.031477388 0.15201443
0.011503318 0.02940608 0.15704155
0.011309735 0.027241718 0.15937836
0.01160956 0.024797818 0.16000883
0.011405075 0.022292972 0.16250089
0.011909633 0.019537641 0.16530636
0.011913921 0.017120015 0.16721429
0.011837048 0.014630176 0.16864073
0.011978383 0.011815248 0.16970283
0.011813357 0.0091903294 0.1719404
0.012147278 0.0057083867 0.17619848
0.013066848 0.0016272096 0.17742038
0.012921478 0.036061045 0.14772047
0.013186002 0.033794519 0.14935057
0.013454287 0.031593684 0.15347087
0.014022855 0.02955908 0.15831058
0.014107156 0.027358335 0.15997766
0.014170758 0.025006188 0.16078843
0.01403437 0.022480354 0.16398968
0.014533152 0.019651391 0.16536994
0.014630335 0.017184382 0.1670652
0.014551073 0.014655898 0.16855188
0.014754298 0.01189226 0.16953845
0.014494516 0.0090526482 0.17217171
0.014809567 0.005461372 0.17453232
0.01487698 0.0021627389 0.17456269
0.015175733 -0.0011853741 0.17585073
0.015154378 0.035849351 0.14627479
0.015459923 0.03357045 0.14902136
0.015963305 0.031662438 0.15465614
0.01627497 0.027597494 0.1600178
0 0 0 1 0 0 0 1 0 0 0 1 0 0 0 0 0 240 1 0 0
