ply
format ascii 1.0
comment PCL generated
element vertex 240
property float x
property float y
property float z
element camera 1
property float view_px
property float view_py
property float view_pz
property float x_axisx
property float x_axisy
property float x_axisz
property float y_axisx
property float y_axisy
property float y_axisz
property float z_axisx
property float z_axisy
property float z_axisz
property float focal
property float scalex
property float scaley
property float centerx
property float centery
property int viewportx
property int viewporty
property float k1
property float k2
end_header
-0.024972964 0.035092745 0.14653933
-0.024971643 0.032770209 0.14666869
-0.025048357 0.0307138 0.14855129
-0.025254618 0.028450824 0.15012754
-0.02537748 0.026248274 0.15251131
-0.026004316 0.023840189 0.1565064
-0.02763572 0.021126743 0.16175474
-0.027912226 0.018659201 0.16380487
-0.027962582 0.015969573 0.16471265
-0.027957767 0.013088689 0.16557808
-0.028047787 0.010249068 0.16643393
-0.028297169 0.0074724383 0.16833293
-0.028413294 0.0048313206 0.16871555
-0.022573689 0.035032801 0.1460266
-0.022454584 0.032729425 0.14697386
-0.022445546 0.030579654 0.14842393
-0.02268249 0.028389512 0.15005341
-0.022691065 0.026147233 0.15183567
-0.02320474 0.023763897 0.15484555
-0.023869857 0.020830803 0.15896472
-0.024250973 0.018328523 0.16094193
-0.02458285 0.015867753 0.16328067
-0.024858404 0.013059867 0.16427039
-0.024977256 0.010335475 0.165436
-0.025393764 0.0074024624 0.16785471
-0.025632411 0.0049592326 0.17021678
-0.025296487 0.0020527795 0.17285377
-0.019885059 0.035181731 0.14615944
-0.019792804 0.033060007 0.14803211
-0.019912979 0.030738192 0.14884289
-0.019962678 0.028365646 0.15029803
-0.020211162 0.026124796 0.15186594
-0.020621419 0.023780363 0.1555746
-0.02116535 0.020989226 0.15921162
-0.021405704 0.018350277 0.16069666
-0.021579053 0.015913246 0.16261902
-0.022093123 0.013214267 0.16444772
-0.022302767 0.010368357 0.16728114
-0.022195648 0.0070947711 0.1691463
-0.022500781 0.0043634442 0.17190513
-0.022475656 0.0016573566 0.17313786
-0.022318862 -0.001192787 0.17384566
-0.016927786 0.035316102 0.14733484
-0.017270528 0.033100661 0.14856626
-0.017294217 0.030670477 0.14883479
-0.017497616 0.028623296 0.15098301
-0.017627276 0.026275691 0.15207595
-0.017943401 0.023899624 0.15527026
-0.018512735 0.021282068 0.15977873
-0.01861136 0.018598033 0.16064245
-0.018896449 0.01608168 0.16308567
-0.019015448 0.012981452 0.16557169
-0.019514294 0.0099712713 0.1689056
-0.019578062 0.0071953563 0.17019258
-0.019808616 0.0047782627 0.1728847
-0.019949049 0.0022117842 0.17447913
-0.019921819 -0.00084545766 0.17570585
-0.014272445 0.035432648 0.14748706
-0.014654585 0.033146258 0.14865208
-0.014649511 0.030866656 0.14876081
-0.014978345 0.028630724 0.15131237
-0.015136532 0.026262924 0.15308113
-0.015333179 0.023815621 0.1557437
-0.015730873 0.021496227 0.16048075
-0.015802162 0.018700037 0.16088809
-0.016074274 0.016332509 0.16321704
-0.016335638 0.013454065 0.16647604
-0.016390339 0.01022991 0.16870028
-0.016918354 0.0076872488 0.17165014
-0.017376067 0.0053284052 0.17486218
-0.017563421 0.0024383448 0.17612913
-0.017005546 -0.00074291567 0.17573547
-0.011854748 0.035336304 0.14740062
-0.012098693 0.03314035 0.14871822
-0.012182555 0.030752771 0.15003484
-0.012354696 0.028395416 0.15187098
-0.012514072 0.026119458 0.15359448
-0.012730416 0.023717741 0.15579113
-0.012987284 0.021427769 0.15964505
-0.01305331 0.018763212 0.16103774
-0.013091297 0.016321082 0.16313863
-0.013524521 0.013715035 0.16711083
-0.013801472 0.010321798 0.17075503
-0.014504209 0.0079517122 0.17377353
-0.014788955 0.005584917 0.17621374
-0.01493434 0.0027087163 0.17640981
-0.013848678 -0.00095531379 0.17552355
-0.0093132118 0.035252675 0.14711533
-0.0094680451 0.033187598 0.14854106
-0.0096629076 0.030808307 0.15115197
-0.0098327994 0.028214812 0.15228875
-0.0096765514 0.025884926 0.15409619
-0.0098620076 0.023495505 0.15658304
-0.0098659629 0.021140104 0.15912639
-0.010082155 0.018707847 0.15989064
-0.010220706 0.016374677 0.16328938
-0.010696957 0.014318543 0.16760065
-0.010996541 0.010290642 0.17242002
-0.011830386 0.0082073584 0.17536317
-0.011907226 0.0054182732 0.17646314
-0.011797087 0.0026860915 0.17683505
-0.011479171 -0.00050607044 0.17664896
-0.0068455744 0.035409417 0.14733249
-0.0070019173 0.033211876 0.14899129
-0.0071703959 0.030821498 0.15163633
-0.006925954 0.028366156 0.15236247
-0.0068723685 0.026072333 0.15393528
-0.0070710159 0.023626784 0.15740189
-0.0071686902 0.021075888 0.15997939
-0.0070713693 0.01863645 0.16076435
-0.0073978938 0.016524738 0.16398893
-0.0078095905 0.01460092 0.16861443
-0.0077589778 0.010574494 0.17325267
-0.0089185769 0.0081224153 0.17624971
-0.0090256967 0.0054452685 0.17786966
-0.0092051355 0.0027391063 0.17859165
-0.0098390775 0.00066793186 0.18010817
-0.0043053972 0.035411492 0.1477315
-0.0044348231 0.033285823 0.14964969
-0.0045350278 0.030847659 0.15166697
-0.0042735576 0.028697014 0.15383965
-0.0043625426 0.026378483 0.15593465
-0.0045730169 0.024016505 0.16004625
-0.0045030727 0.02149698 0.16101095
-0.0046341736 0.018980192 0.16225265
-0.0048374683 0.016774312 0.16548155
-0.0048955311 0.01450291 0.17002724
-0.0049644466 0.011166856 0.17394035
-0.0054283687 0.0084857699 0.17702903
-0.0060296748 0.0056182984 0.17824645
-0.0063031055 0.0029569892 0.17880312
-0.0051609743 -0.00093699299 0.18106407
-0.0018738785 0.035542615 0.14838734
-0.0019234588 0.033198882 0.14973429
-0.001643265 0.031017071 0.1516569
-0.0016119431 0.028721966 0.15360282
-0.0016037555 0.026607389 0.1558594
-0.0018500637 0.024135631 0.15990137
-0.0018171645 0.0216431 0.1611701
-0.0018862649 0.01929364 0.16362643
-0.0018084459 0.016918331 0.1665282
-0.0018592547 0.014429397 0.17143275
-0.0021037522 0.011578173 0.17445436
-0.0021823705 0.0089267213 0.17692995
-0.0025870088 0.0060448386 0.17838773
-0.0023967151 0.002972902 0.17860793
-0.0014331237 -0.000948706 0.18194604
0.00026160153 0.034523774 0.14907315
0.00047094765 0.032602031 0.15056728
0.00049213832 0.030445255 0.15244211
0.00096386852 0.029195683 0.15496686
0.00089225994 0.026482815 0.15718366
0.0009039414 0.024004813 0.15937689
0.00098180224 0.021675853 0.16165665
0.00085537881 0.019439101 0.16422524
0.00095292891 0.017032389 0.16669533
0.001096186 0.014427611 0.17129292
0.00083809084 0.011651647 0.17439178
0.00093344122 0.0088371774 0.17619467
0.0006930363 0.0059435549 0.17733906
0.00088084664 0.0029274989 0.17891461
0.001091148 -0.00028828988 0.18074585
0.002767944 0.034972027 0.14924045
0.0028258078 0.032818243 0.15101652
0.0031067284 0.030600164 0.15274811
0.0035079583 0.029043565 0.15540153
0.0037145421 0.026508139 0.15699589
0.0036805922 0.024033593 0.15880875
0.0036840613 0.02158553 0.16044945
0.0037473983 0.019371517 0.16409108
0.0037571827 0.016955942 0.16713493
0.0039154636 0.014504118 0.17072624
0.0039172606 0.01152586 0.17363693
0.0036951811 0.0087789837 0.17465083
0.0037968776 0.005914032 0.17527214
0.0037977681 0.0030284494 0.17830066
0.0038525208 3.3147575e-05 0.17932366
0.0052814279 0.034969158 0.1485502
0.0054387706 0.032933537 0.15054864
0.0056302221 0.03085109 0.15242615
0.0062468168 0.028640559 0.1551694
0.006280663 0.026317226 0.15764041
0.0063476544 0.024018813 0.15956129
0.006465063 0.021510907 0.16105962
0.0064989412 0.019164879 0.16323845
0.0066792448 0.01675961 0.16677943
0.0068964106 0.01452512 0.17093144
0.0068143252 0.01161724 0.17236596
0.006778114 0.0088674836 0.17383495
0.0066942452 0.0060858666 0.17610601
0.0067829215 0.002929237 0.17868681
0.0067283823 -9.6569129e-06 0.18038853
0.0076584471 0.035240088 0.14909925
0.0079162158 0.033198208 0.15129858
0.0082239974 0.03093474 0.1518607
0.0090207849 0.028788457 0.15640703
0.0086983154 0.026691921 0.159317
0.0087644849 0.024223447 0.16038623
0.0090586282 0.021604914 0.16185874
0.0097873174 0.018911794 0.16526197
0.009630654 0.016617529 0.16738465
0.009669167 0.014282339 0.17058225
0.0096724415 0.011517414 0.17144582
0.0097163422 0.0090738265 0.17327651
0.0094513362 0.0062810304 0.17698675
0.010051359 0.0020226662 0.17998745
0.010076 -0.00091487076 0.18170717
0.010128951 0.035377372 0.14879753
0.010403995 0.033217806 0.15016957
0.010628335 0.031042192 0.15231729
0.011473133 0.029021828 0.15743665
0.01125541 0.026929492 0.15983227
0.011566576 0.024537271 0.16045237
0.011384487 0.021835307 0.16241956
0.012314955 0.01905898 0.16573656
0.012336698 0.016696852 0.16769524
0.012366221 0.014248096 0.16926637
0.012554931 0.011570334 0.17062274
0.012548033 0.0091642095 0.17335007
0.012292246 0.0060552922 0.17775689
0.013383118 0.0018773475 0.1792233
0.012633492 0.03549834 0.14794365
0.012952909 0.033295892 0.14953284
0.013255426 0.03123012 0.15366575
0.013969027 0.029191118 0.15869312
0.014025026 0.02706185 0.16033491
0.014142455 0.024908066 0.16123305
0.013936761 0.022222864 0.16429207
0.014842788 0.019325078 0.16580738
0.014957413 0.016904267 0.16758691
0.014928141 0.014374186 0.16921248
0.015323424 0.011654868 0.17040834
0.015064079 0.0092817415 0.1736102
0.015172098 0.0061663971 0.17663522
0.015484883 0.002567539 0.17675813
0.015908275 -0.00069472805 0.17810386
0.014777738 0.035402749 0.14714026
0.015266635 0.033244126 0.1494109
0.015844813 0.031122545 0.15498774
0.016204216 0.027379259 0.16042563
0 0 0 1 0 0 0 1 0 0 0 1 0 0 0 0 0 240 1 0 0
