ply
format ascii 1.0
comment PCL generated
element vertex 240
property float x
property float y
property float z
element camera 1
property float view_px
property float view_py
property float view_pz
property float x_axisx
property float x_axisy
property float x_axisz
property float y_axisx
property float y_axisy
property float y_axisz
property float z_axisx
property float z_axisy
property float z_axisz
property float focal
property float scalex
property float scaley
property float centerx
property float centery
property int viewportx
property int viewporty
property float k1
property float k2
end_header
-0.024173165 0.035264384 0.14630453
-0.024189062 0.032886442 0.14630282
-0.024362002 0.030717159 0.14812636
-0.024651522 0.028392306 0.14962536
-0.024929155 0.026343226 0.15162632
-0.025581844 0.024075275 0.15549961
-0.026676208 0.022002837 0.16075473
-0.027048653 0.019536696 0.16306262
-0.027203972 0.016862821 0.16392259
-0.027215004 0.01407814 0.16448818
-0.027410984 0.011345522 0.16559549
-0.027647577 0.008601428 0.16759463
-0.02759777 0.0058232341 0.16739124
-0.021715734 0.035131283 0.14570734
-0.0216925 0.032922305 0.14662834
-0.021847002 0.030723928 0.14830577
-0.022073762 0.028504806 0.14975049
-0.022310963 0.026335757 0.15151571
-0.02282943 0.024001237 0.15446438
-0.023359124 0.021507032 0.15820016
-0.023717534 0.019153839 0.16026978
-0.023999974 0.016680453 0.16227335
-0.024276001 0.013972009 0.16338784
-0.024359033 0.011262388 0.1645474
-0.02477083 0.0085685691 0.16718557
-0.025044192 0.0057955128 0.16913627
-0.024889255 0.002872773 0.1712689
-0.019159805 0.035369106 0.14623587
-0.019272104 0.033207182 0.14814924
-0.019334143 0.030825607 0.14874396
-0.019565629 0.028493287 0.15005215
-0.019768763 0.02626441 0.15139505
-0.020237718 0.024011642 0.15491317
-0.02076686 0.021650013 0.15898651
-0.020981561 0.019125929 0.16040057
-0.021162391 0.016637212 0.16202857
-0.021543238 0.014090486 0.1639269
-0.021736983 0.011361518 0.16660835
-0.021812096 0.008401514 0.16874367
-0.021846745 0.0054148021 0.17081389
-0.021886919 0.0025419176 0.17189927
-0.021757016 -0.00042474217 0.17237827
-0.016590286 0.035636395 0.14762022
-0.01687146 0.033346362 0.14893329
-0.016783806 0.030873435 0.14884712
-0.017056169 0.028665321 0.15077382
-0.01723827 0.026378864 0.15174919
-0.017544365 0.02401006 0.1547229
-0.01804937 0.021779029 0.1591906
-0.018183436 0.019079126 0.15971485
-0.01842544 0.016600059 0.16210218
-0.01856209 0.013993728 0.16474943
-0.018775357 0.011033193 0.16806735
-0.018969445 0.0083081005 0.16950071
-0.019230887 0.0056843315 0.17211333
-0.019442802 0.002821543 0.17379788
-0.01970657 -0.00015621487 0.17465986
-0.014193249 0.035883933 0.14822055
-0.014377823 0.03349499 0.149298
-0.014194715 0.031110568 0.14891487
-0.014585635 0.028756524 0.15103625
-0.014741541 0.026405726 0.15266028
-0.014933845 0.024009787 0.15510944
-0.015362269 0.021804603 0.15984528
-0.015381034 0.019069714 0.15989964
-0.015610018 0.016530234 0.16214254
-0.015727999 0.013724581 0.16471945
-0.015751133 0.010758376 0.16761059
-0.016195409 0.0083676632 0.17079423
-0.016805878 0.0059427456 0.1747046
-0.017084954 0.0029873347 0.17622049
-0.016596094 -0.00017544309 0.17530614
-0.011825476 0.036126234 0.14844969
-0.011872663 0.03371457 0.14961451
-0.011792101 0.031213494 0.15022786
-0.011947271 0.028617634 0.15161066
-0.012110021 0.026375193 0.15314601
-0.012289095 0.02406838 0.15525815
-0.012572142 0.021638339 0.15876175
-0.012551396 0.01913432 0.1596989
-0.012740138 0.016525514 0.16182663
-0.012946952 0.013638833 0.1654453
-0.013102945 0.010736221 0.16952346
-0.013736698 0.0086283972 0.17359275
-0.013971253 0.0060009505 0.17577076
-0.014054263 0.003097181 0.17638178
-0.013214245 -0.00049436139 0.17422658
-0.009340398 0.03631077 0.1484049
-0.0093950666 0.034038734 0.14949746
-0.0093748719 0.0314743 0.15124783
-0.0094126537 0.028714657 0.15231447
-0.0093576554 0.026372826 0.15375493
-0.0095427511 0.02415205 0.15601949
-0.0096144807 0.021590581 0.15854959
-0.0096244412 0.019070165 0.15898992
-0.0098504843 0.016414749 0.16207537
-0.010342573 0.013830893 0.16615883
-0.010416977 0.010571916 0.17076322
-0.010914756 0.0087062689 0.17423344
-0.010873485 0.0058035441 0.17532656
-0.010868455 0.0030135801 0.17584363
-0.010587536 -0.00025878669 0.17531632
-0.0068335347 0.036389679 0.14847977
-0.006861412 0.034173831 0.14985044
-0.0069263228 0.031617161 0.15190785
-0.0066739144 0.029053409 0.15240687
-0.0066888006 0.026567411 0.15363382
-0.0068737036 0.024341755 0.15696287
-0.0070151817 0.021569125 0.15956004
-0.0067627495 0.018844429 0.15991931
-0.0070610759 0.016415054 0.16269684
-0.0075688823 0.013878909 0.16720872
-0.0074568954 0.010585218 0.17071272
-0.0079319328 0.00849069 0.17409943
-0.0080127446 0.0059216996 0.17567745
-0.007910151 0.0030209995 0.17622694
-0.0082880463 0.00096852222 0.17893077
-0.0043551032 0.03634809 0.14862019
-0.0043253023 0.034152199 0.15022701
-0.0042935722 0.03186949 0.15206473
-0.0041478113 0.029237885 0.15353848
-0.0042025405 0.02678974 0.15558307
-0.0044198236 0.024586957 0.15967789
-0.004382499 0.021836707 0.1606366
-0.0042883633 0.019195758 0.1615805
-0.0045217141 0.01667409 0.16461739
-0.004791535 0.014236662 0.16831473
-0.0048416965 0.011456367 0.17214532
-0.0049881916 0.0089310231 0.17495202
-0.0050776578 0.006203847 0.17621987
-0.005067186 0.0033189631 0.17667671
-0.0047458699 -0.00015597652 0.17957507
-0.0018749796 0.03635253 0.14888079
-0.0017919872 0.034049127 0.15020412
-0.001567109 0.031610589 0.15146559
-0.0015206763 0.029206011 0.15300117
-0.0014961405 0.026836455 0.1551863
-0.0016636879 0.024731375 0.1594725
-0.001695192 0.022052526 0.16083021
-0.0017099866 0.01954863 0.16298546
-0.0016679028 0.017038995 0.16523214
-0.0019610436 0.0145728 0.16999815
-0.0019754127 0.011770858 0.17317778
-0.0020869414 0.0091336314 0.17563307
-0.0021328446 0.0062581613 0.17715068
-0.0019069527 0.0031303281 0.17698799
-0.001483096 -0.00029383803 0.18059309
0.00063894107 0.035807401 0.14915426
0.00078083778 0.033525351 0.15032317
0.00086394319 0.031238573 0.15212423
0.001132393 0.029086288 0.15391515
0.0010551061 0.026838789 0.1567899
0.0010086121 0.024659257 0.15921372
0.00098549877 0.022294328 0.16142485
0.00099623261 0.019888015 0.16373424
0.0010294033 0.017341364 0.1659992
0.00095342309 0.014776205 0.17003849
0.00084678939 0.012042523 0.17329529
0.00099676568 0.0091896849 0.17494087
0.00093333982 0.0062394696 0.17614786
0.0010860448 0.0032686593 0.17762254
0.0013634982 0.00010777339 0.17955706
0.0030671514 0.036109895 0.14962889
0.003153106 0.033883009 0.15152895
0.0033500374 0.031449083 0.15256213
0.0036991304 0.028983623 0.15439306
0.003730465 0.026788995 0.15673691
0.0037076168 0.024666402 0.15897617
0.0037531364 0.022211218 0.16044441
0.0037756497 0.019930815 0.16379502
0.0037966187 0.017432146 0.16648176
0.0038784903 0.014880767 0.16981788
0.0038605169 0.012055986 0.172903
0.0039817421 0.0091870287 0.17378324
0.0040437561 0.0063352454 0.1743014
0.0041138101 0.003431926 0.1773015
0.0044142362 0.00045028687 0.17838061
0.005636225 0.036336858 0.14916323
0.005706097 0.03410235 0.1511066
0.0059087453 0.031775121 0.15271863
0.0061349347 0.029536745 0.15514627
0.006271739 0.027115894 0.15770534
0.006360305 0.024803644 0.15979333
0.0064234948 0.022393428 0.16150141
0.0065530706 0.020054517 0.16335571
0.006833842 0.017240137 0.16596195
0.0067495774 0.014933572 0.17010082
0.0068411948 0.012049556 0.17209795
0.0069210567 0.0092494711 0.17325836
0.0069236364 0.0065539689 0.175383
0.0071173646 0.0036357068 0.17831245
0.0073155225 0.00060132047 0.18014239
0.0080823526 0.036671828 0.15002313
0.0082402565 0.034456927 0.15189159
0.008524186 0.032022204 0.15233496
0.0089573124 0.029718246 0.15659384
0.0088220323 0.027479136 0.15924545
0.0089431331 0.025055999 0.16045113
0.0089668706 0.022636795 0.16269761
0.0096260551 0.019798648 0.16493252
0.0095650526 0.017322654 0.16698131
0.0095775574 0.014894643 0.17012767
0.0098708542 0.012057509 0.17108119
0.0099126277 0.00942499 0.17258471
0.0096729537 0.0068020402 0.17662384
0.010459634 0.0036682021 0.18055454
0.010598286 0.0007455342 0.18238644
0.010636267 0.036823817 0.14955784
0.010861376 0.034554407 0.15096293
0.011035352 0.032241818 0.15278617
0.011512802 0.029964061 0.15727824
0.011414056 0.027721519 0.15967247
0.011742538 0.025162598 0.16015199
0.011432671 0.022871017 0.16326284
0.012227871 0.020032808 0.16545275
0.012365771 0.017494334 0.16734938
0.012531294 0.01490985 0.16885637
0.01278061 0.012259981 0.17051479
0.012756536 0.0096696988 0.17281936
0.012743212 0.0070181345 0.17772347
0.013734744 0.0039108186 0.18070346
0.013179433 0.03693749 0.1486039
0.013420915 0.034695931 0.15030895
0.013634887 0.032302752 0.15390296
0.014054008 0.030024514 0.15798482
0.014176812 0.027770525 0.15987903
0.014307703 0.025341542 0.16105062
0.014256321 0.023080533 0.16446184
0.014834491 0.02032591 0.16593914
0.015145379 0.017781179 0.16750525
0.015359666 0.015203181 0.1690422
0.015579565 0.012583953 0.17069729
0.01542209 0.0099470941 0.17342032
0.015821405 0.0071209455 0.17721041
0.016362291 0.0043093693 0.17796256
0.016745701 0.0013145439 0.17982575
0.015470293 0.036793847 0.146954
0.015665952 0.034621082 0.14994898
0.016061023 0.032389976 0.1549526
0.016417593 0.027990738 0.15993027
0 0 0 1 0 0 0 1 0 0 0 1 0 0 0 0 0 240 1 0 0
