ply
format ascii 1.0
comment PCL generated
element vertex 240
property float x
property float y
property float z
element camera 1
property float view_px
property float view_py
property float view_pz
property float x_axisx
property float x_axisy
property float x_axisz
property float y_axisx
property float y_axisy
property float y_axisz
property float z_axisx
property float z_axisy
property float z_axisz
property float focal
property float scalex
property float scaley
property float centerx
property float centery
property int viewportx
property int viewporty
property float k1
property float k2
end_header
-0.025011262 0.034428068 0.14528814
-0.024934074 0.032089155 0.14553247
-0.025070401 0.029971842 0.14745216
-0.025274988 0.027659062 0.1489552
-0.02539438 0.025307646 0.15148601
-0.026127798 0.022403952 0.15522152
-0.028084159 0.019120093 0.16022088
-0.028336678 0.016412023 0.16184445
-0.028317662 0.013611906 0.16246334
-0.028098853 0.010651001 0.16253728
-0.028094066 0.0076521072 0.16315018
-0.028320605 0.0048297071 0.1649383
-0.028266741 0.002220423 0.1656891
-0.02258346 0.034446593 0.14498098
-0.02246931 0.032097246 0.14604072
-0.022419425 0.029927718 0.14737569
-0.022694381 0.027728843 0.14908686
-0.022665011 0.025406413 0.15089588
-0.023241172 0.022600608 0.15355958
-0.023946561 0.019282112 0.15744261
-0.024435582 0.016609674 0.15932389
-0.024747465 0.013863248 0.16136256
-0.024922954 0.011061944 0.16177401
-0.024908558 0.0082099177 0.16278569
-0.025362499 0.0050351317 0.16472621
-0.025664905 0.0025738226 0.16719244
-0.025271339 -0.00020193 0.17008728
-0.01987304 0.034685496 0.14535891
-0.01979498 0.032498904 0.14714912
-0.019874541 0.030188398 0.14797971
-0.019993341 0.027841935 0.14958228
-0.020201903 0.025491042 0.15113488
-0.020684991 0.022667423 0.15449405
-0.021277903 0.019454971 0.15754066
-0.021477683 0.016688181 0.1587041
-0.021695765 0.014016001 0.1604538
-0.022213219 0.011282872 0.16202368
-0.022332469 0.0082072141 0.16472124
-0.022306254 0.0047692354 0.16632687
-0.022819715 0.0020728228 0.16934033
-0.0225549 -0.00036198454 0.17090815
-0.022290187 -0.0030170921 0.17227735
-0.016913502 0.034912985 0.14676203
-0.017257039 0.032672472 0.14786179
-0.017270569 0.03022949 0.14819349
-0.017623845 0.028224502 0.15042801
-0.017672161 0.025671493 0.15139063
-0.018033935 0.022928623 0.15431173
-0.01869794 0.019804418 0.1583357
-0.018663257 0.017023962 0.15884908
-0.019018225 0.014229861 0.16099621
-0.019016968 0.010769214 0.16335416
-0.019662065 0.0077009485 0.165916
-0.019755114 0.0050515733 0.16742228
-0.020083452 0.0028583799 0.17029418
-0.020052651 0.00042571948 0.17182115
-0.019993134 -0.0021126366 0.17379962
-0.014259844 0.035137299 0.14721356
-0.014652808 0.032793302 0.14808017
-0.01459227 0.030550718 0.14819884
-0.015061664 0.028198605 0.15095425
-0.015219646 0.02560872 0.15245979
-0.015401309 0.022952836 0.15489988
-0.016056258 0.020244962 0.15948455
-0.015973074 0.017339645 0.15955697
-0.016197618 0.014709828 0.1614984
-0.016345175 0.011293394 0.16408837
-0.016551146 0.0081351856 0.16604231
-0.017098309 0.0058462401 0.1689844
-0.017404381 0.0036706983 0.17149033
-0.017502906 0.00099454192 0.17318431
-0.017029971 -0.0017976196 0.17409512
-0.011878951 0.03511674 0.14735667
-0.01208236 0.032899793 0.14836048
-0.01222189 0.030409642 0.14967805
-0.012440695 0.027975487 0.15151317
-0.012630983 0.025486087 0.15300828
-0.012749323 0.022959538 0.15502849
-0.013241498 0.020605823 0.15902717
-0.013242086 0.017568596 0.15988967
-0.013232751 0.014775299 0.16164558
-0.013657921 0.011588508 0.16487391
-0.01401219 0.0082337921 0.16779236
-0.014842353 0.0060023153 0.17025182
-0.014992068 0.0040587317 0.17274258
-0.015098029 0.0012804095 0.17332591
-0.013962957 -0.0020170263 0.17368938
-0.009282181 0.035178278 0.14720975
-0.0094758933 0.03303114 0.1485246
-0.009746315 0.030354379 0.15087011
-0.0099254409 0.027760386 0.15195629
-0.0098175015 0.025349103 0.15364975
-0.0099448813 0.022894669 0.1561348
-0.009958378 0.020646783 0.1588126
-0.010205262 0.017799614 0.15885977
-0.010201679 0.015122437 0.16196533
-0.01074776 0.012496374 0.16599546
-0.011352766 0.0083934125 0.16913816
-0.01221784 0.0065648137 0.17197976
-0.012228135 0.0040995078 0.17332579
-0.012108937 0.0016108543 0.17406628
-0.011632283 -0.0014624144 0.17447534
-0.0068800189 0.035328239 0.14742741
-0.0070754034 0.033000614 0.14900288
-0.0072310446 0.030361494 0.15143341
-0.0070848814 0.027701668 0.15202191
-0.0070421174 0.025369845 0.15339695
-0.0071301302 0.023093533 0.157115
-0.0071194815 0.02062184 0.15952848
-0.0070056934 0.018216347 0.16011994
-0.0073189768 0.015625326 0.16299476
-0.0076524229 0.013316276 0.16727872
-0.0080643538 0.0092420727 0.17105587
-0.00969542 0.0069207894 0.1739669
-0.0098819546 0.0044409479 0.17549185
-0.0096395947 0.0018463708 0.17598301
-0.010125054 -8.0902195e-05 0.17725082
-0.0043231836 0.035272889 0.14790365
-0.0045083496 0.032929704 0.14962144
-0.0046459767 0.030079996 0.15130889
-0.0044087274 0.027775971 0.15305497
-0.0044044545 0.025513904 0.15500705
-0.0043837177 0.023289418 0.15937524
-0.0044387034 0.02090665 0.16035873
-0.0045610918 0.018330263 0.16145255
-0.0046536783 0.015829016 0.16445129
-0.0048375321 0.013399527 0.16884989
-0.005316563 0.0098862918 0.17199582
-0.0063047456 0.0075423466 0.17537987
-0.0071203262 0.0046690661 0.17637259
-0.0069276863 0.0020957254 0.17648666
-0.0055858749 -0.0014523435 0.17966171
-0.0018923867 0.035302337 0.14851686
-0.0020065145 0.032825924 0.14956971
-0.0017217839 0.029868789 0.15064955
-0.0016532828 0.027532481 0.15260307
-0.0015819144 0.02558684 0.15498947
-0.0016803946 0.023359025 0.15942769
-0.0016380455 0.020979213 0.16063827
-0.0017494119 0.018400904 0.16266242
-0.0016512815 0.01586912 0.16542441
-0.0018692223 0.013164662 0.17025611
-0.0024200222 0.010315949 0.17250502
-0.0026336245 0.0078351079 0.17504859
-0.0033689626 0.0053921691 0.17701524
-0.002913082 0.0023852214 0.17765367
-0.0018892799 -0.0012175369 0.18134265
2.5553274e-05 0.034437217 0.14867236
0.00026895598 0.032427944 0.14974795
0.00033754294 0.029749084 0.15147772
0.0010176268 0.027853142 0.15351853
0.0009940227 0.025396448 0.1561237
0.0010217219 0.023144981 0.15861663
0.0011389888 0.020871116 0.16084048
0.0010440677 0.018494083 0.1632147
0.0011221487 0.016005028 0.16565655
0.0010723567 0.013175978 0.170012
0.00063193683 0.010480414 0.17257397
0.00055191584 0.00787488 0.17461699
0.00033308251 0.0053332285 0.17629039
0.00064174767 0.0026145251 0.17843969
0.00079240807 -0.00036983995 0.18064135
0.002421299 0.034995258 0.14861566
0.0026587078 0.032688674 0.15019433
0.0029792103 0.030303784 0.15177439
0.0036423646 0.02760605 0.15383336
0.0037894524 0.025373777 0.15577307
0.0037774683 0.023177596 0.15779613
0.0038136949 0.020696256 0.15923527
0.0039238692 0.018256804 0.16292337
0.0038163252 0.0159299 0.16590369
0.0039325561 0.013283298 0.16945054
0.0038380546 0.010344875 0.17199929
0.0035079231 0.007783188 0.17338343
0.0037345176 0.0051881853 0.17474687
0.0035492538 0.0029370897 0.17810458
0.0038139732 8.3955834e-05 0.17969473
0.0049530915 0.03509229 0.14795463
0.0052249418 0.032962926 0.14971809
0.0054536411 0.030695148 0.15142272
0.0062296758 0.027662136 0.1540309
0.0063051293 0.025491085 0.15656288
0.0063916249 0.023191841 0.15847649
0.0066085518 0.020685231 0.15979157
0.0066867103 0.018098898 0.16159444
0.0068119084 0.015608829 0.16551
0.0068907887 0.01354619 0.16970421
0.0067646997 0.010604822 0.17104392
0.0066564796 0.0081088496 0.17299181
0.0064909845 0.0057791872 0.17568947
0.0066396338 0.0029623283 0.17864178
0.0066441628 0.00032645871 0.1806733
0.0073085972 0.035275586 0.14824621
0.0076321629 0.033190336 0.15029423
0.0079971608 0.030859834 0.15090843
0.0089912005 0.028250156 0.15569988
0.0085765189 0.026091294 0.15850058
0.0086805122 0.023596767 0.1593689
0.0089566149 0.020783052 0.16051763
0.0098417299 0.017735833 0.16398445
0.0096860165 0.015534746 0.16603991
0.0095785782 0.013333483 0.16932927
0.009753325 0.010624569 0.17033248
0.009710554 0.0084407292 0.1725758
0.0092411982 0.0061273891 0.17646764
0.010046338 0.0022397824 0.18014947
0.010155289 -0.00041796072 0.18210849
0.0097793341 0.035286482 0.14767803
0.010025732 0.033122156 0.14895216
0.01034621 0.030890007 0.15105696
0.011380473 0.028697982 0.15698269
0.011052743 0.026464084 0.15919594
0.011333765 0.023921961 0.15964648
0.01119876 0.02113598 0.16133963
0.012210936 0.018050397 0.16456716
0.012227241 0.015779661 0.16662067
0.012290367 0.013401033 0.16808875
0.01255385 0.010689832 0.1694304
0.012483393 0.0087382346 0.17265463
0.012044341 0.0061015636 0.17740844
0.013613459 0.0023109897 0.17949168
0.012130818 0.035270352 0.14658332
0.012446278 0.032970358 0.14798054
0.013096421 0.030832022 0.15263994
0.013787659 0.029020285 0.15847306
0.013840658 0.026813015 0.1599361
0.013908252 0.024571331 0.16066673
0.013576896 0.021636426 0.16343835
0.014583003 0.018543281 0.16473578
0.014674372 0.01615007 0.16653527
0.014754566 0.01375677 0.16809832
0.015216675 0.010937906 0.16930056
0.014928786 0.008867058 0.17302452
0.014965721 0.0063085943 0.17642528
0.015765779 0.0029811177 0.17722425
0.016452489 -8.916104e-07 0.17895807
0.014200734 0.035081115 0.14561659
0.01469775 0.032484788 0.14742742
0.015745755 0.031080659 0.15479955
0.015967112 0.027269714 0.16025776
0 0 0 1 0 0 0 1 0 0 0 1 0 0 0 0 0 240 1 0 0
