ply
format ascii 1.0
comment PCL generated
element vertex 240
property float x
property float y
property float z
element camera 1
property float view_px
property float view_py
property float view_pz
property float x_axisx
property float x_axisy
property float x_axisz
property float y_axisx
property float y_axisy
property float y_axisz
property float z_axisx
property float z_axisy
property float z_axisz
property float focal
property float scalex
property float scaley
property float centerx
property float centery
property int viewportx
property int viewporty
property float k1
property float k2
end_header
-0.025254861 0.034536347 0.14552285
-0.025152694 0.032156311 0.1457011
-0.025209105 0.02993501 0.14740403
-0.025375107 0.02754272 0.14870638
-0.025549224 0.025083827 0.15132815
-0.026330449 0.021858202 0.15472966
-0.028459463 0.018263457 0.15922202
-0.028690161 0.015443006 0.16063511
-0.028572546 0.012655647 0.16116531
-0.028254993 0.0098395487 0.16124894
-0.028218176 0.0068487246 0.16167185
-0.028370485 0.0038746479 0.16307828
-0.028208159 0.0012332123 0.16339582
-0.022843832 0.034522768 0.14520799
-0.022684827 0.032162569 0.14620909
-0.02256633 0.029952671 0.14738081
-0.022820145 0.02771006 0.14904158
-0.022793986 0.025335221 0.15083843
-0.02338822 0.022300275 0.15323667
-0.024122391 0.018778184 0.15696685
-0.024611477 0.016128818 0.15868366
-0.024905292 0.013201648 0.16035351
-0.025048593 0.010432285 0.16046
-0.024981603 0.0075568906 0.16126521
-0.025415903 0.0042811716 0.16280471
-0.025520919 0.0014651525 0.16465883
-0.024556119 -0.0016906606 0.16596502
-0.020082923 0.034692999 0.14546101
-0.019962795 0.032562528 0.14730638
-0.020038271 0.030257303 0.1481121
-0.020187154 0.027894827 0.14973925
-0.020333815 0.025436213 0.15112959
-0.020873282 0.022415001 0.15426572
-0.021460893 0.019080233 0.1571646
-0.02162838 0.016307175 0.15829253
-0.021815263 0.013570889 0.15972145
-0.022325447 0.010708812 0.16074558
-0.02231217 0.0074415728 0.16307266
-0.022156574 0.004235276 0.16405448
-0.022389892 0.0011479069 0.16591279
-0.021692723 -0.0016727794 0.16639897
-0.021034092 -0.0045961547 0.16698878
-0.017020449 0.034885164 0.14679319
-0.017399203 0.032718703 0.14801358
-0.017439583 0.030302797 0.14840345
-0.017820176 0.028306689 0.15063471
-0.017835049 0.025666168 0.15145551
-0.018221442 0.022797845 0.154222
-0.018905321 0.019458801 0.15801312
-0.018828319 0.016716635 0.1585786
-0.01920595 0.013932189 0.16060962
-0.019233609 0.010416406 0.1621791
-0.019854557 0.007348747 0.16412652
-0.019665083 0.0047159935 0.16517037
-0.019890122 0.0019489136 0.16735415
-0.01944595 -0.00084709644 0.16779724
-0.019156564 -0.0038074967 0.16905822
-0.014317645 0.035023719 0.14715621
-0.014770413 0.032775778 0.14814833
-0.014757858 0.030582702 0.14842577
-0.015277933 0.028285509 0.15123114
-0.015426447 0.025640551 0.15262924
-0.01560855 0.022925837 0.15490721
-0.01628031 0.019951001 0.15927227
-0.016164614 0.017100874 0.1592827
-0.016487909 0.014554923 0.16126412
-0.016951943 0.011463768 0.16382992
-0.016948843 0.0083261672 0.16472678
-0.017333228 0.0053986222 0.16705905
-0.017366478 0.0026574519 0.16864744
-0.01716472 -0.00035868579 0.16953056
-0.016387148 -0.0031476831 0.17006204
-0.011927897 0.034952473 0.14715877
-0.0121511 0.032797735 0.14830405
-0.01239697 0.030434612 0.14986184
-0.012677055 0.02810939 0.15185386
-0.012856982 0.025557103 0.15322846
-0.01294976 0.022929288 0.15498264
-0.01340771 0.020414906 0.15886068
-0.01346132 0.017367907 0.15963082
-0.013593229 0.014740544 0.16157074
-0.014358402 0.011924176 0.1650026
-0.014819122 0.0085203256 0.16668418
-0.015341838 0.005584735 0.16843788
-0.015148737 0.0029933506 0.17008829
-0.014910514 0.00016361658 0.16980118
-0.013400775 -0.0028958097 0.16988297
-0.0093299663 0.034842905 0.14678529
-0.0095652342 0.032790389 0.14823556
-0.0098814322 0.030318042 0.15085562
-0.010161292 0.027883541 0.1522592
-0.010031621 0.025461247 0.15383913
-0.010055183 0.022807581 0.15589629
-0.009983466 0.020430369 0.15841061
-0.010371109 0.017479124 0.1585881
-0.010457629 0.014940759 0.16188742
-0.011221117 0.012720695 0.16611689
-0.012320348 0.0086721973 0.16793019
-0.012735026 0.0059848819 0.17004105
-0.012447373 0.0033172742 0.17058606
-0.012004648 0.00079361995 0.17074943
-0.011161656 -0.0022088725 0.17066075
-0.006880742 0.034852386 0.14682372
-0.0071458612 0.032616679 0.14856264
-0.0073534441 0.030221101 0.15124026
-0.0072841807 0.027712256 0.15209091
-0.0072401473 0.025400329 0.15337618
-0.0071533849 0.022935133 0.1567488
-0.0070827673 0.020130394 0.1587124
-0.006923934 0.017612264 0.15938346
-0.0073075425 0.015189091 0.16251428
-0.0076444433 0.013105763 0.16693828
-0.0086197127 0.0091358069 0.16938263
-0.010098593 0.0061819102 0.17153481
-0.0099058859 0.0035269449 0.17224835
-0.0093505569 0.0010433334 0.17228287
-0.0095733022 -0.0010772054 0.17331772
-0.0042472281 0.034759331 0.14713873
-0.0045284778 0.03240044 0.14901547
-0.0047650235 0.029894885 0.15105674
-0.0045292759 0.02768751 0.15293831
-0.0044853254 0.025358694 0.15474021
-0.0044048289 0.022893745 0.15876472
-0.0044333953 0.020397881 0.15958385
-0.0045172889 0.01779265 0.16075936
-0.0046061128 0.015382299 0.16389781
-0.0047539333 0.012738752 0.16780722
-0.005261702 0.0089851292 0.16973908
-0.0064190812 0.0066046296 0.1725048
-0.0070507186 0.0037116141 0.17279273
-0.0067379023 0.0013766038 0.17247811
-0.005760944 -0.0023966692 0.17652869
-0.0017967892 0.034798127 0.14773867
-0.0019800635 0.032309309 0.1489258
-0.0018122388 0.029644502 0.15030621
-0.0017727021 0.027303932 0.15224485
-0.0016333577 0.025263427 0.15452331
-0.0017632358 0.022816559 0.158751
-0.0016911444 0.020455146 0.15993421
-0.0017575547 0.017949084 0.16202423
-0.0016331418 0.01542311 0.16478825
-0.0016762478 0.012254577 0.16870277
-0.0023373712 0.0093687065 0.17036971
-0.0026873685 0.0067747044 0.17267253
-0.0035587286 0.0042603808 0.17388184
-0.002994946 0.0013447213 0.17472833
-0.0024633519 -0.0021823389 0.17903361
0.00065735565 0.034151696 0.14814305
0.0010958576 0.032124482 0.14919877
0.0008437364 0.029478891 0.15096194
0.0011630211 0.02739751 0.15295112
0.0011004059 0.024807697 0.15542686
0.00093535561 0.022569345 0.15793072
0.0010023956 0.020428119 0.16024254
0.00097606785 0.018097844 0.16266324
0.0011020576 0.015614624 0.16502589
0.0013365226 0.012471273 0.16886017
0.0007426524 0.0096218046 0.17082013
0.00056195148 0.0070132082 0.17278741
0.00018492714 0.0045408816 0.17434312
0.00025979854 0.0018782087 0.17664425
0.00022921219 -0.0011845984 0.17887512
0.0031388274 0.034921009 0.14851141
0.0033327246 0.03255694 0.15000108
0.0035684195 0.030133504 0.15154506
0.0038075969 0.027389299 0.15371454
0.0038957286 0.025070908 0.15549342
0.0037778008 0.0227207 0.15738252
0.0037542607 0.020449275 0.1590638
0.00386652 0.018125048 0.1626519
0.0038506298 0.015655408 0.16546479
0.0042155394 0.012961631 0.16912891
0.0039888439 0.0099586546 0.1713367
0.0036827617 0.0072045801 0.17222425
0.0038532356 0.0047335988 0.17375338
0.0031503316 0.002405457 0.17702083
0.0033396478 -0.00046679337 0.17860785
0.0057890592 0.035351697 0.148332
0.0059392853 0.033106364 0.14998145
0.0060422937 0.030749939 0.15160218
0.0060868054 0.027712556 0.15437712
0.0061728256 0.02534846 0.15673177
0.0062757507 0.022983098 0.1584529
0.0064082094 0.020693563 0.16008887
0.0064820144 0.018306335 0.1619188
0.0072599994 0.015464635 0.16573425
0.0069705765 0.013528769 0.17013873
0.0069187749 0.010606113 0.17139553
0.0067168386 0.0079983799 0.17291102
0.0061918455 0.0055384533 0.17528291
0.0060571637 0.0026660385 0.17817815
0.0058828713 -6.4053464e-05 0.18012361
0.0080219461 0.035833836 0.14919026
0.0081753461 0.033574175 0.15108266
0.008677748 0.031236002 0.15161842
0.0087197851 0.028289923 0.156196
0.008444041 0.025831336 0.15866743
0.0085054878 0.023361603 0.15943763
0.0085611697 0.020938652 0.16100417
0.010274803 0.017724024 0.16467839
0.010065454 0.015572125 0.16672495
0.0097055938 0.013528976 0.17021196
0.0099396799 0.01094376 0.17134666
0.0096507305 0.0086918995 0.17330998
0.0085967984 0.0060635889 0.17681202
0.0091484627 0.001953512 0.18033233
0.0091042724 -0.00077922974 0.18207979
0.010542688 0.036363665 0.14944528
0.010845606 0.034115378 0.150544
0.011019076 0.031646699 0.15239368
0.011057636 0.028664803 0.15747321
0.010919762 0.026141781 0.15927693
0.011145509 0.023639977 0.15980539
0.010863871 0.021032581 0.1617039
0.012535412 0.018030515 0.16534933
0.012519231 0.015862752 0.16754997
0.0125627 0.013732088 0.16935991
0.012833028 0.011270654 0.17116542
0.01226457 0.0091827 0.17393693
0.011208025 0.0061184452 0.17823552
0.012772212 0.0022091635 0.18024844
0.013055924 0.036924448 0.14919944
0.013418777 0.034609362 0.15044874
0.013162839 0.031598512 0.15442026
0.013721229 0.028566575 0.15851681
0.013798904 0.026291586 0.15969998
0.013826129 0.02408047 0.16038913
0.013543675 0.021311682 0.16337609
0.014835345 0.018384285 0.16536953
0.014924197 0.01622735 0.16753103
0.014923724 0.014104252 0.16939811
0.015384509 0.011730454 0.17141648
0.014521819 0.0094812652 0.17478384
0.014244569 0.0066191084 0.17780483
0.015208208 0.0031526173 0.17841597
0.015805224 0.00013831744 0.1800523
0.015310636 0.037302546 0.14894566
0.015886936 0.034745328 0.15079515
0.015592672 0.030845582 0.15510872
0.015975051 0.026600026 0.15991518
0 0 0 1 0 0 0 1 0 0 0 1 0 0 0 0 0 240 1 0 0
