ply
format ascii 1.0
comment PCL generated
element vertex 240
property float x
property float y
property float z
element camera 1
property float view_px
property float view_py
property float view_pz
property float x_axisx
property float x_axisy
property float x_axisz
property float y_axisx
property float y_axisy
property float y_axisz
property float z_axisx
property float z_axisy
property float z_axisz
property float focal
property float scalex
property float scaley
property float centerx
property float centery
property int viewportx
property int viewporty
property float k1
property float k2
end_header
-0.02431299 0.035297822 0.14633596
-0.024401886 0.032951113 0.1464837
-0.024536811 0.030892357 0.14853953
-0.024799183 0.028591599 0.15007813
-0.025003526 0.026437776 0.15187488
-0.025624124 0.023946473 0.1554759
-0.026734481 0.021795101 0.16056223
-0.027093399 0.019313462 0.16293246
-0.027186237 0.016656291 0.16381802
-0.02713619 0.013906412 0.16441745
-0.027277969 0.011180029 0.1653661
-0.027530218 0.0084326938 0.1672534
-0.027390793 0.0056766947 0.16707556
-0.021903569 0.03509051 0.14566354
-0.021897748 0.032933511 0.14672464
-0.02202653 0.030803494 0.14855397
-0.022216689 0.028584216 0.1499685
-0.022388048 0.026411399 0.15168215
-0.022872331 0.023983976 0.15455088
-0.023359705 0.021360295 0.15808763
-0.023682475 0.019012418 0.16012877
-0.023939166 0.016541664 0.16214751
-0.024137214 0.013857314 0.16318089
-0.024176089 0.011169458 0.16433182
-0.024622254 0.0084896646 0.16689472
-0.024936145 0.0057509197 0.16899738
-0.024823548 0.002913676 0.17124645
-0.019316841 0.035220448 0.14597681
-0.019376472 0.033158429 0.14803874
-0.019488327 0.030810652 0.14877114
-0.019685484 0.028501851 0.15010695
-0.019852083 0.026309744 0.15150911
-0.02028637 0.024050366 0.15503117
-0.020794464 0.021575535 0.15887724
-0.020954905 0.019041818 0.1602515
-0.021078376 0.016550165 0.16188915
-0.021421788 0.014022399 0.16377926
-0.021651231 0.011351449 0.1665002
-0.021778235 0.0084486706 0.1686722
-0.021913202 0.0055698287 0.17089547
-0.021969797 0.0027682621 0.17198133
-0.021870293 -0.00015607299 0.17244945
-0.016628157 0.035321973 0.14696944
-0.01690457 0.033163968 0.14845473
-0.016928758 0.030718675 0.14858295
-0.017141681 0.028625665 0.15067892
-0.017310731 0.026368771 0.15174401
-0.017603701 0.02409338 0.15482818
-0.01813486 0.021884523 0.15937974
-0.018154049 0.019162407 0.15983304
-0.018379683 0.016698064 0.16223577
-0.018524697 0.014184147 0.16490887
-0.01892134 0.011328136 0.16831604
-0.018990489 0.0085473759 0.1695898
-0.019239469 0.0058332039 0.17209004
-0.019409118 0.0029924524 0.17366594
-0.019617276 3.6709871e-06 0.1744598
-0.014156372 0.035387155 0.14716351
-0.014385331 0.03317247 0.14856586
-0.01434341 0.030792642 0.14840901
-0.014673737 0.028706426 0.15089771
-0.014823076 0.026453175 0.15264207
-0.015018748 0.024176368 0.15529318
-0.015472711 0.022085495 0.16015573
-0.015395696 0.019328566 0.16032033
-0.015616989 0.01684246 0.16265705
-0.015787773 0.014336972 0.16543558
-0.01590996 0.011477405 0.16812618
-0.016278988 0.0087791299 0.17103623
-0.016762925 0.0060601258 0.17462401
-0.016906589 0.0030020035 0.17585388
-0.016465014 -3.2182721e-05 0.17460455
-0.011746019 0.035465304 0.14713264
-0.011848999 0.033199631 0.14849645
-0.011893183 0.030861199 0.14965762
-0.012069426 0.028613696 0.15156943
-0.012210698 0.026449047 0.15320945
-0.012376777 0.024190122 0.1553621
-0.012610145 0.021962488 0.1590829
-0.01259249 0.019419447 0.16015802
-0.012767753 0.016859923 0.16237456
-0.013013629 0.01431251 0.16617234
-0.013384241 0.011561047 0.1701823
-0.013845904 0.0089816581 0.17385349
-0.013927354 0.0061081522 0.17579235
-0.013939229 0.0031548135 0.1759395
-0.013123673 -0.00019455364 0.17333472
-0.0092510767 0.035459705 0.14689998
-0.0093687046 0.033305116 0.14818683
-0.0093971463 0.031039774 0.15049128
-0.0095421933 0.028522106 0.15207811
-0.0094996849 0.026325591 0.15369819
-0.0096106799 0.024194123 0.15597861
-0.0096663116 0.021740785 0.15856737
-0.0096954992 0.019197309 0.15925935
-0.0098982081 0.016681857 0.16243851
-0.01035156 0.014344772 0.16667418
-0.010647959 0.011329337 0.17131726
-0.010996294 0.0090683028 0.17456774
-0.010832825 0.0060241902 0.17510332
-0.010780135 0.0031618653 0.1753228
-0.010462425 -4.8048973e-05 0.1744462
-0.0067405347 0.035414111 0.14684223
-0.0068189306 0.03327138 0.14834252
-0.0068873712 0.031015685 0.15083
-0.0067664026 0.028537989 0.15175316
-0.0068344045 0.026215916 0.1533244
-0.0069554946 0.024304703 0.15668808
-0.0070984596 0.021638416 0.15938571
-0.0068815122 0.018938368 0.16004781
-0.0071457461 0.016623763 0.16294156
-0.0075766132 0.014139036 0.16743439
-0.0073917247 0.01091791 0.17063214
-0.0078785801 0.0087476857 0.1740216
-0.007928445 0.0060928827 0.17558002
-0.0078326408 0.0031715953 0.17587027
-0.0081419311 0.00082903286 0.17815588
-0.0042676739 0.035397202 0.14719017
-0.0042766826 0.033182248 0.14869006
-0.0042404281 0.031037532 0.15070614
-0.0041487487 0.028682346 0.15268554
-0.0042572147 0.026512766 0.15501264
-0.0044456292 0.02457558 0.15921539
-0.0044539417 0.021918073 0.16045645
-0.0044054887 0.019354478 0.16166195
-0.0045985668 0.016900802 0.16477904
-0.0047565131 0.014328544 0.16843382
-0.0046107112 0.011358714 0.17192662
-0.0048536533 0.0090104379 0.17478812
-0.0049849241 0.0063584964 0.17610563
-0.0049826698 0.0034767538 0.1764513
-0.0048609292 0.0002345665 0.1797217
-0.0017828743 0.035370428 0.14741987
-0.0017519462 0.033102196 0.1488169
-0.0015604587 0.030614344 0.15022232
-0.0015638807 0.028445182 0.15205821
-0.0015458331 0.026406014 0.15459849
-0.0017325724 0.024617299 0.1589309
-0.0017873329 0.022042578 0.16049857
-0.0018056215 0.019731294 0.16305141
-0.0017421707 0.01731191 0.16542514
-0.001936651 0.014694697 0.17016433
-0.0018652456 0.011868073 0.17326024
-0.0020346888 0.0093345363 0.17581853
-0.0021004921 0.0066122469 0.17745437
-0.0018928129 0.0035073441 0.17751244
-0.0016753866 0.00025191129 0.1811429
0.00054757908 0.035313107 0.14847587
0.00063051516 0.033111237 0.14977092
0.00071477942 0.030867545 0.15154804
0.0010996431 0.028703349 0.15339524
0.0009983955 0.026678383 0.1564633
0.00093059061 0.024558701 0.15886585
0.00083802087 0.022338331 0.1612554
0.00086826691 0.020104157 0.16381648
0.00092110166 0.01770295 0.16631092
0.00093509548 0.01509136 0.17039242
0.00091142213 0.012292342 0.17371356
0.0010686341 0.0095153991 0.17541952
0.00098333496 0.006621182 0.17669959
0.0010627074 0.0036987197 0.1783089
0.0012294438 0.00058741006 0.18026106
0.0029841713 0.035557486 0.1488429
0.0030573551 0.033444434 0.15085319
0.0032075616 0.031068964 0.15201403
0.0036169367 0.028885303 0.15420268
0.0036432976 0.026737185 0.15658565
0.0036199009 0.024609342 0.15882799
0.0036417758 0.022280473 0.16055572
0.0036331902 0.020173823 0.16391729
0.0036643697 0.017894654 0.16691254
0.0038262666 0.015351905 0.17043817
0.0038837984 0.012390997 0.17347388
0.0039941506 0.0094797192 0.17418528
0.0040460736 0.0066383504 0.17484316
0.0040332815 0.0037378869 0.17775923
0.004159051 0.00070943945 0.17870502
0.0055384003 0.035626892 0.14826259
0.0055964929 0.033529483 0.15030982
0.0057794796 0.031303257 0.15206227
0.0059871902 0.029346516 0.1548827
0.0061494014 0.027057782 0.1575747
0.0062254709 0.024862861 0.15976778
0.0062187552 0.022647645 0.16176426
0.0063307011 0.020422278 0.16370721
0.0067565171 0.017786108 0.16653687
0.0066435458 0.015369644 0.17070232
0.0067331623 0.012316289 0.17234069
0.0067909001 0.0094607892 0.17340143
0.0068618353 0.0067294631 0.17550784
0.0070423619 0.0035165919 0.17810081
0.0070612025 0.00039392692 0.17970052
0.0080219507 0.035837755 0.14883983
0.0081711896 0.033781823 0.15093039
0.0083750794 0.031394709 0.15150887
0.0088598523 0.029480349 0.15615706
0.0087427031 0.027433569 0.15898985
0.008808773 0.025154119 0.16042084
0.0087044323 0.023134207 0.16309015
0.0095034204 0.020432191 0.16575508
0.0094339754 0.017866351 0.16756125
0.0094693974 0.015261314 0.17065847
0.0096744187 0.012290687 0.17111324
0.0096532088 0.009530101 0.17243229
0.009699 0.0065766829 0.17625605
0.010472052 0.0024193304 0.17898497
0.010459241 -0.00055502309 0.18063231
0.010541436 0.035756558 0.14820573
0.010712197 0.033553697 0.14962149
0.01087221 0.031409487 0.15173979
0.011436808 0.029660219 0.15669364
0.011367829 0.027596414 0.15921928
0.011617482 0.025151059 0.1601494
0.01122732 0.023368962 0.16356157
0.012067681 0.020646704 0.16636825
0.012213261 0.018069007 0.16808787
0.012353042 0.015376581 0.16930969
0.012472711 0.012393818 0.17014292
0.01244299 0.0094739683 0.1720884
0.012818508 0.0060875206 0.17651822
0.013638449 0.0019953458 0.17807743
0.013020774 0.035576917 0.14704502
0.013209815 0.033399407 0.14877625
0.013514386 0.031348515 0.15273213
0.01403484 0.029615516 0.15725617
0.014128873 0.02754632 0.15929227
0.01420455 0.025304012 0.16084412
0.014114658 0.023515677 0.16464181
0.014643244 0.020946834 0.16674441
0.014974895 0.01836779 0.1683252
0.015181798 0.015647491 0.1694911
0.015299935 0.012566719 0.17010197
0.015181635 0.0094155585 0.17222226
0.015678609 0.0057727341 0.17505975
0.01566777 0.0024664346 0.1749198
0.01580946 -0.00087310735 0.17629024
0.015175627 0.035097491 0.14529496
0.015389184 0.033005882 0.14824489
0.016009208 0.031505171 0.15374608
0.016368622 0.027656699 0.15920763
0 0 0 1 0 0 0 1 0 0 0 1 0 0 0 0 0 240 1 0 0
