ply
format ascii 1.0
comment PCL generated
element vertex 240
property float x
property float y
property float z
element camera 1
property float view_px
property float view_py
property float view_pz
property float x_axisx
property float x_axisy
property float x_axisz
property float y_axisx
property float y_axisy
property float y_axisz
property float z_axisx
property float z_axisy
property float z_axisz
property float focal
property float scalex
property float scaley
property float centerx
property float centery
property int viewportx
property int viewporty
property float k1
property float k2
end_header
-0.025629155 0.034311894 0.14561574
-0.025487471 0.031950351 0.14567682
-0.025458185 0.029693455 0.14727078
-0.025563641 0.027280729 0.14852138
-0.025620189 0.024716258 0.15109469
-0.026316004 0.021354456 0.15418537
-0.028510073 0.017488917 0.15827098
-0.028715858 0.014609085 0.15954344
-0.028554695 0.01184218 0.16006471
-0.02818083 0.0091377962 0.16010171
-0.028128199 0.006197542 0.16029668
-0.028347034 0.0032765307 0.16129212
-0.028284799 0.0006969549 0.16141777
-0.02324249 0.034350738 0.14523435
-0.022974644 0.031924132 0.14600439
-0.022775169 0.029671315 0.14697868
-0.022983136 0.027424028 0.14869682
-0.022900134 0.025043707 0.15045355
-0.023420731 0.021798113 0.15254922
-0.024093937 0.018180732 0.15634081
-0.024587572 0.015392085 0.1577722
-0.02484687 0.012424856 0.15931804
-0.024979204 0.0097786179 0.15954569
-0.024967385 0.0069488613 0.16043986
-0.025433863 0.0037079118 0.16162559
-0.025899306 0.00087208772 0.16313744
-0.024940304 -0.0024468252 0.16470324
-0.020386687 0.034490664 0.14527293
-0.020085596 0.032255623 0.14683741
-0.020151956 0.029945735 0.14757951
-0.020306377 0.027596921 0.14928319
-0.020434393 0.025081325 0.15064225
-0.020888269 0.021877985 0.1535743
-0.021487987 0.01844448 0.15646215
-0.021609128 0.015612714 0.15736772
-0.021737693 0.01285367 0.15859723
-0.022287108 0.010070996 0.15983275
-0.022398094 0.0067429375 0.1622625
-0.022408698 0.0034837276 0.16321112
-0.022681722 0.00029129293 0.16497931
-0.022208618 -0.0024455758 0.16605242
-0.021828761 -0.0052198283 0.16732927
-0.017015614 0.034633543 0.14642522
-0.017452175 0.032407984 0.14757073
-0.01751939 0.029992217 0.14790958
-0.017924434 0.027961249 0.15011942
-0.017935744 0.025218729 0.15081511
-0.018227471 0.022239473 0.15339488
-0.01891496 0.018747162 0.15707673
-0.018839894 0.015988423 0.15753613
-0.019104568 0.013062855 0.15934691
-0.019171158 0.0093323411 0.16099611
-0.019986924 0.0063961991 0.1628834
-0.020019047 0.0038547176 0.16426352
-0.020333447 0.0012396832 0.16649543
-0.020020682 -0.0014792554 0.16731906
-0.019884033 -0.0040872125 0.16922456
-0.014342145 0.034847561 0.14702351
-0.014803421 0.032522295 0.14784545
-0.014796243 0.030302137 0.14801748
-0.015381947 0.027838973 0.15064195
-0.015491445 0.025127182 0.15187092
-0.015670894 0.022324109 0.15390077
-0.016215326 0.019004591 0.1580542
-0.016171165 0.016211389 0.15795538
-0.016404502 0.013589159 0.1597535
-0.016788209 0.010024773 0.16182733
-0.016953733 0.0070045907 0.16316901
-0.01756571 0.0045726961 0.16584983
-0.01781819 0.0020371871 0.16761452
-0.017775873 -0.00076564989 0.1689534
-0.017075077 -0.003385491 0.1700691
-0.011985086 0.034898214 0.14730087
-0.012199335 0.032668974 0.14828604
-0.01241517 0.030110201 0.14949916
-0.012740355 0.027622841 0.15114993
-0.012928783 0.025075013 0.15245026
-0.013030465 0.022442177 0.15399761
-0.013499145 0.019508798 0.15753596
-0.013511989 0.016504614 0.15823428
-0.013604226 0.013819982 0.16014515
-0.014315809 0.010648466 0.16312344
-0.015022039 0.0073674582 0.16499728
-0.015688153 0.0047956682 0.16694684
-0.015512386 0.0024993608 0.16896293
-0.015482137 -0.00028061529 0.16928056
-0.013975598 -0.0033308242 0.16961549
-0.0093967244 0.03490014 0.14711852
-0.0096628228 0.032840468 0.14855655
-0.0099474136 0.030009761 0.15072319
-0.010226573 0.027442783 0.15181133
-0.010139097 0.025078144 0.15327485
-0.010199144 0.022486307 0.15529543
-0.010187709 0.020056684 0.15788549
-0.010414329 0.01705947 0.15765855
-0.010522857 0.014361289 0.16088229
-0.011423149 0.011517943 0.16447166
-0.012676252 0.0076778783 0.16577627
-0.012944913 0.0052793263 0.1680118
-0.012712312 0.0027742623 0.16908453
-0.012399248 0.00031937193 0.16978003
-0.011599546 -0.0027117194 0.17003562
-0.0069446997 0.034921777 0.14716521
-0.0072771045 0.032651439 0.14893059
-0.0074872067 0.030039761 0.15136832
-0.0073331692 0.027401464 0.15203017
-0.0072654579 0.025102396 0.15332395
-0.0073535112 0.022877531 0.15703075
-0.0074459319 0.020348694 0.15936862
-0.0072339429 0.018059548 0.15995812
-0.0074851024 0.015016019 0.16206385
-0.0078381421 0.01188799 0.16573457
-0.0081808288 0.0078401333 0.16700515
-0.0099961841 0.0054338416 0.16929099
-0.0099192867 0.0030527515 0.17055959
-0.0095302174 0.00064904097 0.17106558
-0.0097561665 -0.0012971561 0.17227322
-0.0043092277 0.03469754 0.14723749
-0.0046734628 0.0322394 0.14914455
-0.0048729265 0.029757407 0.15135306
-0.0046588341 0.027545087 0.1531558
-0.0046836636 0.025264999 0.15499979
-0.0048491801 0.023087561 0.15947972
-0.0048934049 0.020801488 0.16065857
-0.0049405526 0.018160559 0.16148663
-0.0048916829 0.015106554 0.16358396
-0.0048397016 0.011756964 0.16705747
-0.0048842477 0.007999897 0.16871464
-0.0061349007 0.005740731 0.17080538
-0.0070291851 0.0030673917 0.17132299
-0.0069038118 0.00079493073 0.17137651
-0.0056241583 -0.0031242024 0.175447
-0.0018394885 0.034647141 0.14776413
-0.0021283161 0.03207818 0.14880963
-0.0018307604 0.02950158 0.15080732
-0.0018578343 0.027267432 0.15279235
-0.0018320667 0.025302032 0.15519226
-0.002208906 0.023259738 0.15990989
-0.002155815 0.021043008 0.16131791
-0.0022023576 0.018196804 0.16271886
-0.0020315181 0.015183021 0.16482967
-0.0016598308 0.011583156 0.16835251
-0.0022311977 0.0087339208 0.1698128
-0.0026172991 0.006173884 0.17218123
-0.0035287379 0.0036595182 0.17314348
-0.0029778772 0.0007404983 0.17403997
-0.002076616 -0.0031051019 0.17807007
0.00045287143 0.033758704 0.14831653
0.0008641305 0.031741999 0.14960845
0.00062140141 0.029226543 0.15162565
0.00098427141 0.027552357 0.15392759
0.00084398489 0.025117511 0.15656713
0.0006273879 0.023027254 0.15919448
0.00059425848 0.021150297 0.1616379
0.0004435773 0.018418241 0.16365254
0.0006239611 0.015571874 0.16545916
0.0012461226 0.011931921 0.16865993
0.00075131131 0.0091861226 0.17065094
0.00056358118 0.0065833526 0.17258523
0.00018840742 0.0040377504 0.17394364
0.00032685057 0.0012054088 0.17607558
0.00045017045 -0.0019976292 0.17810373
0.0029320244 0.034441348 0.14865033
0.0031140374 0.032212343 0.15032138
0.0033241005 0.029926414 0.15206161
0.0036761782 0.02753512 0.1547588
0.0037147263 0.025422677 0.15664315
0.0035124614 0.023273621 0.15854529
0.0033790085 0.021088682 0.16022994
0.0033420015 0.018519146 0.16372631
0.0032830639 0.015773023 0.16606729
0.0040689502 0.012423893 0.16878054
0.0040022517 0.0094158156 0.17091586
0.0036376826 0.0069115255 0.17202584
0.0038411235 0.0044010747 0.17357832
0.003191387 0.0018459124 0.17654212
0.0035210182 -0.0010425262 0.17803389
0.0055810884 0.034760006 0.14831391
0.0057241479 0.032695126 0.15020546
0.0057980199 0.030489186 0.15198976
0.0062347874 0.027503951 0.15504788
0.0061197598 0.025523286 0.15762991
0.0060079559 0.023467883 0.15952466
0.0061365026 0.021262627 0.16121767
0.0060484386 0.018902322 0.16299659
0.0066336128 0.015913401 0.16597636
0.0068041566 0.013001573 0.16951542
0.0068809362 0.0099806739 0.17043053
0.0066755959 0.0075353137 0.17233102
0.0061792554 0.0052760937 0.1750048
0.0060852384 0.0020828776 0.17768972
0.0060517038 -0.00056642905 0.17959334
0.0078752022 0.035200544 0.14898324
0.0080111921 0.033162955 0.15111256
0.0084650237 0.030915832 0.15192041
0.0088333199 0.028135832 0.15680148
0.0083004981 0.026187582 0.1595213
0.0081678582 0.023884101 0.16062786
0.008202726 0.021539299 0.16215505
0.0096411258 0.018243505 0.16499726
0.0095571186 0.015816934 0.16671748
0.0094983466 0.013073215 0.16933876
0.0098549416 0.01038219 0.17018698
0.0096613234 0.0081302412 0.17229249
0.0087448535 0.0056828875 0.1760795
0.0093797063 0.0015479771 0.17974415
0.0093783345 -0.0010941619 0.18149672
0.010410368 0.035600282 0.14898957
0.010705044 0.033543527 0.15031083
0.01086519 0.031302683 0.15250111
0.011067163 0.028744558 0.158115
0.010721035 0.026470469 0.16019176
0.010801017 0.024105383 0.16100803
0.010365857 0.021656375 0.16300848
0.011986371 0.018351473 0.16543354
0.01206038 0.015896481 0.16720346
0.012196247 0.01335462 0.16832988
0.012598173 0.010560345 0.16954361
0.012320281 0.0084601436 0.17257093
0.01149683 0.0056437883 0.17721324
0.013090803 0.0018686793 0.17952937
0.012943964 0.035991717 0.14848183
0.013318515 0.033813857 0.14997435
0.01323367 0.0314923 0.15469
0.013630981 0.028872367 0.15947053
0.013568568 0.026690239 0.16075933
0.013487248 0.024611693 0.16161713
0.013027541 0.021950362 0.16448012
0.014318977 0.018714538 0.16548412
0.014456819 0.016286714 0.16715629
0.01455014 0.013801334 0.16840316
0.015162305 0.01091656 0.16943306
0.014624258 0.0085786106 0.17298591
0.014472641 0.0060362737 0.17646591
0.015478807 0.0027055903 0.17743322
0.01612341 -0.00019853344 0.17923298
0.015208771 0.036161676 0.14807022
0.015879793 0.033761878 0.15005827
0.015663173 0.030901218 0.15601285
0.015731506 0.02701357 0.16106915
0 0 0 1 0 0 0 1 0 0 0 1 0 0 0 0 0 240 1 0 0
