ply
format ascii 1.0
comment PCL generated
element vertex 240
property float x
property float y
property float z
element camera 1
property float view_px
property float view_py
property float view_pz
property float x_axisx
property float x_axisy
property float x_axisz
property float y_axisx
property float y_axisy
property float y_axisz
property float z_axisx
property float z_axisy
property float z_axisz
property float focal
property float scalex
property float scaley
property float centerx
property float centery
property int viewportx
property int viewporty
property float k1
property float k2
end_header
-0.026590319 0.034219798 0.14737928
-0.026433872 0.031825192 0.14737712
-0.026172413 0.029343173 0.1486858
-0.026082156 0.026725959 0.1494634
-0.026133858 0.023802372 0.15145351
-0.027023263 0.020244896 0.15426424
-0.030170865 0.01506881 0.15652475
-0.030507993 0.012241547 0.15782067
-0.030332385 0.0093730623 0.15868358
-0.02980444 0.0064168815 0.15908092
-0.029710645 0.0032150829 0.15970863
-0.030097511 0.00043156929 0.16129665
-0.030221105 -0.0020381738 0.16223471
-0.024318017 0.034255959 0.14670534
-0.023876136 0.03172401 0.14725098
-0.023471404 0.029303351 0.14786465
-0.023452083 0.026817368 0.14916912
-0.023310034 0.024257658 0.15048139
-0.024021843 0.020811358 0.15255038
-0.02502428 0.016692385 0.15627298
-0.025938766 0.013515467 0.15728316
-0.026436197 0.010485047 0.15860459
-0.026672862 0.0075660776 0.15918276
-0.026531896 0.0045527332 0.1603094
-0.027106719 0.0010310411 0.16156341
-0.027743429 -0.0016894025 0.16373879
-0.026413765 -0.0044583343 0.16544685
-0.021385523 0.034359783 0.14636439
-0.020725576 0.031905975 0.14761765
-0.020703344 0.029542202 0.14809528
-0.020749822 0.027023843 0.1496076
-0.020880714 0.02426707 0.15075441
-0.021577001 0.020874681 0.15377007
-0.022512726 0.017067706 0.15672667
-0.022740521 0.013942616 0.15746835
-0.023038751 0.011162941 0.15840091
-0.024017718 0.0082141338 0.1598853
-0.024176594 0.0047689206 0.16267893
-0.024141926 0.0016135293 0.1637796
-0.024300931 -0.0015641151 0.16571489
-0.023586178 -0.0041652471 0.16629009
-0.02274666 -0.00692849 0.16696189
-0.017473148 0.034334272 0.14731304
-0.017890422 0.032078642 0.14828871
-0.018041948 0.029628459 0.14845821
-0.018409014 0.027436087 0.15061639
-0.018399628 0.024534872 0.15106338
-0.01883202 0.021480735 0.15365234
-0.020167727 0.01760298 0.15786749
-0.020050513 0.014641695 0.15824212
-0.020451101 0.011619573 0.15992658
-0.021430297 0.0077804676 0.16236612
-0.022007486 0.0048208889 0.163854
-0.021768337 0.0022317106 0.16496736
-0.021796102 -0.00048161062 0.16655219
-0.02126948 -0.0031326415 0.16701129
-0.020474464 -0.0058492464 0.1684074
-0.014729385 0.034547456 0.14790493
-0.015209937 0.032173492 0.14860712
-0.015265357 0.029935487 0.14859411
-0.015887674 0.027280832 0.15110582
-0.016002754 0.024509372 0.15222171
-0.016323226 0.021661982 0.15429191
-0.017568095 0.018113604 0.15918805
-0.017501624 0.015102565 0.15929297
-0.017709941 0.012399722 0.16100788
-0.01845487 0.0088165421 0.16347884
-0.018919395 0.0057959673 0.16433798
-0.019070497 0.0028725283 0.16644631
-0.019156294 0.00046657806 0.16677772
-0.018684352 -0.0024074898 0.16779521
-0.017564351 -0.0049486039 0.16863514
-0.012312461 0.034687195 0.14810559
-0.012561988 0.032352734 0.14902836
-0.012872894 0.02969766 0.15005022
-0.013262171 0.027134294 0.15164869
-0.013523647 0.024544368 0.15290667
-0.013703373 0.021886827 0.15429328
-0.014450696 0.018650491 0.15824357
-0.014753378 0.015481877 0.15948609
-0.014823849 0.012649071 0.16154611
-0.015836701 0.009173722 0.16444077
-0.016953144 0.0058753602 0.16547908
-0.017242746 0.0031667631 0.16660708
-0.016621087 0.00093494612 0.16775723
-0.016399739 -0.0017518955 0.16769212
-0.014657579 -0.0045747366 0.16810937
-0.0097948397 0.03470229 0.14770259
-0.010024439 0.03255742 0.14899856
-0.010356685 0.029510606 0.15099464
-0.010743473 0.027003935 0.1522498
-0.010698951 0.024664329 0.15350547
-0.010759278 0.021846557 0.15534016
-0.010474537 0.019138858 0.15730585
-0.011386051 0.015908705 0.15814812
-0.011205937 0.013024039 0.16143589
-0.012400567 0.010103282 0.16523355
-0.014684058 0.0062937178 0.165388
-0.014475824 0.0037388897 0.16659111
-0.013928743 0.0013434181 0.16754374
-0.013364412 -0.00093664776 0.16811313
-0.012217613 -0.0038081075 0.16820414
-0.0073593864 0.034633361 0.1475115
-0.0076424298 0.032323834 0.1492552
-0.0078498023 0.029429913 0.15146206
-0.0077339476 0.026880626 0.1521346
-0.0075589935 0.024566829 0.15318164
-0.007333864 0.02180279 0.15633823
-0.0071270363 0.018917883 0.1579226
-0.0069156382 0.016508903 0.15858482
-0.0072172708 0.013370894 0.16087589
-0.007404489 0.010262437 0.16466139
-0.0095397718 0.0065290048 0.16574699
-0.011207498 0.0040135998 0.16740742
-0.010795875 0.0018311044 0.16845362
-0.010284419 -0.00042784601 0.16875474
-0.010154861 -0.0023640352 0.16961588
-0.0047570313 0.034212381 0.14717658
-0.0050857747 0.031820312 0.14935455
-0.0052459012 0.02905141 0.15131781
-0.0049114265 0.02688163 0.15293144
-0.0048438427 0.024475763 0.15441893
-0.0045873574 0.021629978 0.15807812
-0.0045950972 0.019370498 0.15915367
-0.0046950835 0.016728088 0.16009316
-0.0045817425 0.013584182 0.16233732
-0.0043391818 0.010147792 0.16560739
-0.0044424641 0.006679581 0.166969
-0.0066683795 0.0045254594 0.16874743
-0.007827905 0.0017976497 0.16910104
-0.0077362373 -0.00019536044 0.16909859
-0.0058654873 -0.0040453211 0.17334332
-0.0022597613 0.033957429 0.14731634
-0.002609889 0.031479403 0.14855799
-0.0021431234 0.028918374 0.15069067
-0.0020668742 0.026565688 0.15235144
-0.0019083625 0.024400571 0.15457471
-0.0020333759 0.021712735 0.15860845
-0.0019858172 0.019650094 0.16004378
-0.002101928 0.016920034 0.16158739
-0.00186027 0.013862025 0.16360839
-0.0011856088 0.010327829 0.16709206
-0.0017615141 0.0075479588 0.16816403
-0.0022262321 0.0052270456 0.17077957
-0.0034084572 0.0028602169 0.17144717
-0.0030635567 9.8155586e-05 0.1726326
-0.0021560469 -0.0039408035 0.17679834
0.00018558916 0.033149712 0.14828813
0.00056695228 0.031179925 0.14969946
0.00032780645 0.028782154 0.15171595
0.0010561036 0.026761824 0.15377153
0.0011408633 0.024123099 0.15620597
0.00086765608 0.021863636 0.15835848
0.00059550989 0.02001247 0.16075091
0.00039863252 0.017175848 0.16262634
0.00059554825 0.014439341 0.16430703
0.0017232838 0.010899172 0.16775824
0.0012540267 0.0081018889 0.16926594
0.00094954856 0.005652573 0.17133799
0.00037749819 0.0032258974 0.17268343
0.00029951305 0.0005024611 0.17519812
0.00026472341 -0.0027603223 0.17706332
0.0027336611 0.033639152 0.14830801
0.0029359784 0.031462543 0.15006989
0.0031799935 0.029252721 0.15193096
0.0039779553 0.026777899 0.15465716
0.0040499005 0.024587823 0.15629983
0.0037938468 0.022368997 0.15791877
0.0034617018 0.02024821 0.15953615
0.0032225961 0.017328005 0.16281839
0.00309889 0.014832623 0.16509633
0.004646901 0.011398465 0.16827847
0.0045904103 0.008302154 0.16981561
0.0041065048 0.0060767042 0.17107257
0.0041011744 0.0036116198 0.17296964
0.0030934275 0.0010260893 0.17567462
0.0033324538 -0.0018696915 0.17722775
0.0054046945 0.033672612 0.14754955
0.0055806814 0.031696092 0.14961779
0.005595983 0.029641267 0.1514869
0.0064283861 0.026798727 0.15479089
0.0064062052 0.024737766 0.15711659
0.0061077187 0.022735678 0.15887195
0.0061516464 0.020553745 0.1607957
0.0059003918 0.018086798 0.162323
0.0068500629 0.015058026 0.16629733
0.0070721204 0.012017376 0.169304
0.0073179263 0.0090698646 0.16987818
0.0070182765 0.0066609206 0.17186064
0.0062620644 0.0045478726 0.17437837
0.005966574 0.0011886854 0.17702337
0.0059064603 -0.0015093008 0.1787947
0.0078345733 0.033815518 0.14772767
0.0079939524 0.031931423 0.14999188
0.0082725221 0.029799355 0.15100282
0.0091473144 0.027249616 0.15642092
0.0086060446 0.025231952 0.15886545
0.0083603263 0.023074955 0.15982167
0.0081441505 0.020892324 0.16162293
0.0099828253 0.017477131 0.16590641
0.009791662 0.015000387 0.16750777
0.0096913148 0.012236192 0.16939765
0.010172104 0.0097065093 0.17013338
0.0099096997 0.0073977839 0.17200226
0.0088628465 0.0045970152 0.17552978
0.0097020799 -6.9549817e-05 0.17839016
0.0094240112 -0.0024005878 0.17974845
0.010343395 0.033773348 0.14723784
0.010552154 0.031879548 0.14868648
0.0107408 0.029848957 0.15112838
0.011467879 0.027570829 0.15720446
0.011122313 0.025292451 0.15924864
0.010939289 0.023117483 0.16015069
0.010341037 0.020777758 0.1623929
0.012169759 0.017532434 0.16608648
0.012148504 0.015149674 0.16781679
0.012303693 0.012706703 0.16896009
0.012860233 0.010119259 0.17013584
0.012505138 0.0076532313 0.17238231
0.011807404 0.0041630478 0.17613012
0.013527312 -0.00029992257 0.17725521
0.012787391 0.033740245 0.14617124
0.013095121 0.031639881 0.14782056
0.013789007 0.029595857 0.15333919
0.014403299 0.027288267 0.15829028
0.014052934 0.025374049 0.15978423
0.013796017 0.023415376 0.16110417
0.013101234 0.020973749 0.16423585
0.014393002 0.017793328 0.16601391
0.01439619 0.015531855 0.16782077
0.014450531 0.01320279 0.16914071
0.015316744 0.010618182 0.17058188
0.014637345 0.0078265863 0.17275013
0.014673257 0.0045941635 0.17522903
0.015665529 0.00041508288 0.17508733
0.016067838 -0.0024932516 0.17637934
0.014934866 0.033464793 0.14545308
0.015790131 0.030953953 0.14748037
0.016766449 0.028264323 0.15474185
0.016267508 0.025650632 0.16023578
0 0 0 1 0 0 0 1 0 0 0 1 0 0 0 0 0 240 1 0 0
