ply
format ascii 1.0
comment PCL generated
element vertex 240
property float x
property float y
property float z
element camera 1
property float view_px
property float view_py
property float view_pz
property float x_axisx
property float x_axisy
property float x_axisz
property float y_axisx
property float y_axisy
property float y_axisz
property float z_axisx
property float z_axisy
property float z_axisz
property float focal
property float scalex
property float scaley
property float centerx
property float centery
property int viewportx
property int viewporty
property float k1
property float k2
end_header
-0.02653867 0.034041557 0.1467545
-0.026398011 0.031676237 0.14702359
-0.026191542 0.029377768 0.1486827
-0.026132606 0.026923088 0.14985102
-0.026215725 0.024377454 0.15247086
-0.027050266 0.020907283 0.15551463
-0.030194789 0.015433713 0.15770333
-0.030535704 0.012594343 0.15897183
-0.03035743 0.009677168 0.15969749
-0.029920153 0.0066222958 0.15987076
-0.030048419 0.0033900507 0.16065317
-0.030476272 0.00059664034 0.16251691
-0.030595111 -0.00189763 0.16359465
-0.024246655 0.034011308 0.14613278
-0.023835486 0.03155949 0.14697441
-0.023472067 0.029231917 0.14789762
-0.023496 0.026946155 0.14953469
-0.023419173 0.024671953 0.15127641
-0.024197541 0.02130344 0.15351604
-0.025052056 0.017124698 0.15717763
-0.025955683 0.013808754 0.15811455
-0.026425049 0.010717705 0.15940957
-0.026697528 0.0076011345 0.15971369
-0.026655501 0.0044764327 0.16074257
-0.027422618 0.001073094 0.16239275
-0.027975028 -0.0016075742 0.16485614
-0.026561877 -0.0045383414 0.16623592
-0.021297315 0.034104437 0.14592108
-0.020672804 0.031787816 0.14747049
-0.020683201 0.029467089 0.14812565
-0.020782253 0.02709944 0.14986874
-0.020976661 0.024509566 0.15129785
-0.021648725 0.021245698 0.15450992
-0.022508482 0.017383751 0.157364
-0.022754027 0.01417059 0.15795341
-0.023041487 0.011344505 0.15886427
-0.023940329 0.0081315422 0.16015324
-0.02397817 0.0044834344 0.16265835
-0.024092725 0.0013251324 0.1638293
-0.024279697 -0.00177168 0.1659006
-0.023601318 -0.0043148482 0.16663264
-0.022848533 -0.0069923345 0.16755657
-0.017434228 0.034241159 0.14734577
-0.017860848 0.032008372 0.14832082
-0.018018672 0.029568197 0.14856596
-0.018443655 0.027521599 0.15083763
-0.018475208 0.024621213 0.15135707
-0.018886469 0.02172032 0.15414819
-0.020094002 0.017800324 0.15834084
-0.020044791 0.014797346 0.15858412
-0.020405676 0.011691716 0.16023174
-0.021065302 0.007293547 0.16202684
-0.02173561 0.0044046948 0.16358759
-0.021645442 0.0019050773 0.16490775
-0.021770302 -0.00067434151 0.16668582
-0.021280261 -0.0032615182 0.16731021
-0.020588985 -0.0058400459 0.16896574
-0.014755825 0.034549199 0.14823082
-0.015214105 0.032155983 0.14886856
-0.015240653 0.029899208 0.14883113
-0.015876208 0.027274676 0.15123487
-0.016024325 0.024519984 0.15238117
-0.016352279 0.021716503 0.15458205
-0.017406901 0.01814408 0.15944231
-0.017485725 0.015124775 0.15958555
-0.017747851 0.012427173 0.16141428
-0.018374801 0.0085181128 0.16357802
-0.018663349 0.0053482824 0.164133
-0.018983783 0.0025936395 0.16643408
-0.01909172 0.00026020574 0.16689169
-0.018703418 -0.0025142098 0.16812509
-0.017652763 -0.0049803383 0.16915607
-0.012372659 0.034805197 0.14865142
-0.012601916 0.032412931 0.14948131
-0.01290827 0.029676231 0.15032949
-0.013229504 0.027020862 0.1516244
-0.013511646 0.024450906 0.15294708
-0.013724513 0.021842724 0.1544963
-0.01442437 0.01867342 0.15846871
-0.014783718 0.015486804 0.15987493
-0.014960569 0.012751465 0.16222987
-0.015981201 0.0090753706 0.16493055
-0.016841644 0.0055328929 0.16545703
-0.017201694 0.0028799667 0.16664514
-0.016652528 0.00078288623 0.16797304
-0.016449301 -0.0018775732 0.1682518
-0.01467959 -0.0046203984 0.16876169
-0.0098454254 0.035001151 0.14844172
-0.010048009 0.032760721 0.14956941
-0.010362512 0.029471764 0.15116097
-0.01072606 0.026865615 0.15222365
-0.010681312 0.024506023 0.15349388
-0.010786542 0.021801095 0.15564296
-0.010590923 0.01931127 0.15802194
-0.011461285 0.015999209 0.15894942
-0.011388271 0.013327825 0.16256844
-0.012750188 0.010357992 0.16627018
-0.014694358 0.0061293081 0.1657802
-0.01452196 0.003598819 0.16698019
-0.013980761 0.0012211379 0.16798803
-0.013450415 -0.00098800694 0.16875279
-0.012245099 -0.0038111948 0.16897158
-0.0073738792 0.035104252 0.14839198
-0.0076645655 0.032567248 0.1498706
-0.0078486763 0.029361712 0.15159242
-0.0076913824 0.026722383 0.15212376
-0.0075664828 0.024439737 0.15337151
-0.0075007868 0.022042744 0.15720692
-0.0074045481 0.019415669 0.15925935
-0.0072490294 0.017009033 0.16003892
-0.0074748108 0.013813587 0.16229881
-0.0076126778 0.010851507 0.16620596
-0.0098979212 0.006756214 0.16722278
-0.011447863 0.004023544 0.16836847
-0.010991589 0.0018498759 0.16930182
-0.010410707 -0.0003758744 0.16954266
-0.010299627 -0.0023031053 0.17042848
-0.0047282008 0.034863256 0.14815877
-0.005096422 0.03204602 0.14985633
-0.0052190693 0.028862646 0.15129349
-0.0049018022 0.026696056 0.15295953
-0.0048929923 0.024474451 0.15475382
-0.004809835 0.02210328 0.15912758
-0.0048250738 0.019906852 0.16043641
-0.0049749576 0.017250728 0.16142164
-0.0047869827 0.014028149 0.1636012
-0.0047969604 0.010925652 0.1673519
-0.005160003 0.0074954503 0.16886574
-0.0071576703 0.0048969905 0.17031257
-0.0080887964 0.0019840135 0.17018755
-0.0078824004 -9.6139238e-06 0.17003225
-0.0058642728 -0.0038943472 0.17424154
-0.0022315187 0.034712244 0.14839958
-0.0025466478 0.031977125 0.149187
-0.0020278683 0.028524939 0.15058893
-0.0020386572 0.026275773 0.15247859
-0.0019651023 0.024427252 0.15501058
-0.0022430592 0.022326775 0.15972568
-0.0021847743 0.02027669 0.16121134
-0.0022905353 0.017366746 0.16269085
-0.002031273 0.014211469 0.16460787
-0.0016797901 0.011045464 0.16867314
-0.0024057261 0.0083184391 0.16989951
-0.0027642804 0.0060037286 0.17257324
-0.0039443769 0.0035759963 0.17331754
-0.0034778621 0.00071356946 0.17432763
-0.0022072918 -0.0035849684 0.17793454
0.00049246021 0.033836134 0.14901547
0.0010009862 0.031751666 0.15020816
0.000702171 0.028890571 0.15180741
0.0011473907 0.026940037 0.15419294
0.0010668199 0.024696056 0.15709399
0.00066342886 0.022522889 0.15946722
0.00045263805 0.020610668 0.16185731
0.00029653491 0.017505566 0.16351184
0.00047940522 0.014576918 0.16499779
0.0013126046 0.011351075 0.16894604
0.00069398136 0.0087920493 0.17075534
0.00042423891 0.0063961358 0.1728961
-0.00013110666 0.0040161503 0.17439739
-1.2865727e-05 0.001158825 0.17670411
0.00010769685 -0.0022433996 0.17832781
0.0029905066 0.034599904 0.14941145
0.0032253969 0.032291248 0.15098566
0.003487967 0.029942714 0.15267797
0.0040255114 0.027272122 0.15549439
0.0040227822 0.025126543 0.15722495
0.003605701 0.023067534 0.15899806
0.0032692656 0.020844037 0.16046073
0.0031397953 0.017571291 0.1634697
0.0030543664 0.014740121 0.16546583
0.0042813127 0.011679979 0.16909623
0.0040730461 0.0087872725 0.1709467
0.0035065522 0.0066722543 0.17229077
0.00357202 0.0043054116 0.17431338
0.0027745233 0.0016948615 0.17703633
0.0031028287 -0.0012569311 0.17847697
0.0056942883 0.035047103 0.14911625
0.0058428622 0.032892238 0.15099479
0.0058658519 0.030676806 0.15267876
0.006362461 0.027490903 0.15583637
0.0063168919 0.025351269 0.15808888
0.0059748362 0.023294697 0.15976463
0.0060718874 0.020939678 0.16149151
0.0058222036 0.018326456 0.16279478
0.0066852891 0.014520525 0.16596603
0.0068842648 0.012134179 0.1696365
0.0067748036 0.0092749931 0.17035934
0.0064935558 0.0070616137 0.1725872
0.0059277643 0.0052234866 0.17540151
0.0057056099 0.0018147447 0.17817278
0.0057382486 -0.00087953859 0.17990975
0.0080204923 0.035463944 0.14967701
0.0081212884 0.033375289 0.15175961
0.0085305851 0.031197663 0.15262718
0.0090403277 0.027983218 0.15764979
0.0085446248 0.025717752 0.15983762
0.0082958806 0.023465142 0.16057767
0.008142923 0.021083666 0.16209376
0.0099761058 0.016839914 0.16526675
0.0096918512 0.014468693 0.16703296
0.0094510345 0.012033954 0.16927575
0.0096797245 0.0095179146 0.17004821
0.0094117383 0.0073702107 0.17206866
0.0086901821 0.0049098786 0.17593937
0.0094686765 0.00034592065 0.17891274
0.009246679 -0.0018797482 0.18042728
0.010527695 0.035774574 0.14955257
0.010783411 0.033758841 0.15081643
0.010917397 0.031503223 0.15307765
0.011301649 0.028354639 0.15864162
0.01104537 0.025728615 0.16021733
0.010897785 0.023403168 0.1607434
0.01036096 0.020798743 0.16270068
0.012159323 0.016949583 0.16555841
0.012034516 0.014592922 0.16728933
0.011984156 0.01210115 0.16838163
0.012328685 0.0095041078 0.16943821
0.012013328 0.0072219712 0.17183138
0.011591312 0.0039974828 0.17580515
0.012964175 -0.00043806716 0.17695989
0.013041937 0.036134161 0.14880769
0.013391106 0.03389911 0.15024568
0.013684703 0.030954855 0.15516767
0.01430886 0.027802022 0.15948325
0.013995883 0.025720179 0.16071968
0.013782995 0.023604684 0.16181721
0.013116197 0.020838853 0.16462047
0.014386625 0.017237676 0.16564922
0.014289004 0.014875542 0.16726157
0.014210918 0.012484317 0.16842619
0.014877849 0.0096404329 0.16937569
0.014183294 0.0070486846 0.17170101
0.014230609 0.0039390861 0.17423333
0.014674701 -0.00017527885 0.17429325
0.01505958 -0.002957033 0.17578992
0.015256373 0.036188617 0.14836323
0.016139813 0.033553332 0.15011095
0.016643051 0.029069584 0.15601271
0.016223084 0.025937181 0.16119805
0 0 0 1 0 0 0 1 0 0 0 1 0 0 0 0 0 240 1 0 0
