ply
format ascii 1.0
comment PCL generated
element vertex 346
property float x
property float y
property float z
element camera 1
property float view_px
property float view_py
property float view_pz
property float x_axisx
property float x_axisy
property float x_axisz
property float y_axisx
property float y_axisy
property float y_axisz
property float z_axisx
property float z_axisy
property float z_axisz
property float focal
property float scalex
property float scaley
property float centerx
property float centery
property int viewportx
property int viewporty
property float k1
property float k2
end_header
-0.05835915 0.019796716 0.19224457
-0.058952738 0.017177267 0.19377302
-0.055312239 0.024868337 0.18810765
-0.055805631 0.022975735 0.18951564
-0.05631838 0.020108838 0.19098915
-0.056899365 0.017186306 0.19278203
-0.057781942 0.013971881 0.19453427
-0.057880998 0.010835398 0.19644752
-0.057450414 0.0076981676 0.19798771
-0.053439815 0.027617695 0.18541422
-0.053449981 0.025669109 0.18621822
-0.053230178 0.023282306 0.18758579
-0.053147797 0.02064546 0.18896376
-0.053654514 0.017538596 0.19094536
-0.055032168 0.013844474 0.19316918
-0.05553868 0.010268095 0.19549328
-0.05587269 0.0063288626 0.19755052
-0.055583902 0.002362516 0.19833837
-0.0503974 0.030048644 0.1827255
-0.051061533 0.028756559 0.18355709
-0.051010501 0.026383249 0.18459155
-0.050537508 0.023588801 0.18649486
-0.050986491 0.020884437 0.1885325
-0.051941939 0.017084099 0.19058079
-0.053097069 0.013552173 0.19246554
-0.053328775 0.0094604138 0.19462238
-0.053566437 0.0054556276 0.19581506
-0.053169806 5.3328309e-05 0.19507779
-0.053029694 -0.0046577896 0.19524629
-0.053100847 -0.0076095657 0.19625756
-0.048898578 0.030578531 0.18185599
-0.048581265 0.028887879 0.18243505
-0.048333094 0.026560854 0.18393789
-0.048471 0.023784289 0.18661655
-0.048972841 0.020570341 0.18859196
-0.049649827 0.016784592 0.19023702
-0.050837662 0.012573073 0.19206381
-0.051593628 0.0087221749 0.19320287
-0.051614694 0.0026909614 0.19231322
-0.051099535 -0.0025519282 0.19056661
-0.050969627 -0.0064200344 0.19148298
-0.051243674 -0.0099593531 0.19460022
-0.051661573 -0.010386345 0.19826362
-0.0532992 -0.006867554 0.20372596
-0.052916732 -0.0045680208 0.21116583
-0.047324203 0.033494409 0.18022294
-0.046735916 0.031603221 0.1808344
-0.046137895 0.029748278 0.18166997
-0.045774873 0.027371842 0.18330666
-0.045960229 0.024150105 0.18628186
-0.046103749 0.020215895 0.18831886
-0.046770148 0.01611905 0.18975928
-0.047946598 0.01123849 0.19079606
-0.049683068 0.0064331405 0.19041744
-0.049286883 0.0004366035 0.18809566
-0.048722021 -0.0046430714 0.18656699
-0.048266139 -0.0083438205 0.18730031
-0.046657402 -0.010238081 0.1944928
-0.049937386 -0.0085321749 0.19961794
-0.050937705 -0.0054970658 0.20551383
-0.050922543 -0.0050986409 0.21146142
-0.050308716 -0.0066498592 0.21603055
-0.049687624 -0.011438294 0.22048019
-0.045021534 0.034623887 0.17914286
-0.044063345 0.032490056 0.1803824
-0.043428384 0.030643256 0.18158184
-0.043161135 0.028586684 0.18294314
-0.043184415 0.025680427 0.18509777
-0.04340075 0.01978308 0.1877192
-0.044498242 0.014928707 0.18906681
-0.046526752 0.0097312536 0.18924917
-0.047235418 0.0038607817 0.18644407
-0.045908339 -0.0019844363 0.18516746
-0.044750251 -0.006591192 0.18604967
-0.043423314 -0.0088821556 0.19073488
-0.043754499 -0.0076463199 0.19716802
-0.046417199 -0.0062199077 0.20268787
-0.047357995 -0.0047279624 0.20809293
-0.047447991 -0.005627953 0.21246922
-0.047015484 -0.0082739433 0.2167186
-0.048099577 -0.014171054 0.22122592
-0.048692886 -0.020115519 0.22423558
-0.047731187 -0.024036858 0.22564946
-0.042823043 0.04001198 0.1772828
-0.042308494 0.037959021 0.1779004
-0.040956609 0.036362313 0.17900971
-0.040537458 0.032622889 0.18134348
-0.040546693 0.029662609 0.18314005
-0.040254407 0.026419504 0.18536942
-0.040973768 0.019865116 0.18752767
-0.042291716 0.013708727 0.18825836
-0.044329379 0.0078960927 0.18657498
-0.044713415 0.0018042839 0.18378088
-0.04252864 -0.0041091214 0.18520096
-0.040865611 -0.0064662909 0.18849137
-0.040577643 -0.0058677457 0.19405398
-0.041816872 -0.0053061992 0.19881205
-0.042975388 -0.0045049153 0.20380081
-0.04415771 -0.0051292623 0.20911427
-0.043976206 -0.007299352 0.21392064
-0.044214804 -0.011018022 0.21707347
-0.045099873 -0.014484515 0.22003736
-0.045316946 -0.018953614 0.22348714
-0.045160223 -0.02385851 0.22547071
-0.039490566 0.044091113 0.17442696
-0.038253143 0.043082219 0.17565839
-0.037033182 0.040987026 0.17773484
-0.036113918 0.037069965 0.18006414
-0.037173681 0.031240948 0.18338756
-0.03712929 0.027104322 0.1860221
-0.038290326 0.019454608 0.18761079
-0.039163124 0.013399425 0.18783286
-0.040693019 0.0081157899 0.18562722
-0.042535957 0.00032262597 0.18324029
-0.039800387 -0.0035534981 0.18639162
-0.038343556 -0.0039193779 0.19022131
-0.038431145 -0.003915967 0.19408543
-0.039213091 -0.0036946584 0.19935086
-0.039896496 -0.0035999292 0.20667328
-0.04100455 -0.0063894843 0.21129081
-0.041162413 -0.009292081 0.2149694
-0.041339267 -0.012618491 0.21720897
-0.041905127 -0.015721342 0.21969035
-0.041463301 -0.019081885 0.22249445
-0.041453518 -0.022933487 0.22539611
-0.041293662 -0.026072852 0.22648425
-0.034380544 0.045608185 0.17583393
-0.034133751 0.044085838 0.17620105
-0.033475764 0.041938771 0.17773518
-0.032654446 0.039090242 0.17982796
-0.033117969 0.033421718 0.18367337
-0.034560006 0.028102916 0.18623754
-0.036133457 0.019381428 0.18792465
-0.036313888 0.014190302 0.1880122
-0.037844464 0.0083086826 0.18617454
-0.040356308 0.0009700096 0.18308628
-0.037977211 -0.00083722494 0.18622829
-0.036807775 -0.0011666039 0.19044587
-0.036652859 -0.0016332538 0.19486083
-0.037226271 -0.0027044353 0.1998245
-0.036989611 -0.0039856583 0.2082964
-0.038084753 -0.0074067651 0.21279992
-0.03837689 -0.010773242 0.21526785
-0.038430054 -0.013918729 0.21827522
-0.038620096 -0.01693316 0.22034164
-0.038298022 -0.019250147 0.22258177
-0.037588615 -0.021956164 0.22473849
-0.037697885 -0.025034556 0.22680917
-0.031647131 0.046757452 0.17525087
-0.031021757 0.045307066 0.17601837
-0.030025192 0.042962059 0.17754851
-0.029184392 0.040541843 0.17978559
-0.029537052 0.036274895 0.18286781
-0.03143061 0.029386627 0.18655086
-0.033800796 0.019947333 0.18858106
-0.033773646 0.015672816 0.18879801
-0.034755766 0.010754826 0.18799159
-0.037473287 0.004631245 0.18482031
-0.036121991 0.0040467572 0.18656445
-0.034740347 0.0029803158 0.18955708
-0.03396944 0.0010451043 0.19376481
-0.033988658 -0.0010385098 0.1977137
-0.034462079 -0.0046776822 0.21003248
-0.034995046 -0.0080755753 0.21353379
-0.035910744 -0.010908457 0.21600761
-0.034901332 -0.01481589 0.21976765
-0.035280395 -0.017517775 0.22153355
-0.035256047 -0.019498507 0.22322778
-0.035051443 -0.022183141 0.22462679
-0.035322957 -0.023955602 0.22557595
-0.036052532 -0.024865424 0.22668505
-0.02761833 0.046887003 0.17589577
-0.027185915 0.04539505 0.17680001
-0.026177162 0.043140724 0.17850752
-0.025735775 0.040521875 0.18035719
-0.026717819 0.037044488 0.1830689
-0.028664747 0.030680306 0.18705533
-0.031211991 0.020696478 0.18966368
-0.03127436 0.017083105 0.18996456
-0.030949028 0.015219043 0.19030809
-0.033479545 0.011475696 0.18836801
-0.033138581 0.0095658433 0.18817335
-0.032190464 0.0066720298 0.19005162
-0.030937847 0.0041378806 0.19344075
-0.029371839 0.0019040928 0.19966201
-0.032147385 -0.0030863476 0.20849676
-0.033156186 -0.0075833942 0.21433231
-0.032052293 -0.012452238 0.21899752
-0.032197572 -0.016426943 0.22163847
-0.032700047 -0.018626891 0.22258869
-0.033415038 -0.021069918 0.22442761
-0.033235621 -0.022371823 0.22516915
-0.033520699 -0.023432171 0.2262263
-0.033196259 -0.024841668 0.22867003
-0.023081001 0.044703316 0.17855544
-0.022745801 0.043157261 0.17983481
-0.022887802 0.040796317 0.18116613
-0.02342598 0.03847377 0.18228504
-0.024572471 0.036059994 0.18432002
-0.025931427 0.030241847 0.18877694
-0.027823357 0.022981184 0.191487
-0.028108479 0.020168316 0.19190885
-0.028510271 0.018784372 0.19200043
-0.027834034 0.018724376 0.19234514
-0.027723422 0.016306166 0.19243605
-0.027237926 0.013469859 0.19327505
-0.025495866 0.0091357473 0.19674803
-0.024444886 0.0033429712 0.20602821
-0.028488236 -0.0032197735 0.21169856
-0.03040714 -0.0077704485 0.21606717
-0.029684404 -0.012233471 0.2193701
-0.029481677 -0.015522987 0.2237215
-0.02954806 -0.018014384 0.22414844
-0.030011173 -0.020154046 0.22501637
-0.030423615 -0.021221252 0.22559124
-0.030281497 -0.022515098 0.22652833
-0.029999036 -0.024851628 0.22894102
-0.019631905 0.041392114 0.18214259
-0.020122528 0.039350428 0.18356004
-0.020634927 0.036831591 0.18456884
-0.021202881 0.034337513 0.1864734
-0.020987507 0.031071167 0.19000109
-0.020664385 0.025803616 0.19422159
-0.022493966 0.023794806 0.19345389
-0.024895241 0.022093792 0.19360991
-0.023479396 0.020917531 0.19581227
-0.023167921 0.018842079 0.1967124
-0.022748096 0.016195523 0.19740747
-0.021152046 0.010152054 0.20180988
-0.021943817 0.0042812359 0.20802401
-0.024519019 -0.00099009904 0.21276832
-0.026567975 -0.0074858009 0.2177916
-0.026708987 -0.011824623 0.22125365
-0.027105933 -0.015343999 0.22456768
-0.027635705 -0.017827839 0.22518629
-0.027759606 -0.019481611 0.22565684
-0.027686834 -0.020304644 0.22533287
-0.027543783 -0.022019127 0.22592138
-0.027089845 -0.024937795 0.22929175
-0.017140049 0.038326524 0.18547677
-0.01722124 0.036159731 0.18663745
-0.017637484 0.033288702 0.18870135
-0.018087303 0.029691972 0.19179447
-0.015097284 0.026104812 0.19586
-0.01683202 0.024316609 0.19650166
-0.019968588 0.022636797 0.19697437
-0.019679496 0.020357294 0.19888918
-0.019373899 0.018590668 0.19971891
-0.018525576 0.01568524 0.20132637
-0.017997839 0.0098679522 0.20595632
-0.019136976 0.0047162124 0.21028794
-0.021265948 0.00039181748 0.21387972
-0.023318479 -0.0072924518 0.21938118
-0.023344541 -0.011726052 0.22356667
-0.024168689 -0.014696751 0.2255514
-0.025049452 -0.017694451 0.22596957
-0.025087034 -0.019432811 0.22621387
-0.025194179 -0.020334581 0.2256746
-0.024990747 -0.022151748 0.22675635
-0.023991508 -0.025404166 0.23103704
-0.014171136 0.035581674 0.18812911
-0.014472221 0.032495551 0.19015394
-0.0141142 0.029291837 0.19274004
-0.010641668 0.026091225 0.1966332
-0.012240694 0.023955917 0.19891366
-0.01567308 0.022503877 0.19878742
-0.016437838 0.019678639 0.20072474
-0.015009276 0.016659252 0.20319296
-0.01396358 0.013167557 0.20567161
-0.014529494 0.0099798236 0.2082818
-0.015812645 0.0058225896 0.21153739
-0.017222192 0.0015503567 0.21579669
-0.019941619 -0.0074221655 0.22156191
-0.020067547 -0.011230604 0.22457552
-0.021094956 -0.014079448 0.22599815
-0.022642277 -0.016346291 0.22619547
-0.022880072 -0.018601764 0.2264481
-0.022490149 -0.020414185 0.22668789
-0.021064837 -0.023487277 0.22994468
-0.019648712 -0.027725879 0.23526677
-0.01089889 0.031937581 0.19134806
-0.008349753 0.029653141 0.19409814
-0.0065884683 0.026135584 0.19853455
-0.0073579713 0.023498483 0.20135173
-0.010699023 0.022198867 0.20133114
-0.013059078 0.019848369 0.2022073
-0.011633362 0.016257528 0.20507911
-0.011265368 0.012754515 0.20755641
-0.011635061 0.010001292 0.20930733
-0.01275056 0.0070005381 0.21217386
-0.013363632 0.0011030156 0.21809132
-0.014973949 -0.0056308499 0.22282323
-0.016629722 -0.0092395609 0.22452667
-0.01704018 -0.012774295 0.22634287
-0.019436691 -0.014737398 0.22624381
-0.020054493 -0.017575363 0.22724441
-0.019414786 -0.020664474 0.22836418
-0.016339194 -0.024587451 0.23336996
-0.0040550488 0.028557282 0.19727163
-0.0019996583 0.025875021 0.20012163
-0.0014255747 0.023508606 0.20185044
-0.0034708204 0.021445198 0.20346043
-0.0077815205 0.019857423 0.20400895
-0.0088375425 0.01665272 0.20635144
-0.0087534664 0.012771248 0.20863251
-0.0091249049 0.010285776 0.2104107
-0.0097982148 0.0068436316 0.21437086
-0.0094674984 -8.9328802e-05 0.2201764
-0.010632259 -0.0056440001 0.22357185
-0.011733229 -0.0086606946 0.22453474
-0.012335448 -0.012058143 0.22649498
-0.013692132 -0.014830495 0.2275127
-0.015910754 -0.016946821 0.22813429
-0.01644521 -0.020289963 0.2298203
-0.014286015 -0.023364853 0.23287754
0.00029380806 0.027056061 0.19951759
0.0021897824 0.025203502 0.20041481
0.0026830742 0.022839867 0.20188697
0.0015041294 0.020783223 0.20347948
0.00023309691 0.018912714 0.20530213
-0.001401294 0.016670844 0.20707344
-0.004633382 0.013011249 0.20948668
-0.0049908361 0.0087476457 0.21319602
-0.0047575673 0.0043344134 0.21726207
-0.0048590852 -0.00066025363 0.22108008
-0.0064415121 -0.0053163106 0.22376138
-0.0071260682 -0.0085849259 0.22481063
-0.007688106 -0.011670709 0.22653641
-0.009142492 -0.014460041 0.22795533
0.004913013 0.023881 0.20071085
0.0053784228 0.022067547 0.20168981
0.0045293802 0.020276703 0.20301129
0.0041398345 0.01848603 0.20491236
0.0037770595 0.016521467 0.2071802
0.0027284361 0.012249612 0.21048981
0.0015253179 0.0069147451 0.21409018
0.00010706121 0.0031491488 0.21782066
-0.0010829085 -0.00070258474 0.2208764
-0.0027454433 -0.0050175795 0.22316186
-0.0040944819 -0.0083501497 0.22501484
0.0077082198 0.021496873 0.20192756
0.0074714622 0.019902846 0.20303907
0.0071904566 0.018113166 0.20489818
0.0067755324 0.015925152 0.20757475
0.0053825597 0.01244859 0.21070141
0.0045223073 0.0087293712 0.21224001
0 0 0 1 0 0 0 1 0 0 0 1 0 0 0 0 0 346 1 0 0
