ply
format ascii 1.0
comment PCL generated
element vertex 346
property float x
property float y
property float z
element camera 1
property float view_px
property float view_py
property float view_pz
property float x_axisx
property float x_axisy
property float x_axisz
property float y_axisx
property float y_axisy
property float y_axisz
property float z_axisx
property float z_axisy
property float z_axisz
property float focal
property float scalex
property float scaley
property float centerx
property float centery
property int viewportx
property int viewporty
property float k1
property float k2
end_header
-0.058657575 0.019670732 0.19250898
-0.059302632 0.017052766 0.19400425
-0.05553117 0.024745006 0.18848218
-0.056033183 0.022867382 0.1898939
-0.05656768 0.020006239 0.19135541
-0.057206903 0.017087638 0.19310328
-0.058112063 0.013898002 0.19488432
-0.058221031 0.010821857 0.19691436
-0.057760283 0.0077287718 0.19856308
-0.053669255 0.027442567 0.18572976
-0.053655904 0.025529452 0.18662287
-0.053417403 0.023193069 0.18810147
-0.053331673 0.020588657 0.18951449
-0.053918138 0.017441036 0.19139344
-0.055310711 0.013803617 0.19365446
-0.055816818 0.010296782 0.19610977
-0.056150138 0.0063672443 0.19819283
-0.056009986 0.0024038877 0.19931097
-0.05061575 0.029787332 0.18297085
-0.051280573 0.028538322 0.18385577
-0.051193438 0.026228642 0.1850242
-0.050714102 0.023519663 0.18715475
-0.051209133 0.020861162 0.18921794
-0.052212272 0.017004579 0.19111457
-0.053404726 0.01352277 0.193042
-0.053572115 0.0094876429 0.19535135
-0.053891659 0.0054833675 0.19683459
-0.053547066 -9.0896958e-07 0.19609199
-0.053446908 -0.0047520814 0.19619884
-0.053559721 -0.0077266437 0.1971689
-0.04911704 0.030291812 0.18210496
-0.048784561 0.02863816 0.18277428
-0.048526008 0.026449131 0.18444668
-0.048684612 0.023761092 0.18735632
-0.049237456 0.02057766 0.18941346
-0.049933553 0.016746985 0.19100134
-0.05113763 0.01256201 0.1928305
-0.051822178 0.0087336143 0.19398353
-0.05188432 0.0026417437 0.19339743
-0.051369734 -0.002609744 0.19163516
-0.051282164 -0.0064911023 0.19251852
-0.051644593 -0.010081199 0.19557431
-0.052162535 -0.010543157 0.19919629
-0.053935617 -0.0073092501 0.20441213
-0.053835634 -0.0054560541 0.2115614
-0.047578387 0.033162076 0.18043108
-0.046955481 0.031293258 0.18108584
-0.046314321 0.029497176 0.18200976
-0.045967735 0.027258676 0.18383414
-0.046180602 0.024163041 0.18711883
-0.046384189 0.020248903 0.18937853
-0.04707313 0.01611284 0.19081882
-0.048234362 0.011210591 0.19183357
-0.049977105 0.0063612526 0.19165573
-0.049492743 0.00038027996 0.18927649
-0.04889942 -0.0046977517 0.18773197
-0.048466485 -0.0084092487 0.18845353
-0.047032934 -0.010387945 0.19563591
-0.050474744 -0.0087425625 0.20057836
-0.05168096 -0.00608641 0.20608728
-0.051814009 -0.0059025376 0.21194379
-0.051146589 -0.007487379 0.21657801
-0.049897552 -0.011760741 0.22087529
-0.045264713 0.034248549 0.17933668
-0.044264022 0.032179534 0.18066269
-0.043616589 0.030397305 0.1819768
-0.043349102 0.02844427 0.18346408
-0.043393675 0.025670463 0.1858421
-0.043755706 0.019729774 0.18893006
-0.044918932 0.014842126 0.19031255
-0.046868447 0.0096406331 0.19040425
-0.047459062 0.0037688164 0.18746164
-0.046053383 -0.0020506165 0.1864756
-0.044911835 -0.0066514774 0.1873689
-0.043735348 -0.0089758653 0.19208275
-0.044233061 -0.0077954703 0.19844453
-0.047080345 -0.0065202885 0.20363869
-0.048195001 -0.0052765235 0.20872843
-0.048364375 -0.0062552881 0.21307853
-0.047712684 -0.0088756615 0.21737213
-0.048290588 -0.014504959 0.22159313
-0.048860248 -0.020394886 0.22453806
-0.047845118 -0.02429321 0.2259175
-0.043103863 0.039774783 0.17739718
-0.042555895 0.037678249 0.17803103
-0.041155193 0.036116283 0.17915872
-0.040715776 0.032385837 0.18168251
-0.04071378 0.029531645 0.18364404
-0.040461935 0.026398899 0.1860972
-0.041434232 0.019737624 0.18876407
-0.042781409 0.013589912 0.18955176
-0.044816427 0.0076348367 0.18834755
-0.044875525 0.001643289 0.18535665
-0.042683657 -0.0041467883 0.18666771
-0.041117314 -0.0064769764 0.1900218
-0.041035917 -0.0059597897 0.19560862
-0.042400543 -0.0054299221 0.20018911
-0.043740749 -0.0046878862 0.2049588
-0.045033254 -0.0054889172 0.20991743
-0.044820279 -0.0076985816 0.21468969
-0.044438649 -0.011110364 0.21765767
-0.045271114 -0.014701449 0.22047029
-0.045502782 -0.019185824 0.22386083
-0.045276657 -0.024077984 0.22576798
-0.039754424 0.043932877 0.17438126
-0.038483538 0.042945277 0.17559785
-0.037214346 0.040876638 0.17766337
-0.036249842 0.036973696 0.18013112
-0.037345633 0.031187752 0.18382946
-0.037360732 0.027096303 0.18674968
-0.038828779 0.019307384 0.18888339
-0.039725088 0.013235667 0.18920697
-0.041189443 0.0078502772 0.18770538
-0.042668004 0.00021424191 0.18488917
-0.040027212 -0.0035458847 0.18801399
-0.038737331 -0.0039284625 0.19191161
-0.03892215 -0.0039591803 0.19573042
-0.039858136 -0.003729491 0.200874
-0.040900659 -0.0035315321 0.20796466
-0.041946765 -0.0064314874 0.21231422
-0.04186276 -0.0094219316 0.21579269
-0.041555535 -0.012643686 0.21777359
-0.042061411 -0.015790448 0.22014728
-0.041606341 -0.019217504 0.2228996
-0.041578416 -0.023104601 0.22575492
-0.041378483 -0.026236637 0.22679012
-0.034573149 0.045456287 0.17566755
-0.034318991 0.043943051 0.176055
-0.033634964 0.041831303 0.17761566
-0.032774474 0.039022673 0.17977908
-0.03327208 0.033408668 0.18398722
-0.034810606 0.028062982 0.1868946
-0.036704242 0.019193655 0.18921523
-0.036936726 0.014005272 0.18944696
-0.038323477 0.0081960997 0.1877272
-0.040524811 0.00090192672 0.18490359
-0.038294561 -0.00080398109 0.18802014
-0.037316855 -0.0011704648 0.19229613
-0.037207685 -0.0016096792 0.19658668
-0.037924021 -0.002622002 0.20145538
-0.038167913 -0.0034170726 0.20991513
-0.039056502 -0.0070646745 0.2140657
-0.038713861 -0.010680082 0.21591921
-0.038666096 -0.013900632 0.21881746
-0.03880503 -0.017004348 0.22071934
-0.038427725 -0.019350098 0.2229324
-0.037697338 -0.022043834 0.22510484
-0.037819318 -0.025081556 0.22719517
-0.031843357 0.046598163 0.1750413
-0.031202374 0.045165055 0.17582875
-0.030170374 0.042849187 0.17741065
-0.029296305 0.040472064 0.17973845
-0.029662525 0.036267504 0.183019
-0.031664494 0.029349724 0.1871241
-0.034366652 0.019745758 0.18982109
-0.034436855 0.015485149 0.19024393
-0.03540476 0.010662492 0.18963324
-0.03813367 0.0045492626 0.18714149
-0.036959428 0.0040252847 0.18888593
-0.035616957 0.002930101 0.19186631
-0.034721054 0.0010215241 0.19589213
-0.034674246 -0.00076380727 0.19953163
-0.035059698 -0.0042554033 0.21103303
-0.035468809 -0.0077995504 0.21438339
-0.036257435 -0.010772619 0.21665587
-0.035152066 -0.014855513 0.22018151
-0.035463784 -0.017613916 0.22186086
-0.035402916 -0.01959469 0.22357926
-0.03523875 -0.022217114 0.22505917
-0.035514429 -0.023958383 0.22602727
-0.036221042 -0.02484864 0.22710845
-0.027786138 0.046735059 0.17570664
-0.027333794 0.045262679 0.17665388
-0.026287079 0.043038186 0.17845707
-0.025833856 0.040463921 0.18039556
-0.026822865 0.037033819 0.18319398
-0.028835459 0.030653477 0.187488
-0.031763081 0.020490093 0.19081144
-0.031930394 0.016917322 0.19128762
-0.031636029 0.015090287 0.19171606
-0.034181714 0.01138149 0.1899744
-0.033851501 0.0095301634 0.18980598
-0.032775741 0.0066484632 0.19157298
-0.031383548 0.0040768213 0.19484073
-0.029859742 0.0020913067 0.20091958
-0.032845579 -0.0026490169 0.20945312
-0.033702575 -0.0073674838 0.21511832
-0.032406785 -0.012449584 0.21952768
-0.032415699 -0.016529208 0.22206578
-0.032917202 -0.018698454 0.22305073
-0.033636149 -0.021101216 0.2249247
-0.033467282 -0.022373075 0.22567935
-0.03375702 -0.023427574 0.22671078
-0.033416416 -0.024848703 0.229114
-0.023204112 0.044598058 0.17852201
-0.022856155 0.04307403 0.1798375
-0.022974582 0.040737398 0.1812105
-0.023500316 0.03843604 0.18236883
-0.02463413 0.036052089 0.18446077
-0.026105437 0.030132676 0.18913959
-0.028273599 0.022789113 0.19235764
-0.028634988 0.020063113 0.19293839
-0.029087393 0.018699247 0.19311264
-0.028387822 0.018672682 0.19342595
-0.028350549 0.016276946 0.19362852
-0.02788925 0.013514084 0.19457461
-0.026123105 0.0093308687 0.19799849
-0.024977449 0.0037767079 0.20689256
-0.029195931 -0.0028620001 0.21243821
-0.031000948 -0.0076496811 0.21668099
-0.030173067 -0.012247001 0.22001797
-0.029810207 -0.01559701 0.22424822
-0.029839762 -0.018056093 0.22473843
-0.030302349 -0.020150358 0.22559698
-0.030699145 -0.021197433 0.22615056
-0.030530278 -0.022474041 0.22704162
-0.030220684 -0.024838297 0.22937855
-0.019714735 0.041316677 0.18214048
-0.020194776 0.039294906 0.18355651
-0.020685535 0.03678631 0.18461615
-0.021285841 0.034291703 0.18657763
-0.021180291 0.030965216 0.19017579
-0.020828782 0.025506856 0.19437799
-0.022731619 0.023493402 0.19373557
-0.025204549 0.021975186 0.19418293
-0.023696456 0.020929273 0.19628291
-0.023455467 0.0189454 0.19733265
-0.023164693 0.016384972 0.19823207
-0.021682473 0.010486146 0.20269221
-0.022375772 0.004657622 0.20873722
-0.025089975 -0.00059667305 0.21341924
-0.027157854 -0.0073929587 0.21836931
-0.027236169 -0.011840669 0.22187416
-0.027480356 -0.015452131 0.22510527
-0.027988059 -0.017927099 0.22574018
-0.028102875 -0.019475974 0.22621916
-0.028024673 -0.020276511 0.22590205
-0.02782256 -0.021963997 0.22645947
-0.027292602 -0.024917988 0.22967683
-0.017234001 0.038246814 0.18545224
-0.017339595 0.036082909 0.1866716
-0.017811883 0.033195432 0.18882433
-0.018327741 0.029537141 0.1920056
-0.015311451 0.025961794 0.19612305
-0.016883787 0.024110641 0.19659702
-0.019990593 0.022464471 0.19703546
-0.019762965 0.020324057 0.19911478
-0.019534497 0.01863786 0.20005839
-0.01881258 0.015836291 0.20187791
-0.018360604 0.010191903 0.20661817
-0.019502815 0.0050112931 0.21084028
-0.021714317 0.0007214786 0.2144286
-0.023902753 -0.0072235111 0.21989952
-0.023804987 -0.011774742 0.22405839
-0.024550362 -0.014782547 0.22600417
-0.025438743 -0.017800463 0.22638632
-0.025487402 -0.019489914 0.22667119
-0.02556775 -0.020327508 0.22616972
-0.02532143 -0.022092095 0.22720231
-0.024192661 -0.025412077 0.23133127
-0.014312165 0.035508387 0.18817396
-0.014671878 0.032395296 0.19030245
-0.014356296 0.029155461 0.19297597
-0.010845993 0.026073597 0.19684616
-0.012368166 0.023938024 0.19915976
-0.015761413 0.022352081 0.19893488
-0.016563885 0.019633455 0.20099349
-0.015231957 0.016738836 0.20356956
-0.014203282 0.013324047 0.20600429
-0.014701782 0.010219534 0.20865014
-0.016067678 0.0060752505 0.21196038
-0.017515928 0.001752075 0.2162004
-0.02045412 -0.0074231024 0.22201252
-0.020482445 -0.011286865 0.2249662
-0.02145368 -0.0141307 0.22634324
-0.023025258 -0.016421948 0.22654173
-0.023266902 -0.018663412 0.22679634
-0.022861805 -0.020417886 0.2270375
-0.021307865 -0.023521274 0.23019965
-0.019766025 -0.027895587 0.23543927
-0.011081427 0.03190463 0.19150701
-0.0085171154 0.029657923 0.19420449
-0.006729092 0.026140394 0.19857857
-0.0074696499 0.023566162 0.20149153
-0.010837604 0.022226484 0.20158333
-0.01324554 0.019857643 0.20252734
-0.011802227 0.016311543 0.20529111
-0.011384659 0.012793086 0.20767719
-0.011749661 0.010115525 0.2094595
-0.012863685 0.0072376975 0.21243192
-0.013579337 0.0011367117 0.21842344
-0.015357202 -0.0057164594 0.22320935
-0.017067248 -0.0092702052 0.22489406
-0.01742927 -0.01282994 0.22663607
-0.019838206 -0.014796644 0.22652069
-0.020414898 -0.017635506 0.22747153
-0.019730087 -0.020715274 0.22855343
-0.016514156 -0.024694405 0.23352534
-0.0041334871 0.028536731 0.19721013
-0.0019639295 0.025854468 0.20005603
-0.0013415947 0.023516506 0.20183012
-0.0034395128 0.021514094 0.20352797
-0.0079082726 0.019910786 0.20419811
-0.0089092078 0.016602509 0.20636256
-0.0088173999 0.012725713 0.20859213
-0.0091789225 0.010324342 0.21041927
-0.0098356036 0.0070020854 0.21452826
-0.0096652126 -0.00020736114 0.22055528
-0.010880497 -0.0057970998 0.2238521
-0.012041387 -0.0087586138 0.22479239
-0.012644452 -0.012135012 0.22672637
-0.014030683 -0.014918137 0.22771917
-0.016232753 -0.017034393 0.22823676
-0.016736982 -0.020385152 0.22993408
-0.014493758 -0.023486968 0.23300113
0.0003878478 0.026992001 0.19941491
0.0023247248 0.025150644 0.20037033
0.0028241214 0.022805979 0.20188835
0.0016069632 0.020759199 0.20351093
0.00030695627 0.018892292 0.20533137
-0.0013964386 0.016575688 0.20703956
-0.0046831649 0.012868197 0.20932983
-0.0050279442 0.008755601 0.21320494
-0.0048113591 0.0043214541 0.21753974
-0.0049953605 -0.00081293576 0.22149126
-0.0066133519 -0.0055037495 0.22401328
-0.0073022828 -0.008716655 0.22501038
-0.007874351 -0.011769176 0.22669436
-0.0093509462 -0.014535701 0.22811438
0.0050408253 0.023808101 0.20068747
0.0055060824 0.021991955 0.20171322
0.0046285475 0.020203762 0.20306009
0.0042110323 0.018397082 0.20496002
0.003820285 0.016399927 0.20720634
0.0026694008 0.012070371 0.21057929
0.0014873096 0.0068080337 0.21433334
7.721781e-05 0.0030760372 0.21818678
-0.001155879 -0.00080340268 0.22127348
-0.0028531819 -0.0051757232 0.2234312
-0.0042082127 -0.0084855556 0.22521883
0.0078270463 0.021382872 0.20196652
0.007562757 0.019781534 0.20308849
0.0072593316 0.01796837 0.2049647
0.0068117934 0.015745092 0.20762995
0.0053292434 0.01220827 0.21078625
0.0044493219 0.0085510919 0.21237864
0 0 0 1 0 0 0 1 0 0 0 1 0 0 0 0 0 346 1 0 0
