ply
format ascii 1.0
comment PCL generated
element vertex 346
property float x
property float y
property float z
element camera 1
property float view_px
property float view_py
property float view_pz
property float x_axisx
property float x_axisy
property float x_axisz
property float y_axisx
property float y_axisy
property float y_axisz
property float z_axisx
property float z_axisy
property float z_axisz
property float focal
property float scalex
property float scaley
property float centerx
property float centery
property int viewportx
property int viewporty
property float k1
property float k2
end_header
-0.057639066 0.024031498 0.18966742
-0.057792649 0.021267014 0.19143149
-0.054664444 0.029683376 0.18477903
-0.055390041 0.027394569 0.18620247
-0.055621829 0.024437334 0.18779668
-0.05580673 0.021083215 0.19013625
-0.056196176 0.01740081 0.19212887
-0.056367293 0.013611196 0.19382948
-0.056096543 0.010581628 0.19507566
-0.051158812 0.032475103 0.18142462
-0.051776621 0.030576088 0.18267807
-0.052429255 0.027718628 0.18400487
-0.052531358 0.024723256 0.18552597
-0.052686594 0.021424668 0.18819481
-0.053275574 0.017212929 0.19039403
-0.053832866 0.013169595 0.1923492
-0.054162659 0.0094509823 0.19479826
-0.054091454 0.0057081082 0.19501877
-0.047825281 0.035190456 0.17875905
-0.048364464 0.033389632 0.17961434
-0.0486391 0.030865107 0.18086915
-0.04896808 0.027744962 0.18235484
-0.049587976 0.024941111 0.18494174
-0.05013397 0.021060972 0.18772225
-0.050770823 0.017115474 0.18972698
-0.051072527 0.01256463 0.19200538
-0.051261492 0.0088340919 0.19364844
-0.051391535 0.003791932 0.19402348
-0.05186699 -0.00049847306 0.19518697
-0.052172046 -0.0040311599 0.19608627
-0.045786858 0.035933964 0.17781691
-0.045516666 0.033592489 0.17872111
-0.045495272 0.030776985 0.1801974
-0.046071935 0.027665224 0.18262511
-0.046819229 0.024681885 0.18502355
-0.047378641 0.02096138 0.1873842
-0.048045956 0.016796064 0.18942562
-0.048486076 0.012400824 0.1913621
-0.048651014 0.0069524436 0.19204962
-0.048723411 0.0023853763 0.1923741
-0.048935879 -0.0014226146 0.1935827
-0.049390584 -0.0060424814 0.19515942
-0.049627069 -0.0087663252 0.19968314
-0.052152239 -0.0083361892 0.20566268
-0.05214766 -0.0091122175 0.21036224
-0.043296833 0.039164715 0.17636412
-0.043129388 0.0369347 0.17746152
-0.042749636 0.034434557 0.17878236
-0.042625878 0.031668823 0.18042475
-0.043077592 0.027913583 0.1827665
-0.043604277 0.024670046 0.18507944
-0.044252776 0.02087554 0.18686512
-0.044768211 0.016643967 0.18848962
-0.045735657 0.011622629 0.19014926
-0.045914065 0.0060803769 0.19056807
-0.045908537 0.0014536141 0.19045411
-0.04555792 -0.0025446906 0.1912328
-0.044359267 -0.0062676403 0.19568583
-0.047817223 -0.0074407463 0.20144166
-0.049456183 -0.0079318043 0.20657659
-0.049842101 -0.0094406176 0.21039008
-0.04981992 -0.011256435 0.21394552
-0.049639571 -0.013611773 0.21866778
-0.040780608 0.04039159 0.17641559
-0.040258691 0.037831716 0.1779622
-0.039793011 0.035364319 0.17916365
-0.03954155 0.032433327 0.18097878
-0.039638452 0.029089021 0.18307835
-0.040094376 0.02524798 0.18489078
-0.040974282 0.020833779 0.18662466
-0.041806735 0.01587932 0.18804465
-0.042759418 0.010430341 0.19052145
-0.042350598 0.0052373712 0.18987893
-0.041968733 0.00030800627 0.1900712
-0.040978473 -0.0029970589 0.19331025
-0.041558586 -0.0050377534 0.19805746
-0.044122655 -0.0069748783 0.20238709
-0.046025019 -0.0075513576 0.20748404
-0.046205785 -0.0090592271 0.21139112
-0.04630347 -0.011166258 0.21429829
-0.046611838 -0.014053523 0.21850897
-0.047015745 -0.018016227 0.22271915
-0.046308201 -0.021545175 0.22539178
-0.038191561 0.043824989 0.17559321
-0.037896968 0.042080231 0.1766095
-0.037212867 0.039594419 0.1780816
-0.03654154 0.036423005 0.17974681
-0.036587272 0.03303181 0.18172362
-0.036602329 0.029779427 0.18380299
-0.037088219 0.025811546 0.18564998
-0.037632201 0.020591773 0.18755956
-0.03860905 0.014565044 0.18874414
-0.039476514 0.0087604104 0.18971319
-0.038781285 0.003872124 0.19020912
-0.037992116 0.00051267276 0.19249198
-0.037879802 -0.0016616024 0.19658302
-0.038914774 -0.0038427818 0.20017073
-0.040753383 -0.0060214968 0.20394495
-0.042444278 -0.0074391961 0.20815992
-0.04271039 -0.0090761194 0.2119839
-0.04269506 -0.011911121 0.21458797
-0.043384243 -0.014289244 0.21778068
-0.043187875 -0.01758156 0.22078514
-0.043624647 -0.021687163 0.22488382
-0.034496594 0.045425549 0.1750651
-0.034040701 0.043863576 0.1765954
-0.033769745 0.041243739 0.1785706
-0.033460066 0.037996285 0.17977412
-0.033539124 0.03402688 0.18209347
-0.033651881 0.030313991 0.18473774
-0.034309138 0.025591124 0.18694568
-0.034795702 0.020564405 0.1888915
-0.035340153 0.014833384 0.19026141
-0.036687203 0.0083441008 0.19063886
-0.035605796 0.0043455837 0.19217528
-0.035000242 0.0015722275 0.19479777
-0.03505528 -0.00059572607 0.1979433
-0.03602675 -0.0027214086 0.20198984
-0.037526555 -0.0050702458 0.20621023
-0.038744565 -0.0073501277 0.20954497
-0.039438222 -0.0092904912 0.21301232
-0.039513901 -0.011968615 0.21549641
-0.039764598 -0.014789223 0.21776618
-0.039361872 -0.017794024 0.21998146
-0.039683692 -0.020986954 0.2237393
-0.03960143 -0.024041835 0.2261073
-0.030675681 0.04592495 0.1771756
-0.030615499 0.044050131 0.17751607
-0.030636996 0.041548502 0.17896515
-0.030492228 0.038473412 0.18069556
-0.030509705 0.035088461 0.182501
-0.030887425 0.030841487 0.18506059
-0.031731475 0.025238935 0.1882042
-0.03193818 0.020935945 0.18974973
-0.032563064 0.015172545 0.19156085
-0.033905033 0.0091841966 0.19163625
-0.032831788 0.0061047701 0.19403829
-0.032195818 0.002917873 0.19653261
-0.032394964 0.0011000375 0.19977437
-0.033321362 -0.0014858755 0.20341258
-0.034282293 -0.0042469064 0.20784667
-0.035457227 -0.0067876554 0.21123026
-0.036016293 -0.0093677035 0.21418053
-0.036454055 -0.011755464 0.21660504
-0.036587812 -0.01449016 0.21881224
-0.036499549 -0.017047405 0.22126158
-0.035939522 -0.02009974 0.22333063
-0.036229149 -0.023482472 0.22646971
-0.027837561 0.046429202 0.1771699
-0.027624011 0.044485547 0.1777831
-0.027420916 0.041625537 0.17923041
-0.027485151 0.038680919 0.18126199
-0.027544022 0.03561746 0.18296561
-0.028171608 0.031055219 0.18574379
-0.028927248 0.025305545 0.18928674
-0.029234735 0.021461302 0.19064185
-0.029660888 0.016298277 0.19279514
-0.030520648 0.010563639 0.19262211
-0.029625965 0.0085068885 0.19504973
-0.029092504 0.0059366175 0.19770001
-0.029123472 0.0031941806 0.20074579
-0.02970699 0.0015015524 0.2027932
-0.03099701 -0.0038671854 0.20977129
-0.031743415 -0.0061097732 0.21262853
-0.033464603 -0.0084973723 0.21562351
-0.033323776 -0.010800115 0.21810673
-0.033222299 -0.013465299 0.22048047
-0.033197716 -0.015981156 0.22291873
-0.033054069 -0.01916242 0.22464958
-0.033416577 -0.022392005 0.22634088
-0.034789003 -0.024413563 0.22863664
-0.024408173 0.046111051 0.17760102
-0.0244036 0.044227503 0.17848362
-0.024310069 0.041396145 0.17965229
-0.024454752 0.038394496 0.1813315
-0.024735987 0.035541765 0.18357274
-0.025323728 0.031545788 0.18633318
-0.025919901 0.02560634 0.1906922
-0.026304755 0.021755219 0.19260743
-0.02628896 0.018322771 0.19502911
-0.026720731 0.014414479 0.19512652
-0.026310718 0.011522738 0.19676241
-0.026035942 0.0081879096 0.19909492
-0.025616171 0.0050684041 0.20209339
-0.025727522 0.0023340797 0.20577626
-0.027171765 -0.0010473245 0.21018316
-0.02849908 -0.0044321711 0.21385007
-0.029393094 -0.0074692415 0.21723218
-0.029582798 -0.010184858 0.22032645
-0.029817749 -0.013392419 0.22208498
-0.030207526 -0.016823273 0.22469716
-0.030401699 -0.019881845 0.22604942
-0.030928619 -0.022739446 0.22758026
-0.031508006 -0.026005208 0.23078234
-0.021015812 0.044979546 0.17866929
-0.021030106 0.043294407 0.18005066
-0.021137767 0.04049642 0.18132019
-0.021418698 0.037709877 0.1823646
-0.021996129 0.035097364 0.18465053
-0.022419356 0.031120216 0.18785386
-0.022504536 0.026068663 0.19199154
-0.022272885 0.022216881 0.19466896
-0.022781907 0.019821035 0.19683999
-0.022841783 0.017550172 0.19787341
-0.02306062 0.014045027 0.19935796
-0.022825759 0.010747148 0.20097171
-0.022523047 0.0068518324 0.20392323
-0.022930874 0.0031729627 0.20857587
-0.023915686 -3.0254561e-05 0.21167189
-0.024489723 -0.0031872198 0.21489792
-0.02508631 -0.0059201089 0.21811557
-0.02566137 -0.0093381759 0.22172724
-0.025979312 -0.013191114 0.22323062
-0.026534535 -0.016775005 0.22603387
-0.026928132 -0.019557606 0.22736715
-0.027272999 -0.022835203 0.22853418
-0.027612662 -0.0264228 0.23177385
-0.018373778 0.04276032 0.18154533
-0.018456636 0.040425885 0.18332288
-0.018545443 0.037603673 0.18422107
-0.01860155 0.03480015 0.18603659
-0.018625472 0.03138515 0.18894388
-0.018555999 0.026908828 0.19297166
-0.018491922 0.022953408 0.19588481
-0.019363316 0.020166598 0.19733222
-0.019064557 0.017748157 0.19952421
-0.019408565 0.014806182 0.20121711
-0.019692801 0.011536995 0.20299296
-0.019726185 0.007676946 0.20637229
-0.020023035 0.0039044938 0.21020651
-0.020727804 0.00071282883 0.21347894
-0.02120663 -0.0023784766 0.21678843
-0.021838315 -0.0055931942 0.2203332
-0.02250528 -0.009068964 0.22289275
-0.02282374 -0.012712835 0.22404884
-0.023241095 -0.016668895 0.22670566
-0.023264997 -0.01959662 0.22712459
-0.023639942 -0.023004044 0.2277908
-0.023811936 -0.027059015 0.232657
-0.015337612 0.040314578 0.18496874
-0.015207589 0.037790552 0.18604015
-0.015267572 0.034645163 0.1876695
-0.015570679 0.031026753 0.19026949
-0.014839086 0.027187321 0.19366886
-0.01532709 0.02377101 0.1971985
-0.015898492 0.020550145 0.19884853
-0.015991891 0.017609347 0.20120594
-0.016066106 0.014861766 0.20268603
-0.016327845 0.011830943 0.20513202
-0.016705696 0.0082256999 0.2083942
-0.016689239 0.0045458013 0.2119665
-0.01746296 0.0012981721 0.21503924
-0.017849747 -0.0020589377 0.21888375
-0.018321279 -0.0055040149 0.22234517
-0.018917741 -0.0092108259 0.22428848
-0.019226601 -0.012935387 0.22512466
-0.019475071 -0.016696399 0.22665943
-0.019639369 -0.020272626 0.22738618
-0.02014851 -0.02392379 0.22945766
-0.020108402 -0.027401714 0.23444706
-0.012396635 0.037604343 0.18750539
-0.012157305 0.03456714 0.18921508
-0.012188558 0.031278778 0.19152065
-0.011287034 0.027501857 0.19392404
-0.011809139 0.024053711 0.19773102
-0.012643155 0.021263154 0.20000038
-0.013037143 0.017855974 0.20267071
-0.01299868 0.014916763 0.20508188
-0.013338066 0.011758385 0.20780544
-0.013570298 0.008752007 0.2103097
-0.013635491 0.0053576184 0.21339612
-0.014045401 0.0018581551 0.21679288
-0.014439021 -0.0018507452 0.22021677
-0.014806694 -0.0054641175 0.2233005
-0.015188345 -0.009317548 0.22499019
-0.015649892 -0.012952203 0.22578602
-0.015758637 -0.016596828 0.22724865
-0.01589038 -0.020348134 0.2287586
-0.015911844 -0.024512369 0.23247686
-0.015498521 -0.027677616 0.23725708
-0.0095553612 0.034161881 0.1901104
-0.0085606957 0.031281851 0.19243257
-0.0081881741 0.02781521 0.19533783
-0.0081674578 0.024497334 0.19873081
-0.0090433769 0.021603094 0.20157044
-0.009848957 0.018413862 0.20412959
-0.010079346 0.01536467 0.20668656
-0.010248638 0.01232444 0.2091565
-0.010154845 0.0094176549 0.21129476
-0.01052857 0.0063833687 0.21430813
-0.010330043 0.0027447161 0.21750022
-0.010691422 -0.00091902044 0.22066054
-0.011392962 -0.0045113666 0.22303656
-0.011417008 -0.0084652742 0.22486807
-0.011760789 -0.012388695 0.22521779
-0.011748959 -0.016429724 0.22815527
-0.011934063 -0.020417476 0.23025872
-0.011299649 -0.024747424 0.23477407
-0.0055198129 0.030659132 0.19506624
-0.00479885 0.027623918 0.19785562
-0.0044753375 0.024474699 0.20027855
-0.0053165029 0.021485673 0.20283231
-0.0062344181 0.018688807 0.2050605
-0.0066892263 0.015678262 0.20764142
-0.007030515 0.012961359 0.21017313
-0.006992274 0.010134166 0.21225075
-0.0069917492 0.0068798834 0.21525231
-0.0066897119 0.0033349362 0.21807227
-0.0070107919 -0.00069144065 0.22170185
-0.0074198651 -0.0043577882 0.22258857
-0.0076046591 -0.008162668 0.2248189
-0.0076812166 -0.012039429 0.22580226
-0.0077957693 -0.016071476 0.22862507
-0.0085989228 -0.02033386 0.23078519
-0.0086749075 -0.023549069 0.23340021
-0.0024977119 0.029634602 0.19781533
-0.0010026161 0.02727001 0.19914389
-0.00087165402 0.024055187 0.20093232
-0.0016772875 0.021288885 0.20303802
-0.0024398838 0.018614866 0.20538297
-0.0024397487 0.016029326 0.20767251
-0.0030453235 0.013339677 0.21013346
-0.0030454102 0.010477841 0.21297862
-0.0028287461 0.0070988461 0.2156616
-0.0027146088 0.0036879843 0.21781607
-0.0032264909 -0.00033343959 0.22180051
-0.0036373637 -0.0040481291 0.22274733
-0.0036494141 -0.007880209 0.22424807
-0.0044615697 -0.01147887 0.22551376
0.0018290243 0.026069114 0.199898
0.0022019045 0.023864929 0.2011303
0.0015481598 0.021231506 0.20279166
0.0013191157 0.018822648 0.20502891
0.0015245632 0.0160875 0.20744647
0.0014484893 0.013417706 0.20997235
0.0013775565 0.010749176 0.21255775
0.00083209947 0.0074007064 0.21538371
0.00058187242 0.0037904871 0.21746649
-6.3653283e-06 7.1463721e-05 0.22049019
-0.001060623 -0.0037423647 0.22294246
0.0048222886 0.023554152 0.20168754
0.0047314782 0.021317195 0.2027138
0.0046477756 0.01872169 0.20458816
0.0044841794 0.016063552 0.20726123
0.0041753324 0.013488943 0.2098624
0.0039919587 0.011675342 0.21179357
0 0 0 1 0 0 0 1 0 0 0 1 0 0 0 0 0 346 1 0 0
