ply
format ascii 1.0
comment PCL generated
element vertex 346
property float x
property float y
property float z
element camera 1
property float view_px
property float view_py
property float view_pz
property float x_axisx
property float x_axisy
property float x_axisz
property float y_axisx
property float y_axisy
property float y_axisz
property float z_axisx
property float z_axisy
property float z_axisz
property float focal
property float scalex
property float scaley
property float centerx
property float centery
property int viewportx
property int viewporty
property float k1
property float k2
end_header
-0.05703485 0.019604595 0.18929821
-0.057319507 0.016564462 0.19096246
-0.054044981 0.02532055 0.18432064
-0.054729637 0.023172727 0.18604122
-0.055117227 0.02000506 0.18767796
-0.055367354 0.016532509 0.18970452
-0.055766873 0.012752318 0.19163015
-0.055498667 0.0089966059 0.19391255
-0.054770283 0.0057678805 0.19621755
-0.05131622 0.028426001 0.18162562
-0.051652536 0.026296191 0.18231225
-0.051910155 0.023528317 0.18359165
-0.052062649 0.020565914 0.18517965
-0.052231926 0.017145652 0.1875688
-0.052995082 0.012727978 0.19000722
-0.053046379 0.008537706 0.19277136
-0.052823443 0.0046457024 0.19640236
-0.051391248 0.0005415355 0.19892712
-0.047876503 0.031738598 0.17971985
-0.048538029 0.029837869 0.18016887
-0.048785489 0.027145633 0.18085673
-0.048786141 0.023922525 0.18218507
-0.049459662 0.020909319 0.18458596
-0.050060291 0.016557457 0.18710032
-0.050756726 0.012639608 0.18938072
-0.050392754 0.0078796735 0.19249946
-0.049927842 0.0039049946 0.19576833
-0.047196474 -0.0028903042 0.1970313
-0.046655055 -0.0082943896 0.19693354
-0.046750654 -0.011651717 0.19712047
-0.045977738 0.032749955 0.17904568
-0.045709603 0.030527733 0.17964445
-0.045746181 0.027478557 0.1804968
-0.046289619 0.024042927 0.18261747
-0.047005426 0.020690994 0.18483166
-0.047575746 0.016327275 0.18652771
-0.048252549 0.012031464 0.18891813
-0.048098549 0.0074630287 0.19173378
-0.045753293 0.00035692265 0.1946414
-0.044151358 -0.0054822299 0.19385345
-0.044024255 -0.009538183 0.19417323
-0.044412695 -0.013754771 0.19532977
-0.044971805 -0.016024789 0.19683978
-0.047661167 -0.014830005 0.20104387
-0.04790682 -0.01407809 0.20603475
-0.043707594 0.036157146 0.17739178
-0.043453719 0.034136225 0.17851244
-0.043001961 0.031920154 0.17965269
-0.042846154 0.028932633 0.18097815
-0.043495733 0.024403339 0.18289833
-0.043880519 0.020535709 0.18477947
-0.044587553 0.016025703 0.18588895
-0.045200039 0.011226933 0.18796147
-0.045059316 0.005413671 0.19154537
-0.042225603 -0.002065677 0.19257079
-0.041338325 -0.0071537299 0.1911294
-0.040865432 -0.010788974 0.19106099
-0.039435651 -0.014271538 0.19358146
-0.043254111 -0.015096938 0.19755027
-0.045195758 -0.014455809 0.20176403
-0.045948088 -0.014494908 0.20611589
-0.046234127 -0.015069862 0.2102498
-0.046367288 -0.014769114 0.21561815
-0.041272003 0.037478313 0.17691676
-0.040567897 0.035233948 0.17868832
-0.040032443 0.032986421 0.17993763
-0.039799552 0.030230315 0.18125091
-0.040013671 0.026520636 0.18288611
-0.04011837 0.020916862 0.18431467
-0.041366898 0.015662957 0.18566886
-0.042765275 0.0098646563 0.18796282
-0.041698527 0.0032069348 0.19066213
-0.038818717 -0.0034967281 0.1902494
-0.037876435 -0.0081779594 0.18956229
-0.036333177 -0.011293299 0.19132659
-0.036567342 -0.013002435 0.19506742
-0.039407317 -0.014911515 0.19894551
-0.041737489 -0.014247729 0.20316043
-0.042357035 -0.014488454 0.20731862
-0.042892039 -0.015567226 0.2109272
-0.044291437 -0.016192012 0.21654512
-0.045356177 -0.019637385 0.22104339
-0.045291655 -0.022670688 0.22423457
-0.038864955 0.040874794 0.17549007
-0.038478989 0.039368153 0.17645283
-0.037431765 0.037553433 0.17813969
-0.036901999 0.034322135 0.18000388
-0.036938258 0.03081942 0.1815484
-0.036743823 0.02694561 0.1832044
-0.03671908 0.020885203 0.18424399
-0.038111839 0.014511338 0.18576919
-0.039666541 0.0077343136 0.18832396
-0.038335938 0.00089496229 0.18958998
-0.03614394 -0.004549515 0.18892406
-0.034496907 -0.0076698 0.1899457
-0.033545837 -0.0094525395 0.1934181
-0.034249552 -0.011377024 0.19697167
-0.03604161 -0.013668129 0.20037802
-0.038266238 -0.014450681 0.20399769
-0.039173208 -0.015022614 0.20840523
-0.040125407 -0.016156303 0.21203123
-0.041217741 -0.017153114 0.21604241
-0.041371778 -0.019871432 0.21960992
-0.042627331 -0.023121903 0.22413495
-0.035695102 0.043673292 0.17446062
-0.034845851 0.042495407 0.17583494
-0.034014985 0.040325172 0.1780595
-0.033481617 0.037136201 0.17967008
-0.033757195 0.031956155 0.18161473
-0.033578515 0.027306886 0.18368149
-0.033914026 0.020012788 0.18477535
-0.034959771 0.014339253 0.18596378
-0.03591121 0.0080578038 0.18806876
-0.036123615 0.00046274997 0.18910852
-0.033759378 -0.0034631826 0.18934689
-0.031954866 -0.0056971763 0.19143716
-0.031358924 -0.0074023469 0.19434175
-0.031756576 -0.0098316893 0.19838019
-0.032965455 -0.012506604 0.20259789
-0.034810208 -0.014414481 0.20579025
-0.036147933 -0.0155375 0.21002863
-0.037220549 -0.016741518 0.21328253
-0.038050447 -0.018477026 0.21627988
-0.037860844 -0.020737393 0.21937732
-0.038659446 -0.022867154 0.22375964
-0.039132673 -0.025173385 0.22630057
-0.031455152 0.045082804 0.17666109
-0.031235708 0.043460473 0.17694801
-0.03082283 0.041120108 0.17844684
-0.030381043 0.038345098 0.18013977
-0.030415693 0.034024872 0.18192695
-0.030825112 0.028247522 0.18374538
-0.031609014 0.019700941 0.18540746
-0.032033592 0.014907004 0.18621893
-0.032897566 0.008814062 0.18787041
-0.034293197 0.0019502027 0.18907234
-0.031942494 -0.0004260815 0.19044639
-0.029990096 -0.0030524454 0.19308214
-0.029777637 -0.0050619864 0.19571601
-0.029867431 -0.0081708701 0.19905932
-0.030108754 -0.011466163 0.20403524
-0.031979892 -0.013575657 0.20785739
-0.033340506 -0.015305624 0.21127258
-0.034278359 -0.016958626 0.21448921
-0.034918785 -0.018893961 0.21735334
-0.035080396 -0.020274054 0.22046214
-0.034918144 -0.022056881 0.22360462
-0.035771865 -0.024879348 0.22695564
-0.028735349 0.046025749 0.17646568
-0.02827413 0.044360571 0.17712736
-0.027653884 0.041842576 0.1785005
-0.027202368 0.039090302 0.18033451
-0.027280847 0.035614334 0.18210751
-0.028048804 0.029196361 0.18405896
-0.029076045 0.019964378 0.18618588
-0.029330077 0.015764901 0.1868789
-0.029690266 0.010921839 0.18819803
-0.031666391 0.0052499501 0.18917847
-0.030219052 0.0039683073 0.19031076
-0.028578384 0.0018739718 0.19227755
-0.027361479 -0.0014296201 0.19514629
-0.02741638 -0.0042689769 0.19763324
-0.027593376 -0.010584535 0.2052564
-0.028626574 -0.012501826 0.20903523
-0.030851703 -0.014462365 0.21246073
-0.030926546 -0.016544003 0.21601875
-0.031637892 -0.01854866 0.2188077
-0.032160472 -0.01992297 0.22143768
-0.032537542 -0.0223273 0.22398524
-0.033075429 -0.024361985 0.22546609
-0.034281038 -0.025434423 0.22735475
-0.02524115 0.046184126 0.17704919
-0.02501083 0.044541642 0.17777994
-0.024434419 0.042069692 0.17897983
-0.024097804 0.039130211 0.18029806
-0.024604734 0.035826918 0.18241259
-0.025353918 0.029955566 0.18467192
-0.026160013 0.020509142 0.18739121
-0.026203725 0.016704073 0.18859199
-0.025847439 0.014179016 0.18984608
-0.027483908 0.011093396 0.18949749
-0.027093109 0.008734744 0.19065088
-0.026183989 0.0053600091 0.19241548
-0.024609488 0.0019896443 0.19506612
-0.023555424 -0.001813555 0.19878493
-0.024913093 -0.006894757 0.20413174
-0.026375378 -0.01038923 0.20926318
-0.027144993 -0.013783305 0.21420167
-0.027952731 -0.016957849 0.21814242
-0.029015671 -0.019316822 0.22035857
-0.030391758 -0.021565888 0.2232852
-0.030685794 -0.023191238 0.22454268
-0.031107808 -0.024373652 0.22622353
-0.031624261 -0.026000584 0.22943473
-0.021618683 0.044436943 0.1784617
-0.021366129 0.04283724 0.17942078
-0.021365937 0.040175412 0.18044004
-0.021698654 0.0376512 0.18131174
-0.022403913 0.035009716 0.18317679
-0.022716524 0.029510356 0.186395
-0.022599775 0.022140123 0.18926562
-0.022011153 0.018434556 0.19105658
-0.022379249 0.016795343 0.19200373
-0.021680461 0.015847942 0.19268824
-0.022018064 0.012552282 0.19338575
-0.022065116 0.0092524569 0.19448584
-0.021337209 0.0048357961 0.19683856
-0.020536095 -0.00077767402 0.20172445
-0.022189401 -0.0054560769 0.20572093
-0.023151193 -0.0085220654 0.20991921
-0.023665467 -0.01140733 0.21387187
-0.024901174 -0.014777871 0.21953887
-0.025588302 -0.01851807 0.22173674
-0.026702229 -0.021045793 0.22425857
-0.027198046 -0.022224097 0.22537334
-0.027590862 -0.023947995 0.2267659
-0.027968653 -0.026398409 0.23019034
-0.018444188 0.041638479 0.18063694
-0.018753709 0.039367404 0.18216118
-0.019036273 0.036678132 0.18310605
-0.019297771 0.034034263 0.18497615
-0.019026006 0.030706571 0.18810855
-0.017875133 0.025180107 0.19155118
-0.016912159 0.020742485 0.19278368
-0.018521316 0.018015884 0.19353023
-0.018004913 0.015706738 0.19539016
-0.018264171 0.013035162 0.19620731
-0.0184513 0.0097884228 0.19709285
-0.018235443 0.005221575 0.20012982
-0.018244348 0.00022277111 0.204108
-0.019274849 -0.0038699578 0.20761392
-0.020174773 -0.0073661534 0.21218254
-0.020816388 -0.010442448 0.21640737
-0.022007218 -0.013531777 0.22034647
-0.02311679 -0.016787825 0.2226878
-0.023761695 -0.02011596 0.22491194
-0.023890261 -0.021687124 0.22517163
-0.024155211 -0.024090983 0.22626655
-0.024450656 -0.026915552 0.23118486
-0.015567941 0.03882686 0.18373869
-0.015515221 0.036534924 0.18497644
-0.015675223 0.033567764 0.18692391
-0.015765743 0.029910309 0.18941672
-0.013073536 0.025843743 0.19309171
-0.013679352 0.021745102 0.19532236
-0.015219683 0.017982233 0.1956684
-0.01532042 0.015273195 0.19750792
-0.015260328 0.013010581 0.19823188
-0.015196731 0.0098689375 0.19992854
-0.015586164 0.0056161159 0.2035552
-0.0156647 0.0011718073 0.20674066
-0.016610555 -0.0025562197 0.20947699
-0.017204802 -0.0065543083 0.21466923
-0.017710237 -0.0098475358 0.21915267
-0.018665431 -0.012889544 0.22195992
-0.019929441 -0.016243905 0.22403325
-0.020188022 -0.019345304 0.22537892
-0.020393986 -0.0217214 0.22557889
-0.021049073 -0.024598176 0.22823013
-0.020872543 -0.027184118 0.2334595
-0.012504228 0.03621529 0.18658432
-0.012399031 0.033325311 0.18851867
-0.011874825 0.029963139 0.19067982
-0.0091626029 0.026411889 0.19444446
-0.010231379 0.02246898 0.19737482
-0.012100692 0.019275583 0.19776212
-0.012627986 0.015650244 0.19954635
-0.012305195 0.012641251 0.20151037
-0.012252094 0.00930076 0.20369877
-0.012563529 0.006223863 0.20604962
-0.012993883 0.0027008832 0.20871951
-0.01378507 -0.0012867894 0.21215335
-0.013995336 -0.0057993517 0.21681161
-0.014558012 -0.0090489369 0.22068328
-0.01519102 -0.012253617 0.22319417
-0.016641701 -0.015267579 0.22477666
-0.016757838 -0.018221527 0.22587857
-0.016858853 -0.021331621 0.22719656
-0.016857322 -0.024816746 0.23141226
-0.016352333 -0.027697751 0.23651721
-0.0091923065 0.032838006 0.19007272
-0.0071678245 0.030266276 0.19302286
-0.0060689361 0.026937013 0.19707194
-0.0063362136 0.023441456 0.19990832
-0.0083021848 0.020308644 0.20062914
-0.0099532856 0.016581699 0.20182644
-0.0098514426 0.012956465 0.20368995
-0.0094462987 0.009511576 0.20527348
-0.0094882287 0.0069370344 0.20692739
-0.010288888 0.0042716521 0.21005195
-0.010232284 0.00026477204 0.21434112
-0.010424112 -0.0039140019 0.21803755
-0.011221082 -0.0069221677 0.22099815
-0.011219745 -0.010276644 0.22357143
-0.012647799 -0.013563041 0.22471237
-0.013178604 -0.017190324 0.2271871
-0.013094583 -0.021062335 0.22938873
-0.012170909 -0.024962427 0.23451458
-0.0038973107 0.029797317 0.19693691
-0.0025024291 0.02676188 0.19976987
-0.0019958888 0.023536673 0.20116967
-0.0033505787 0.020393478 0.20247175
-0.0057135695 0.017418245 0.20344347
-0.0068441359 0.013468415 0.20478338
-0.0066488851 0.010149296 0.20619726
-0.0066747707 0.0077736271 0.20804271
-0.0071836421 0.0051824218 0.21185127
-0.0066672517 0.00100848 0.21592627
-0.0069982084 -0.0031673315 0.2198941
-0.0072949259 -0.0062722568 0.22126509
-0.007656836 -0.0094081741 0.22411866
-0.0080997553 -0.012658323 0.22568175
-0.009053505 -0.015983943 0.22833772
-0.0098783998 -0.020477954 0.2302977
-0.0096528092 -0.023691503 0.23362765
-0.00022217041 0.028523067 0.19959399
0.0015146961 0.025931749 0.19984736
0.0018202962 0.022540241 0.2005877
0.00078276027 0.019728947 0.20199968
-0.00037965726 0.017163578 0.20379338
-0.0011475742 0.01474003 0.205584
-0.0027034841 0.011206459 0.20708491
-0.0030767592 0.0084180702 0.21012297
-0.0030542738 0.0053283065 0.21371111
-0.0027108802 0.0016682472 0.21667653
-0.0033396508 -0.0024457388 0.22048317
-0.0036066747 -0.0057958723 0.22173803
-0.0037933567 -0.0091919899 0.22389287
-0.004749171 -0.01235815 0.22571813
0.004230706 0.024269985 0.19931898
0.0045540868 0.021823032 0.19982512
0.0038742393 0.019353123 0.2010584
0.0035423806 0.017127903 0.20311376
0.0034993517 0.014996182 0.20581508
0.0025972156 0.012351585 0.20868221
0.0018613647 0.0088568227 0.21085075
0.00097188464 0.0055437852 0.21425223
0.00062159071 0.0020041219 0.21697396
-1.7554088e-05 -0.001889462 0.21974094
-0.0011277957 -0.0053884033 0.22217448
0.0071227858 0.021292925 0.19996522
0.0069124978 0.019221026 0.20092398
0.0068597817 0.016965525 0.20287505
0.006510342 0.014847768 0.2058899
0.0053895446 0.012683229 0.2090119
0.0046688621 0.010464032 0.21036932
0 0 0 1 0 0 0 1 0 0 0 1 0 0 0 0 0 346 1 0 0
