ply
format ascii 1.0
comment PCL generated
element vertex 346
property float x
property float y
property float z
element camera 1
property float view_px
property float view_py
property float view_pz
property float x_axisx
property float x_axisy
property float x_axisz
property float y_axisx
property float y_axisy
property float y_axisz
property float z_axisx
property float z_axisy
property float z_axisz
property float focal
property float scalex
property float scaley
property float centerx
property float centery
property int viewportx
property int viewporty
property float k1
property float k2
end_header
-0.057011385 0.019547556 0.18923165
-0.057281755 0.016511114 0.19090427
-0.054046638 0.025268383 0.18424967
-0.054725435 0.023116637 0.18596148
-0.055104986 0.019948583 0.18760474
-0.055338431 0.016483264 0.18963441
-0.055727948 0.012715748 0.19156545
-0.055450775 0.00895424 0.19382013
-0.054714084 0.005693865 0.19609448
-0.051334299 0.028382152 0.18159042
-0.051665761 0.026252627 0.18226062
-0.0519104 0.02349057 0.18352021
-0.052051034 0.020523181 0.18510085
-0.05221168 0.017111044 0.1874847
-0.052974563 0.01268499 0.18991967
-0.053021654 0.0084883226 0.19265124
-0.052779574 0.004573253 0.1962491
-0.051449131 0.00048409676 0.19877963
-0.047907289 0.031694163 0.1796829
-0.048564572 0.02980417 0.18013597
-0.048808537 0.027112244 0.18080468
-0.048801262 0.023893045 0.182105
-0.049456324 0.020874778 0.18448478
-0.050049629 0.016529245 0.1870075
-0.050745063 0.012599154 0.18927008
-0.050375842 0.0078216521 0.19233841
-0.049966689 0.0038643491 0.19565475
-0.04729294 -0.0029148269 0.19681334
-0.046776988 -0.0083064223 0.19664298
-0.046878066 -0.01165998 0.19682422
-0.046020091 0.032704834 0.17899102
-0.045751046 0.03048767 0.17957844
-0.045778982 0.027440822 0.1804181
-0.046312466 0.024008432 0.18250842
-0.047006872 0.02064839 0.18469344
-0.047571056 0.016292986 0.18639249
-0.048245713 0.011987465 0.18877368
-0.048088368 0.007399274 0.19155134
-0.045830213 0.00034481939 0.19446751
-0.044277798 -0.0054768859 0.19355385
-0.044164401 -0.0095313033 0.19382609
-0.044556968 -0.013759973 0.19500791
-0.045111798 -0.016027238 0.19658872
-0.047761772 -0.014802836 0.20086578
-0.04795301 -0.013987382 0.20592165
-0.043772165 0.036116932 0.17734309
-0.043510146 0.034090914 0.17843911
-0.04305182 0.031877913 0.1795585
-0.042886268 0.028886145 0.18086757
-0.043519616 0.024362858 0.18275239
-0.043883644 0.020487374 0.18458922
-0.044586997 0.015983626 0.18570182
-0.045204829 0.011185839 0.18777925
-0.045097154 0.0054053268 0.19145295
-0.042337667 -0.0020458291 0.19230917
-0.041479565 -0.0071064285 0.19076698
-0.041013982 -0.010761096 0.19067442
-0.039574496 -0.014298243 0.19328129
-0.043382503 -0.015105481 0.19732113
-0.045284282 -0.014423837 0.20160748
-0.045994621 -0.014406574 0.20600317
-0.04623872 -0.014929925 0.21016052
-0.046308242 -0.014700464 0.21547048
-0.041337091 0.037446942 0.17685701
-0.04062156 0.035194155 0.17859754
-0.040085074 0.032947756 0.17982565
-0.039845265 0.030196948 0.18111424
-0.040050332 0.026483642 0.18271822
-0.040140938 0.020873489 0.18409678
-0.041381601 0.015628392 0.18544692
-0.042793091 0.0098317331 0.18774351
-0.041709449 0.0031474044 0.19035561
-0.038946815 -0.0034762186 0.18995441
-0.038012147 -0.0081642745 0.18920512
-0.036465485 -0.011325887 0.19099739
-0.036687125 -0.013037881 0.19479401
-0.039518114 -0.014919196 0.19874981
-0.041810066 -0.014214483 0.20300613
-0.042392045 -0.014412872 0.20718332
-0.042895887 -0.015449529 0.21081558
-0.044242993 -0.016138157 0.21639957
-0.045294914 -0.019598719 0.2208938
-0.045218602 -0.022632843 0.22408846
-0.038920715 0.040860001 0.17543368
-0.038537953 0.039347589 0.17638637
-0.037479758 0.037533231 0.17805617
-0.036958646 0.034312055 0.1798916
-0.036985446 0.030804228 0.18140297
-0.036779609 0.026919127 0.18302542
-0.036754258 0.02085894 0.18401806
-0.038152892 0.014478068 0.18552093
-0.039798468 0.0077753467 0.18825269
-0.038466666 0.00091055996 0.18936972
-0.036279682 -0.0045705163 0.18861863
-0.03462287 -0.0077141928 0.18961704
-0.033659842 -0.0095039904 0.19310415
-0.034360219 -0.011409675 0.19669905
-0.0361422 -0.013677255 0.20015039
-0.038340539 -0.014431738 0.20381625
-0.039206095 -0.014968819 0.20824818
-0.040117249 -0.016139803 0.2118343
-0.041181225 -0.017123776 0.21586634
-0.04132624 -0.019841278 0.21942565
-0.042559661 -0.0230924 0.22396155
-0.035734341 0.043652859 0.17436807
-0.034881923 0.04248004 0.17574461
-0.034047402 0.040316414 0.17797945
-0.033521853 0.037133094 0.17959921
-0.033811886 0.031952988 0.18148006
-0.033615995 0.027290422 0.18350048
-0.033946775 0.019988621 0.18452713
-0.03499756 0.014298732 0.18567747
-0.036052473 0.0080970088 0.18792892
-0.036278214 0.00043849676 0.18886583
-0.033899818 -0.0035254713 0.18904836
-0.032073427 -0.0057618762 0.19111316
-0.031463545 -0.0074679358 0.19402014
-0.031859774 -0.0098685632 0.19809167
-0.033052325 -0.012523651 0.20235202
-0.034878731 -0.014421241 0.20558062
-0.036173817 -0.015522921 0.20984243
-0.037210125 -0.01675429 0.21306147
-0.03803115 -0.018478822 0.21607162
-0.037829254 -0.02073097 0.21916232
-0.038590133 -0.022860698 0.22354761
-0.039057381 -0.025162946 0.22610083
-0.031483877 0.045068081 0.17657579
-0.03126483 0.043448843 0.17686304
-0.030850342 0.041112114 0.17836009
-0.030408552 0.038340468 0.18005337
-0.03046242 0.034017969 0.18181266
-0.030874211 0.0282379 0.1835738
-0.031646259 0.019681524 0.18514928
-0.032072075 0.014872011 0.18591577
-0.032937489 0.0087476484 0.18749279
-0.034471434 0.0018979566 0.18881424
-0.03209994 -0.00049718533 0.19014697
-0.030108815 -0.003125848 0.19275591
-0.02986091 -0.0051432592 0.1953758
-0.029958853 -0.0082220091 0.19874941
-0.030183548 -0.011501185 0.2037673
-0.032029115 -0.013617642 0.20762192
-0.033338856 -0.015347615 0.21100076
-0.034256101 -0.017001761 0.21423821
-0.034883562 -0.018928559 0.21710378
-0.035022147 -0.020296628 0.22021157
-0.034842268 -0.022070223 0.22334909
-0.035688005 -0.024883065 0.22671346
-0.028761905 0.046016887 0.17637222
-0.02830017 0.044356212 0.17703563
-0.027674381 0.041840103 0.17840409
-0.027214883 0.039088238 0.18022148
-0.027305391 0.03560869 0.18197891
-0.028092507 0.029187925 0.18388538
-0.029119642 0.019948501 0.18593387
-0.029370558 0.015739629 0.18658714
-0.02973474 0.010872892 0.18783876
-0.031862702 0.005219996 0.18894264
-0.030398967 0.0039224243 0.19002917
-0.028703976 0.0018095021 0.19193013
-0.027426274 -0.0015228761 0.19475698
-0.027469305 -0.0043705734 0.19726248
-0.027612651 -0.010637144 0.20494434
-0.028620157 -0.012554967 0.20872547
-0.030833876 -0.014522771 0.21217269
-0.03088717 -0.016620066 0.21573395
-0.031587593 -0.018618416 0.21851948
-0.032090701 -0.019970056 0.22113936
-0.032460712 -0.022348665 0.22369878
-0.032999553 -0.024361046 0.22518985
-0.034192339 -0.025415689 0.22707519
-0.025263114 0.04617887 0.17695975
-0.025030015 0.044539571 0.17768647
-0.024445603 0.042072248 0.17887616
-0.024099255 0.039132789 0.18016003
-0.024616616 0.035810187 0.18225619
-0.025391392 0.029933365 0.18449618
-0.026209652 0.020490017 0.18714967
-0.026250167 0.016681498 0.18831305
-0.025892437 0.014150701 0.18953829
-0.027533304 0.011047916 0.18913148
-0.027130323 0.0086765131 0.19024189
-0.026203323 0.0052925199 0.19197644
-0.024613768 0.0019097964 0.19460866
-0.023542961 -0.0019123796 0.19838208
-0.024931736 -0.0069625224 0.20384093
-0.026378417 -0.010448639 0.20898382
-0.027117658 -0.013859067 0.21390527
-0.027907418 -0.017082561 0.21780007
-0.028960669 -0.019413691 0.22002499
-0.030324055 -0.02161294 0.22296859
-0.030629998 -0.023213118 0.22423801
-0.031042809 -0.024367584 0.22593021
-0.031556152 -0.025954327 0.22914414
-0.021640668 0.044433821 0.1783856
-0.021385632 0.042833481 0.17933165
-0.021381918 0.040167857 0.18032365
-0.021709124 0.037636686 0.18116519
-0.022417573 0.034977321 0.1829986
-0.022734035 0.029489797 0.18623218
-0.022640478 0.022124132 0.18906339
-0.022059698 0.018415136 0.19079728
-0.022410749 0.016769439 0.19170521
-0.021688471 0.015821347 0.19236538
-0.022002773 0.012521489 0.19302382
-0.022041975 0.0092155077 0.19409291
-0.021312382 0.0047724168 0.19644617
-0.020487661 -0.00087617099 0.20143484
-0.022165637 -0.0055474695 0.20548877
-0.023143793 -0.0085997451 0.20969911
-0.023639854 -0.011505009 0.21366046
-0.024875034 -0.014877636 0.21925732
-0.025538916 -0.018605893 0.22138448
-0.02664293 -0.021095874 0.22390756
-0.027147489 -0.022245875 0.22503676
-0.027545314 -0.023933757 0.22645402
-0.027924899 -0.02633754 0.22990045
-0.018472582 0.041631225 0.18056074
-0.018780304 0.039345801 0.18206005
-0.019059317 0.036644805 0.18297745
-0.019316353 0.034001745 0.18483382
-0.019024871 0.030695872 0.18798952
-0.017845247 0.025170522 0.19140813
-0.016911669 0.020689262 0.19251649
-0.018523235 0.017967964 0.19321866
-0.017977308 0.0156403 0.19504432
-0.01822225 0.012970901 0.19583672
-0.01839349 0.0097206812 0.19669543
-0.01818487 0.0051388713 0.19977354
-0.018192323 0.00012968289 0.20382918
-0.01923237 -0.0039571701 0.20737943
-0.020151349 -0.0074613122 0.21196587
-0.020787619 -0.010538557 0.21620654
-0.022008948 -0.013609595 0.22014794
-0.02310852 -0.01686216 0.22240123
-0.023741035 -0.020158568 0.22457258
-0.023867603 -0.02170049 0.22484049
-0.024138605 -0.024059828 0.2259666
-0.024452267 -0.026829097 0.23091403
-0.015609208 0.038807817 0.18366104
-0.015548885 0.036517333 0.18488447
-0.015691081 0.03355689 0.18682517
-0.015755702 0.029909186 0.189308
-0.01301505 0.025821924 0.19293143
-0.013629561 0.021663398 0.19503719
-0.015201693 0.017898114 0.19534704
-0.015282161 0.0151916 0.19716804
-0.015210302 0.012930353 0.19787471
-0.015136019 0.0097817201 0.19955584
-0.015528721 0.0055343048 0.2032387
-0.015616839 0.0010953606 0.20647715
-0.016572099 -0.0026317791 0.20923619
-0.017172087 -0.0066580325 0.21445781
-0.017692627 -0.0099405861 0.21896584
-0.018673485 -0.012959618 0.22177535
-0.019953709 -0.016313247 0.22379239
-0.020205084 -0.019383464 0.22510657
-0.020412294 -0.021697342 0.22530623
-0.021069476 -0.024521362 0.22798587
-0.020923942 -0.027072961 0.23322882
-0.012535673 0.036199313 0.18650502
-0.012410025 0.033315353 0.18841879
-0.011858537 0.029959844 0.1905604
-0.0091078142 0.026382845 0.19428791
-0.010167378 0.022381913 0.19710325
-0.012065391 0.019187588 0.19744746
-0.012579712 0.015563795 0.19922076
-0.012229422 0.01254615 0.20117043
-0.012168136 0.0092110401 0.20337683
-0.012503789 0.0061578383 0.20577788
-0.012954591 0.002632804 0.20846635
-0.013751007 -0.0013441409 0.21192376
-0.013961739 -0.0059157908 0.21661848
-0.014546859 -0.0091504045 0.22051261
-0.015211717 -0.012319894 0.22301951
-0.016681103 -0.01531269 0.22455557
-0.016812053 -0.018251013 0.22564267
-0.016912797 -0.021310784 0.22696514
-0.016928954 -0.024736417 0.23122384
-0.016481958 -0.027627977 0.23634318
-0.0091957962 0.032822348 0.18996552
-0.0071520964 0.030259011 0.19291182
-0.0060198396 0.026896363 0.19693139
-0.0062672421 0.023353534 0.19969565
-0.0082441308 0.020219004 0.20033015
-0.009893043 0.016491555 0.20149229
-0.0097744893 0.012867764 0.2033489
-0.0093917334 0.0094516734 0.20500205
-0.0094497986 0.0068906317 0.20669672
-0.010267114 0.0042209085 0.20982181
-0.010213698 0.00016629197 0.21412316
-0.010398136 -0.0040379995 0.21785924
-0.011206742 -0.0070280596 0.22083943
-0.01122678 -0.010346808 0.22344832
-0.012709567 -0.013593745 0.22455415
-0.013262033 -0.017186232 0.2270072
-0.013185785 -0.021030476 0.22922306
-0.012301753 -0.024909113 0.23440066
-0.0038748279 0.029779878 0.19683604
-0.0024560997 0.026724987 0.19965419
-0.0019291206 0.023502281 0.20104173
-0.0032741844 0.020352347 0.20229778
-0.0056388555 0.017364534 0.20316169
-0.0067993309 0.013418279 0.20448844
-0.0066191177 0.010111939 0.20597045
-0.0066601816 0.0077471593 0.20784549
-0.0071890741 0.0051294579 0.21166888
-0.0066502485 0.00089292024 0.21572538
-0.0069900188 -0.0032662051 0.2197409
-0.0072908299 -0.0063458704 0.2211546
-0.007678404 -0.009443474 0.22404633
-0.0081488173 -0.012662742 0.22563301
-0.0091580497 -0.015948247 0.22824337
-0.0099911755 -0.020431167 0.23018864
-0.0097835334 -0.023638451 0.23354414
-0.00019181812 0.028506318 0.19950533
0.0015745653 0.025935514 0.19978349
0.001907008 0.022549685 0.20053814
0.00087376696 0.019735366 0.20192847
-0.00029074488 0.017168185 0.20371108
-0.0010841975 0.01474905 0.20547517
-0.0026907106 0.011208326 0.20695105
-0.0030783922 0.0083835879 0.2099915
-0.0030561415 0.0052459855 0.21355318
-0.0027002944 0.0015587321 0.2165201
-0.0033412464 -0.0025274823 0.22036484
-0.0036127556 -0.0058486327 0.22167538
-0.0038295081 -0.0092086336 0.22388044
-0.0048081768 -0.012345338 0.22573392
0.0043151025 0.024298629 0.19930261
0.0046559516 0.021854827 0.19981624
0.0039763465 0.01938086 0.20103256
0.0036368652 0.017151019 0.20308375
0.003568114 0.015011978 0.20578328
0.0026410369 0.012325487 0.20861576
0.0018882967 0.0087920753 0.21072832
0.0009761533 0.0054564276 0.21411926
0.00062017341 0.0019068273 0.21685427
-1.3605719e-05 -0.0019660101 0.2196642
-0.0011465957 -0.0054301936 0.22214465
0.007223764 0.021339642 0.19999133
0.007015157 0.019265188 0.20094401
0.0069524809 0.017002953 0.20289145
0.0065758359 0.014869034 0.2058948
0.0054314183 0.012669326 0.20896703
0.0047083665 0.010419136 0.21026699
0 0 0 1 0 0 0 1 0 0 0 1 0 0 0 0 0 346 1 0 0
