ply
format ascii 1.0
comment PCL generated
element vertex 346
property float x
property float y
property float z
element camera 1
property float view_px
property float view_py
property float view_pz
property float x_axisx
property float x_axisy
property float x_axisz
property float y_axisx
property float y_axisy
property float y_axisz
property float z_axisx
property float z_axisy
property float z_axisz
property float focal
property float scalex
property float scaley
property float centerx
property float centery
property int viewportx
property int viewporty
property float k1
property float k2
end_header
-0.057286095 0.0198416 0.19097517
-0.057623282 0.016986996 0.19252671
-0.054616984 0.025213541 0.18615672
-0.055175915 0.023178939 0.18778516
-0.055499155 0.020162446 0.18937117
-0.055740692 0.016952241 0.19116837
-0.056297526 0.013520796 0.19303747
-0.05615091 0.010051505 0.1951004
-0.055747647 0.0066942144 0.196785
-0.052312486 0.028209347 0.18374456
-0.052483026 0.026199492 0.1842723
-0.052510239 0.023655841 0.18542378
-0.052493855 0.020752536 0.18689232
-0.052684344 0.017543262 0.18887572
-0.053744096 0.013330404 0.19116975
-0.053955957 0.0093723824 0.19375025
-0.054080561 0.0053802249 0.19656259
-0.053406347 0.001347078 0.19869681
-0.049208339 0.031242961 0.18157187
-0.049770713 0.02967936 0.18221144
-0.049893424 0.027065996 0.18280274
-0.049662001 0.023984909 0.18393685
-0.050124753 0.021099521 0.18597323
-0.050775189 0.016980158 0.18822266
-0.051584072 0.013178062 0.19025496
-0.051483314 0.0086712586 0.19289294
-0.051486377 0.0047239461 0.19595252
-0.050373614 -0.0015593183 0.19583173
-0.05032156 -0.0067824 0.19508465
-0.05048332 -0.01002201 0.19535051
-0.047605064 0.032033704 0.18064055
-0.047268566 0.030092752 0.18119469
-0.047039822 0.027303819 0.18210401
-0.047350924 0.024089849 0.18395026
-0.047881667 0.020784438 0.18566924
-0.048404217 0.016732177 0.18730325
-0.049049731 0.012474254 0.18956009
-0.0493659 0.0080085499 0.19194221
-0.048494261 0.001470084 0.19366166
-0.047918938 -0.0039067995 0.19159813
-0.047985163 -0.007923835 0.19159113
-0.048378382 -0.01214148 0.19326638
-0.048716713 -0.014095249 0.19564676
-0.050921109 -0.012687271 0.20058186
-0.050890427 -0.011853472 0.20631042
-0.045773525 0.035298623 0.1788363
-0.045315102 0.033296674 0.17964531
-0.044741817 0.031248022 0.18062396
-0.044369627 0.028437097 0.18193342
-0.044691455 0.024437409 0.18369243
-0.044869661 0.020550756 0.18500389
-0.045478307 0.016343547 0.18618897
-0.046210844 0.011724517 0.18820596
-0.046858273 0.0063205105 0.19147696
-0.04576724 -0.00040330071 0.19048002
-0.045280959 -0.0051314016 0.18805574
-0.04493523 -0.0089298459 0.1879064
-0.043388717 -0.012538748 0.1921481
-0.046941433 -0.013040364 0.19669847
-0.048408713 -0.012142634 0.20161843
-0.048923191 -0.012130907 0.20649232
-0.04896364 -0.012873247 0.21076968
-0.048537653 -0.013906559 0.21594124
-0.043338716 0.036654603 0.17796995
-0.042421818 0.03438504 0.17935951
-0.04177767 0.032306153 0.18042745
-0.041396543 0.029789066 0.18158343
-0.041374497 0.026326768 0.18312606
-0.041487422 0.02095554 0.18434402
-0.042658959 0.016042592 0.18558913
-0.04441265 0.010544361 0.18764238
-0.044202235 0.0039847447 0.18877469
-0.042549934 -0.0020048223 0.18769218
-0.04169596 -0.0066241072 0.1869445
-0.040189859 -0.0098166261 0.18992217
-0.040501121 -0.010881458 0.19437218
-0.043080915 -0.012297799 0.19882987
-0.044930417 -0.011630764 0.20340323
-0.045320477 -0.012026963 0.20773724
-0.045680352 -0.013357173 0.21136972
-0.046624381 -0.015605202 0.21687695
-0.047276344 -0.02099869 0.2201398
-0.046632636 -0.024849517 0.22228292
-0.040738788 0.040916249 0.17610227
-0.040375371 0.039212074 0.17692995
-0.03912811 0.037451755 0.17832699
-0.038616922 0.034102388 0.18020552
-0.038524337 0.030712377 0.18157554
-0.038066927 0.027002616 0.18314056
-0.038363285 0.021236422 0.18419646
-0.040006828 0.014997543 0.18542258
-0.042217296 0.0085830912 0.18778311
-0.041737821 0.0020884089 0.18770142
-0.039903361 -0.0035343599 0.18663302
-0.038169835 -0.0066747596 0.18840137
-0.037581641 -0.0076968349 0.19245638
-0.038459592 -0.0089033516 0.19622228
-0.040075421 -0.010717954 0.20021956
-0.041736584 -0.011556251 0.20424835
-0.042260788 -0.012515692 0.2088113
-0.042559948 -0.014426506 0.21204165
-0.043531649 -0.016241405 0.21599203
-0.043585561 -0.019988321 0.21915579
-0.044028621 -0.024725528 0.22221377
-0.037067093 0.044155624 0.17418222
-0.036092054 0.043046113 0.17557573
-0.035182714 0.040905591 0.17783453
-0.034673803 0.037371475 0.17973168
-0.03525937 0.031882338 0.18151206
-0.034890696 0.027396973 0.18337132
-0.035608247 0.020377673 0.1844103
-0.036833461 0.014630204 0.18524104
-0.038545463 0.0087202284 0.18683824
-0.03988478 0.0011206651 0.18682413
-0.037582941 -0.0028885677 0.18727942
-0.035810947 -0.0046137981 0.18998055
-0.035479855 -0.0056477222 0.19321206
-0.036132272 -0.0071644569 0.19761883
-0.037134636 -0.0092951255 0.20252581
-0.03845197 -0.011545573 0.20597203
-0.039312053 -0.013169667 0.21007402
-0.039629597 -0.015397741 0.21300672
-0.040328838 -0.017688965 0.21595907
-0.039903767 -0.020456854 0.21863402
-0.040219497 -0.023813765 0.22207516
-0.040340666 -0.026784213 0.22384177
-0.032479737 0.045591343 0.17643414
-0.032284856 0.044011895 0.17674485
-0.031838007 0.041722905 0.17821048
-0.031335916 0.038850851 0.18009561
-0.031723402 0.033703372 0.181988
-0.032361593 0.028188966 0.18348284
-0.033447649 0.020001553 0.18483281
-0.033960424 0.015168577 0.1853506
-0.035252783 0.0090566576 0.18582903
-0.038105674 0.0022831659 0.18652852
-0.035858717 1.2731783e-05 0.18787225
-0.034080669 -0.0019077057 0.19115801
-0.03385647 -0.0033385039 0.1942867
-0.034321848 -0.0057462337 0.1982584
-0.034379639 -0.0084923487 0.20379308
-0.035523582 -0.011054859 0.20771596
-0.036017355 -0.013688932 0.21075159
-0.036539152 -0.016051384 0.2142961
-0.036905073 -0.018422879 0.2169199
-0.036876515 -0.02025163 0.21953797
-0.036418654 -0.022635551 0.22202066
-0.036770765 -0.025819873 0.22459756
-0.029706823 0.046628844 0.17613421
-0.029212099 0.045070689 0.17686434
-0.028468709 0.042598471 0.17831279
-0.027924042 0.039953649 0.18023728
-0.02825767 0.035919894 0.18208638
-0.029518185 0.029151266 0.18388765
-0.031115472 0.020182662 0.1856458
-0.031415299 0.015981352 0.18609203
-0.032169111 0.011213594 0.18660782
-0.034974724 0.0053010806 0.18646041
-0.033592347 0.0043223076 0.18749987
-0.032104488 0.0025918374 0.18969929
-0.031282779 -8.4365965e-05 0.1932776
-0.031463426 -0.0025672389 0.19642004
-0.031145241 -0.0082668085 0.20471464
-0.031680908 -0.010662055 0.20841382
-0.033496819 -0.013148503 0.21181838
-0.033002719 -0.016015077 0.21616027
-0.033619117 -0.018368406 0.218484
-0.033947133 -0.019955883 0.22068588
-0.033848125 -0.022545587 0.22293335
-0.03406335 -0.024550786 0.22410922
-0.035041638 -0.025673354 0.22534019
-0.026003722 0.046779912 0.17691867
-0.025726039 0.045212023 0.17769255
-0.025011659 0.042853225 0.17904098
-0.024651371 0.040038429 0.18032736
-0.025452362 0.03641789 0.18227156
-0.026793847 0.030018102 0.18457165
-0.02848619 0.020565057 0.18699613
-0.028700257 0.016804611 0.18770772
-0.028584568 0.014397231 0.18837264
-0.030478539 0.011503968 0.187327
-0.029980337 0.0093415668 0.18762487
-0.029118175 0.0061238292 0.18940371
-0.027853411 0.0030439601 0.19242062
-0.026625434 -0.00020307685 0.19750474
-0.028545607 -0.0053345761 0.20421575
-0.029503744 -0.0088743661 0.20912549
-0.029635528 -0.013143802 0.21470471
-0.030118832 -0.017014114 0.21817714
-0.030836232 -0.019372497 0.21996301
-0.031878009 -0.021626741 0.22255531
-0.031892456 -0.023109235 0.22360472
-0.032104723 -0.024276217 0.2250424
-0.032002959 -0.0258014 0.22791131
-0.022085842 0.044892855 0.17900962
-0.021875892 0.043305155 0.17995794
-0.022010451 0.040723816 0.1808103
-0.022452809 0.038211346 0.18139809
-0.023379659 0.035369888 0.18288714
-0.024108671 0.029665446 0.18639655
-0.025072213 0.022316713 0.18919784
-0.025355693 0.018851595 0.19001487
-0.025746383 0.017369499 0.19034357
-0.025175488 0.016826324 0.19081251
-0.025129791 0.013914376 0.19116053
-0.024723401 0.010762587 0.19212161
-0.023400819 0.0063994247 0.19515537
-0.022278259 0.00089281722 0.20258132
-0.024516791 -0.0043652682 0.20712453
-0.02608693 -0.0078592533 0.21134658
-0.026366688 -0.011551717 0.21583097
-0.027093973 -0.015315258 0.22083049
-0.027448094 -0.018579841 0.22156774
-0.02820483 -0.02089306 0.22323486
-0.028691012 -0.022060717 0.2241202
-0.02862476 -0.023551274 0.22538355
-0.028515162 -0.025873207 0.22842284
-0.019035416 0.04175083 0.18154646
-0.019494778 0.039376099 0.18274416
-0.019945741 0.036632743 0.18329975
-0.020372404 0.033983767 0.18487623
-0.019975184 0.030954493 0.18834503
-0.019261263 0.025552262 0.19174978
-0.020574618 0.021830155 0.19190291
-0.022565197 0.019326657 0.19228098
-0.021681136 0.017335126 0.19442455
-0.021458708 0.014927041 0.19513863
-0.021097241 0.011824608 0.19571085
-0.019829631 0.0070487838 0.19957013
-0.019969491 0.0018242537 0.20496716
-0.021168381 -0.0027403221 0.20896459
-0.022742715 -0.0071491008 0.21373688
-0.023356639 -0.010925932 0.21836384
-0.024286859 -0.014169609 0.22221114
-0.02503922 -0.017323075 0.22315052
-0.025517302 -0.019911639 0.22396302
-0.02543789 -0.021105794 0.22383435
-0.025537968 -0.023147829 0.22473945
-0.025320716 -0.025972648 0.22916953
-0.01649989 0.038451236 0.18438528
-0.016490513 0.036228262 0.18541969
-0.016645797 0.033472214 0.18735377
-0.016781967 0.030102586 0.19000147
-0.013863093 0.026200321 0.19341789
-0.015804885 0.022675136 0.1945089
-0.018933197 0.019499557 0.19509642
-0.018500937 0.01698608 0.19688986
-0.018090183 0.014990238 0.19762458
-0.017311685 0.011972646 0.19911741
-0.01696373 0.0073554334 0.20353954
-0.01714162 0.0025180818 0.20741494
-0.018247765 -0.001588052 0.21054301
-0.019572772 -0.0069282781 0.21598543
-0.019974576 -0.010760928 0.2208894
-0.02099763 -0.013674903 0.22336833
-0.022019166 -0.01699044 0.22422343
-0.022113394 -0.019402901 0.22475226
-0.022356249 -0.02081904 0.22437568
-0.022480043 -0.023317123 0.22637907
-0.021868503 -0.026094681 0.23148352
-0.013420791 0.035782959 0.18699493
-0.013378489 0.0330831 0.18893453
-0.012843286 0.030005196 0.19122343
-0.01002499 0.0264067 0.19488572
-0.011689628 0.022952288 0.19674858
-0.014778907 0.020376487 0.19665068
-0.015229033 0.017001975 0.19847137
-0.014004129 0.014112294 0.20078906
-0.013276061 0.01089109 0.20368658
-0.01381375 0.0077899904 0.20632721
-0.014259595 0.0037038743 0.20896038
-0.014880681 -0.00040732583 0.21277727
-0.016355645 -0.0068103853 0.21810021
-0.016623728 -0.010365103 0.22184993
-0.017653501 -0.01318917 0.22397281
-0.019348701 -0.015700398 0.22464789
-0.019536678 -0.018330604 0.22504455
-0.019325592 -0.020782806 0.22569472
-0.01845088 -0.0238516 0.22976537
-0.017478287 -0.027323699 0.23512959
-0.010074514 0.03249253 0.19055898
-0.0079225339 0.030108785 0.19349156
-0.0067257285 0.02659799 0.1975247
-0.0073560388 0.023217086 0.19984283
-0.010106648 0.020954311 0.19938301
-0.01196158 0.01770048 0.20020846
-0.011056593 0.014300248 0.20325232
-0.010780828 0.011096154 0.2058489
-0.011029888 0.0083161704 0.20772494
-0.011776724 0.0050403797 0.21020262
-0.011380465 0.00014358592 0.21476045
-0.011824048 -0.0049520233 0.21912783
-0.013036937 -0.008318915 0.22178461
-0.013357932 -0.011587594 0.22430228
-0.015904233 -0.013995284 0.22483733
-0.016534153 -0.017075837 0.22640885
-0.015970686 -0.020593716 0.22794135
-0.013787984 -0.02445963 0.23326769
-0.0044337581 0.029291583 0.19719332
-0.003075199 0.026419647 0.20012026
-0.0025519924 0.023602454 0.2014533
-0.0040527429 0.020844178 0.20245053
-0.0071494728 0.018438639 0.2024038
-0.0084171807 0.015106147 0.20485495
-0.0083428482 0.011594322 0.20723349
-0.0085797608 0.0090766819 0.20910496
-0.0089103859 0.005424398 0.21255615
-0.0075874166 0.00025565483 0.21649081
-0.0080614146 -0.0044546113 0.22073492
-0.008644321 -0.0075505734 0.22215268
-0.0091334842 -0.010802781 0.22485094
-0.010175313 -0.013495082 0.22628862
-0.0123963 -0.015818436 0.227952
-0.012923035 -0.019915048 0.22947909
-0.011472462 -0.023195919 0.23250642
-0.00095004839 0.027962888 0.19984168
0.00085328647 0.025898535 0.20019108
0.0014509801 0.023138188 0.20117114
0.00051299977 0.020680366 0.20237908
-0.00058530981 0.018415906 0.2040545
-0.0017894543 0.016030874 0.20569815
-0.0042946348 0.012551144 0.20841143
-0.004584555 0.008579934 0.21173957
-0.0041990564 0.0046956087 0.21477218
-0.0035148379 0.00058818428 0.2178084
-0.004271585 -0.0037953022 0.22138444
-0.0046935892 -0.00722931 0.22283235
-0.0050399294 -0.010496858 0.2249514
-0.0062548202 -0.013411195 0.22662568
0.0036823838 0.024662955 0.19993743
0.0041620554 0.022697987 0.20051602
0.0035283968 0.020548195 0.20160638
0.0032519191 0.018601608 0.20339589
0.0031360558 0.016561069 0.20579968
0.0025010989 0.012931945 0.20889555
0.0012582414 0.0083044078 0.21226496
0.00015281282 0.0046149446 0.21559741
-0.00029439529 0.00095256773 0.21836609
-0.0009176032 -0.0032865154 0.22102912
-0.0020745965 -0.0069038481 0.22332886
0.0065592998 0.022347627 0.20059796
0.0064517655 0.020579211 0.20148855
0.0063671912 0.018616622 0.20320185
0.0061097695 0.01647494 0.2059761
0.0051065204 0.013477383 0.20910668
0.0043210182 0.010233208 0.21092783
0 0 0 1 0 0 0 1 0 0 0 1 0 0 0 0 0 346 1 0 0
