ply
format ascii 1.0
comment PCL generated
element vertex 346
property float x
property float y
property float z
element camera 1
property float view_px
property float view_py
property float view_pz
property float x_axisx
property float x_axisy
property float x_axisz
property float y_axisx
property float y_axisy
property float y_axisz
property float z_axisx
property float z_axisy
property float z_axisz
property float focal
property float scalex
property float scaley
property float centerx
property float centery
property int viewportx
property int viewporty
property float k1
property float k2
end_header
-0.057282157 0.019771691 0.19056711
-0.057633698 0.017046409 0.19206752
-0.054765772 0.02491542 0.18593954
-0.055226229 0.022952471 0.18743165
-0.055510666 0.020035697 0.18897042
-0.055767633 0.016989646 0.19071937
-0.056471471 0.013633873 0.19239528
-0.056399319 0.010326562 0.19419855
-0.055993389 0.0071174265 0.19562957
-0.052693445 0.027872173 0.18347381
-0.052791227 0.025857192 0.18407106
-0.052699044 0.023354994 0.1851662
-0.052583683 0.020531684 0.18653156
-0.052727655 0.017427946 0.18840867
-0.053953432 0.013372493 0.19046097
-0.054279767 0.0096367002 0.19278042
-0.054453138 0.0057505965 0.19512303
-0.054101247 0.0016258761 0.19582579
-0.049624208 0.030733662 0.18108985
-0.05027784 0.029257325 0.18181008
-0.050318196 0.026711725 0.18247385
-0.049963523 0.023661394 0.18369572
-0.050279673 0.020803064 0.1856648
-0.050911479 0.016839493 0.18771821
-0.051879279 0.013063776 0.18936568
-0.0519902 0.0088825729 0.19165155
-0.052103881 0.0047026044 0.19323955
-0.051729284 -0.00080426101 0.19245489
-0.051695097 -0.0055989027 0.19245173
-0.051737726 -0.008583514 0.1934
-0.048054796 0.031378526 0.18017389
-0.047791898 0.029591205 0.18063505
-0.047563497 0.026885148 0.18162654
-0.047747366 0.023738559 0.18352015
-0.048111506 0.020394107 0.18522039
-0.048586138 0.016582901 0.18675481
-0.04946214 0.012244194 0.18846612
-0.050147522 0.0081615848 0.19026771
-0.05007536 0.0018573379 0.18976054
-0.049917877 -0.003365004 0.18770103
-0.049850401 -0.0072649675 0.18849465
-0.049973216 -0.010929205 0.19139668
-0.050182898 -0.011676348 0.1949054
-0.051666837 -0.0082092518 0.2006955
-0.05022328 -0.0058449544 0.20765965
-0.04633059 0.034435976 0.17854638
-0.04583849 0.032520637 0.17917909
-0.045290884 0.030588506 0.17993681
-0.044919793 0.027887581 0.18111315
-0.045220241 0.02402515 0.18288495
-0.045244131 0.020033248 0.18414763
-0.04572086 0.016006755 0.18543139
-0.046493437 0.011319953 0.18664555
-0.047853019 0.0059628077 0.18755092
-0.048045482 -0.00024381757 0.1852366
-0.047700822 -0.0052344901 0.18350121
-0.047293752 -0.0089426758 0.1840802
-0.045328848 -0.011316066 0.19039965
-0.048388209 -0.01010619 0.19595496
-0.049016397 -0.0071787382 0.20203377
-0.048360594 -0.0066504148 0.20756805
-0.047618169 -0.0078039751 0.21185172
-0.047764502 -0.011566383 0.21673512
-0.043961212 0.035758059 0.17763712
-0.043033555 0.033538222 0.17878155
-0.042415868 0.031574558 0.17969623
-0.042071957 0.029194577 0.18068184
-0.042053141 0.025809776 0.18194674
-0.042148802 0.02012527 0.18292472
-0.042953175 0.015367283 0.1841763
-0.044747032 0.010028143 0.1851764
-0.045648236 0.0038243902 0.18375522
-0.044850886 -0.0024682251 0.18201002
-0.043795399 -0.007098496 0.18252218
-0.042161498 -0.0095734447 0.18664864
-0.042107396 -0.0091802264 0.19238432
-0.044587415 -0.0086108623 0.198218
-0.045201059 -0.0070617562 0.20366152
-0.044879112 -0.0076066074 0.20802207
-0.044723969 -0.009582541 0.21206546
-0.046489187 -0.014311231 0.2173173
-0.04744482 -0.020862767 0.21988477
-0.046594355 -0.02496673 0.22137348
-0.041605074 0.040507734 0.17585282
-0.041169707 0.038684964 0.17660002
-0.039882042 0.037081774 0.17779613
-0.039330307 0.033528943 0.17956609
-0.039268151 0.030205371 0.18073092
-0.038836483 0.026527233 0.18202572
-0.039133869 0.020541525 0.18248385
-0.040356599 0.014316967 0.18324342
-0.042456005 0.0080674617 0.18300128
-0.043421984 0.0015125045 0.18079151
-0.041626513 -0.0045167441 0.18148811
-0.039664377 -0.0070406585 0.1845212
-0.039038066 -0.0069963015 0.18927965
-0.039877228 -0.0071010226 0.19379731
-0.041020077 -0.0072676847 0.19890738
-0.041977245 -0.0078635206 0.20395958
-0.04177032 -0.0094204899 0.20862986
-0.042496692 -0.012382606 0.2122612
-0.043568507 -0.015058378 0.21593851
-0.04396541 -0.019619457 0.21918282
-0.044020995 -0.024739588 0.22130807
-0.038214859 0.044298396 0.17376788
-0.03714316 0.043235403 0.17511959
-0.036096677 0.041092057 0.17728373
-0.035294116 0.037342481 0.17919657
-0.035844985 0.031489205 0.18090677
-0.035573099 0.027047239 0.18244496
-0.036274001 0.020115478 0.18239091
-0.037120543 0.014106692 0.18250199
-0.038865745 0.0082744379 0.18145517
-0.041434769 4.8109388e-05 0.17992063
-0.038857389 -0.0040332829 0.18226619
-0.037127368 -0.004809618 0.18569171
-0.036834259 -0.0050889147 0.18937437
-0.03729872 -0.0055524786 0.19449529
-0.03775515 -0.0066479817 0.20102417
-0.03891943 -0.0092168404 0.2052598
-0.039236691 -0.011472496 0.20937392
-0.039783623 -0.014231632 0.21254253
-0.040493913 -0.017039815 0.21537095
-0.04019282 -0.02013558 0.21803577
-0.04031235 -0.023833156 0.22114038
-0.040230148 -0.026967971 0.22253565
-0.033520918 0.045942713 0.17594248
-0.033273552 0.044380479 0.17623195
-0.032704294 0.042130895 0.17767821
-0.032011088 0.039236125 0.17957255
-0.032013997 0.033552434 0.18161522
-0.0329208 0.028013714 0.18275762
-0.034037646 0.019906426 0.18264508
-0.034236468 0.01487117 0.18237676
-0.035869896 0.0086530577 0.18119055
-0.039289754 0.00076650328 0.17945454
-0.036946934 -0.0013060594 0.18200681
-0.035367705 -0.0019650112 0.18597136
-0.03495859 -0.002881546 0.19000924
-0.035281263 -0.0045348932 0.19477583
-0.034869835 -0.0070160325 0.202038
-0.035888378 -0.010186932 0.20647886
-0.036454465 -0.012898942 0.20999628
-0.036785301 -0.015566202 0.21360455
-0.037084978 -0.018190585 0.21603912
-0.0370133 -0.020249598 0.21844101
-0.036458973 -0.022772731 0.22077823
-0.036615636 -0.025890348 0.22313736
-0.030770002 0.047124825 0.17560896
-0.030193385 0.045620862 0.17633463
-0.029307924 0.043209024 0.17776759
-0.028619759 0.040651344 0.17975038
-0.028737882 0.0363269 0.18175608
-0.029907471 0.029263418 0.18329667
-0.031671692 0.020262647 0.18344931
-0.031627495 0.016030187 0.18310329
-0.032446057 0.010986578 0.18233231
-0.035887331 0.0045351633 0.18038984
-0.034467466 0.0037649225 0.1818177
-0.032952588 0.0025060882 0.18448208
-0.032108039 0.00021518047 0.18854737
-0.032221738 -0.0024453611 0.19240415
-0.031921592 -0.007443002 0.20369275
-0.032470059 -0.010447734 0.207479
-0.033893183 -0.013028633 0.21071225
-0.033273991 -0.015825812 0.2155682
-0.033857711 -0.018336724 0.21763831
-0.034101345 -0.020077437 0.21960884
-0.033788409 -0.022601701 0.22162905
-0.033955488 -0.024454623 0.22277953
-0.034788951 -0.025510235 0.22383766
-0.026900779 0.047335349 0.17637673
-0.026541395 0.045794092 0.17715682
-0.02566771 0.04346009 0.17857656
-0.025252981 0.040682711 0.1800039
-0.026015026 0.037038252 0.18205605
-0.027255831 0.030334996 0.18420137
-0.029064002 0.020727362 0.18476751
-0.029007902 0.017018257 0.18462577
-0.028655499 0.01489311 0.18477774
-0.030978618 0.011469578 0.18283466
-0.030597243 0.0092423223 0.18267336
-0.029834826 0.0061647347 0.1846295
-0.028637607 0.0034396399 0.18799679
-0.026981365 0.00050747755 0.19408745
-0.029354502 -0.0052504386 0.20266174
-0.03023649 -0.0093139829 0.20818523
-0.030092394 -0.013322771 0.21426892
-0.030712621 -0.017035825 0.21765463
-0.031229993 -0.019275932 0.21903203
-0.031955607 -0.021548867 0.22133923
-0.031807795 -0.022891406 0.22227141
-0.031927411 -0.023890002 0.22359623
-0.031653065 -0.025124947 0.2263324
-0.022650754 0.045314517 0.17865381
-0.022365777 0.043702658 0.17969298
-0.022476349 0.041168667 0.18066858
-0.022914089 0.038706329 0.18134013
-0.023858165 0.03592765 0.18281633
-0.024529649 0.029898416 0.18586375
-0.02577051 0.022618312 0.18712109
-0.02591214 0.019498544 0.18715644
-0.026237536 0.01805971 0.18711965
-0.025590653 0.017816514 0.18748946
-0.02530292 0.015220983 0.187328
-0.024610393 0.012188671 0.18792275
-0.022863654 0.0075869057 0.19115764
-0.021657908 0.0014683693 0.20028715
-0.025009323 -0.0047999974 0.20568529
-0.027028887 -0.0085974531 0.21034585
-0.026985334 -0.012474629 0.21472283
-0.027436383 -0.015679216 0.21968563
-0.027737545 -0.018484032 0.2203155
-0.028216625 -0.020689882 0.22169654
-0.02867501 -0.02179575 0.22253108
-0.028587962 -0.023126142 0.22374764
-0.028321855 -0.025246229 0.22671525
-0.019363547 0.042020313 0.18167144
-0.019795103 0.039721068 0.18283334
-0.020206934 0.037019324 0.18333639
-0.020629169 0.034365036 0.18475387
-0.020136287 0.031089406 0.18785723
-0.019445298 0.025710739 0.1907921
-0.02103992 0.023183491 0.18972942
-0.023091171 0.020873975 0.18944404
-0.02177803 0.019225899 0.19145614
-0.021239085 0.016946189 0.19198972
-0.020509042 0.014085075 0.19222015
-0.018769195 0.0083340388 0.19646935
-0.019315016 0.0024144114 0.20266573
-0.021200689 -0.0029130785 0.2070574
-0.023364967 -0.0081120227 0.21240182
-0.023828842 -0.011904367 0.21691547
-0.024579145 -0.015003785 0.22073899
-0.025305549 -0.01781553 0.22152819
-0.025645593 -0.019971969 0.22220775
-0.025574323 -0.020984707 0.22205718
-0.025608361 -0.022836687 0.22303054
-0.025332011 -0.025340773 0.22731934
-0.016864609 0.038806379 0.18459392
-0.016821416 0.036589351 0.18548484
-0.016986527 0.033704631 0.18718497
-0.0170852 0.030071059 0.18957029
-0.01398491 0.026241897 0.19272587
-0.015659919 0.023913156 0.19301692
-0.018776055 0.021408018 0.19290638
-0.01815862 0.018888909 0.19442585
-0.017595636 0.016973682 0.1950203
-0.016461233 0.013934398 0.19625142
-0.01598745 0.008173435 0.20096125
-0.016472088 0.0029162092 0.20519677
-0.018043719 -0.001600783 0.20845094
-0.020053348 -0.0079397578 0.2143314
-0.020398255 -0.011650877 0.21936053
-0.021401307 -0.014414042 0.22183037
-0.022445925 -0.017518396 0.22265203
-0.022585727 -0.01962347 0.22308205
-0.02267907 -0.02082249 0.22262067
-0.022734541 -0.022895372 0.22433545
-0.022026006 -0.025440417 0.22950345
-0.013772075 0.036185313 0.1870019
-0.013756636 0.033213899 0.18870142
-0.013162593 0.029938022 0.19072314
-0.0098528182 0.026299382 0.19389279
-0.011303698 0.023604861 0.19546856
-0.014381622 0.021850903 0.19491492
-0.014830694 0.018610802 0.19635892
-0.013385111 0.015504562 0.1987309
-0.012514378 0.011877154 0.2017584
-0.013154833 0.0084674126 0.20418483
-0.013630399 0.0040812762 0.20675503
-0.01447474 -0.0003375063 0.21068743
-0.016693585 -0.0078828 0.21641563
-0.017049512 -0.011243966 0.22020105
-0.018236097 -0.013918214 0.22224361
-0.019910337 -0.01615856 0.22284862
-0.020249916 -0.018644644 0.22337301
-0.019912597 -0.020738304 0.22399582
-0.01886395 -0.023468463 0.22798143
-0.017930578 -0.027110776 0.23359203
-0.010262263 0.03264074 0.18995601
-0.0078126546 0.030135285 0.19242305
-0.0061330018 0.026346454 0.19605379
-0.0066779186 0.023223486 0.19832182
-0.0096148252 0.021682175 0.19785172
-0.011564756 0.019014571 0.19821313
-0.010418671 0.015273646 0.20154837
-0.010289008 0.01188991 0.20426056
-0.010590376 0.0089488216 0.20592001
-0.01143058 0.005494812 0.20819364
-0.011158297 -6.3011859e-05 0.2131744
-0.011924122 -0.0058301073 0.21780446
-0.01342734 -0.0093112281 0.22017901
-0.014090772 -0.012421969 0.22270833
-0.016497316 -0.014588829 0.22280368
-0.017338837 -0.017418534 0.22437213
-0.016846454 -0.02056196 0.22610752
-0.014444494 -0.024119304 0.23179851
-0.0039067296 0.029030884 0.19546767
-0.0020614739 0.026123844 0.19789046
-0.0015156099 0.023579141 0.19949117
-0.0032230609 0.021107558 0.20074028
-0.0065778005 0.019137634 0.20078547
-0.0079390267 0.015967542 0.20344695
-0.0080382144 0.012249959 0.20586394
-0.0083560506 0.0096197957 0.20754288
-0.00888927 0.0057906341 0.21085693
-0.0076298118 -8.817725e-05 0.21543464
-0.0083995322 -0.0051332205 0.21980432
-0.0091254245 -0.0083059026 0.22127448
-0.0098961079 -0.011425557 0.22392686
-0.011153377 -0.01407553 0.22517189
-0.013233071 -0.01631931 0.22583772
-0.013896024 -0.019848257 0.22773115
-0.012219156 -0.022827048 0.23125927
3.2035154e-05 0.027553881 0.19754967
0.0019110569 0.025675438 0.19830275
0.0024568094 0.023227321 0.19979909
0.0014564268 0.021018198 0.20128447
0.00023310063 0.018981691 0.203145
-0.0011128596 0.016531829 0.20495211
-0.0040664095 0.012948518 0.20736855
-0.0044430946 0.0086921984 0.21055676
-0.0041616117 0.00447672 0.21370673
-0.003623459 0.00014811099 0.21710372
-0.0047197584 -0.0042931894 0.22074729
-0.0052828067 -0.0078059258 0.22237448
-0.0058205323 -0.010914543 0.2245484
-0.0072505032 -0.013706679 0.22622876
0.0047550518 0.02454989 0.19869834
0.0052413936 0.022789111 0.19961944
0.0044975355 0.020846656 0.20092104
0.0041114031 0.019009236 0.20287733
0.0037687984 0.017017998 0.20531917
0.0029720203 0.012850413 0.2083281
0.001632107 0.0078764223 0.2115467
0.00029349295 0.0040908651 0.2148179
-0.00041218678 0.00042325023 0.21777816
-0.0013809103 -0.003751524 0.22071539
-0.0026802283 -0.0073861596 0.2230266
0.0075858668 0.022441672 0.19998132
0.0074230488 0.020812185 0.20108028
0.0071918271 0.018967833 0.2029434
0.0067617837 0.016820667 0.2057326
0.0055565801 0.013382346 0.20868254
0.0047300565 0.0097846566 0.21021348
0 0 0 1 0 0 0 1 0 0 0 1 0 0 0 0 0 346 1 0 0
