ply
format ascii 1.0
comment PCL generated
element vertex 346
property float x
property float y
property float z
element camera 1
property float view_px
property float view_py
property float view_pz
property float x_axisx
property float x_axisy
property float x_axisz
property float y_axisx
property float y_axisy
property float y_axisz
property float z_axisx
property float z_axisy
property float z_axisz
property float focal
property float scalex
property float scaley
property float centerx
property float centery
property int viewportx
property int viewporty
property float k1
property float k2
end_header
-0.057133187 0.031159069 0.18755248
-0.057794679 0.028303424 0.18829522
-0.058073577 0.025539199 0.18972568
-0.058333494 0.022674946 0.19132915
-0.058326472 0.019926919 0.19282326
-0.05791577 0.016893616 0.19402874
-0.053076204 0.033351794 0.18379427
-0.054106664 0.03094258 0.18542653
-0.053901371 0.028036531 0.18591648
-0.054185167 0.025325786 0.18760525
-0.054634675 0.022596039 0.18947934
-0.055027302 0.019929122 0.19154011
-0.055273402 0.016867161 0.19289
-0.055646598 0.013501263 0.19416545
-0.055299181 0.010063681 0.19553301
-0.048169527 0.035883922 0.17983641
-0.049191542 0.033476815 0.18112494
-0.049849346 0.030575203 0.18255831
-0.050189413 0.027698662 0.1842048
-0.050544046 0.02523802 0.18670174
-0.051023323 0.022490265 0.18858705
-0.051467657 0.020011131 0.1908181
-0.051926576 0.017228277 0.19260761
-0.052374631 0.013486331 0.1937447
-0.052939989 0.0092912233 0.19557105
-0.053606909 0.0054033822 0.19939849
-0.053328712 0.0019990371 0.20238921
-0.044621643 0.038345475 0.17772818
-0.045301907 0.03599662 0.17864196
-0.045790825 0.033420455 0.18010801
-0.046325732 0.030748555 0.18191136
-0.046939015 0.02793519 0.18433318
-0.047174864 0.025307244 0.187069
-0.047592063 0.022653395 0.18923239
-0.048260003 0.020108972 0.19127254
-0.048779037 0.017305974 0.19345181
-0.049231093 0.013429401 0.19436553
-0.049509574 0.0089361696 0.19529667
-0.050229784 0.0046664602 0.19898714
-0.050655928 0.0010952879 0.20416561
-0.051616218 -0.0019786176 0.20790425
-0.05205502 -0.0039930027 0.21180463
-0.041213725 0.040797349 0.17700364
-0.042050146 0.038821232 0.1777638
-0.042312197 0.036189076 0.17900392
-0.042716131 0.033686139 0.18062235
-0.043380652 0.031100295 0.18277258
-0.043574993 0.027976546 0.18523666
-0.043766417 0.025196886 0.18784507
-0.044218533 0.022504721 0.189853
-0.044906478 0.019829603 0.19171071
-0.045651462 0.017259944 0.19400099
-0.045977775 0.013270559 0.19539194
-0.045899339 0.0086286515 0.19601128
-0.04604841 0.0040630815 0.19947304
-0.04736625 0.0010178441 0.2053065
-0.048389059 -0.0019346395 0.20921436
-0.049515672 -0.0042293714 0.2128237
-0.050228354 -0.0064429869 0.21565063
-0.050868224 -0.0087851388 0.21888018
-0.03878982 0.041521035 0.17675516
-0.039152864 0.039075263 0.1784866
-0.039467935 0.036396883 0.17980282
-0.039927695 0.03379314 0.18151471
-0.040157568 0.030907447 0.1836524
-0.040375367 0.027523478 0.18612038
-0.04080037 0.025019171 0.18855351
-0.041254502 0.022492716 0.19035505
-0.041618526 0.019829584 0.1921093
-0.04242783 0.01714679 0.19476785
-0.042571057 0.013176491 0.19657369
-0.042034302 0.008640741 0.19793375
-0.041617993 0.0038044138 0.20103344
-0.043990634 0.00063464412 0.20660512
-0.045156062 -0.0018485086 0.21061908
-0.0459508 -0.0037876633 0.21410438
-0.046952453 -0.0062652244 0.21703339
-0.048261065 -0.0093435748 0.22003688
-0.048727162 -0.012684574 0.22310509
-0.048061036 -0.016294036 0.22431913
-0.035631407 0.043414898 0.17561711
-0.03605352 0.042027712 0.17717138
-0.036265135 0.039461967 0.17890115
-0.036662009 0.036593881 0.18030988
-0.036999352 0.034037989 0.18240012
-0.037139867 0.030651538 0.18484999
-0.037314322 0.027516603 0.18707076
-0.037912562 0.025210124 0.18938939
-0.038501713 0.022682184 0.19172296
-0.038911622 0.020070765 0.1935382
-0.039696787 0.017279427 0.196647
-0.039628685 0.013747634 0.19879489
-0.039379198 0.009047159 0.20115326
-0.039360933 0.0042533688 0.2037226
-0.040694423 0.00079823763 0.20828196
-0.041840017 -0.0013271365 0.21222655
-0.042601909 -0.0036603182 0.21524222
-0.042827275 -0.0069465232 0.21683836
-0.043536939 -0.010147174 0.21903937
-0.044205721 -0.014294576 0.22126712
-0.044668004 -0.018441349 0.22429796
-0.043508522 -0.021088779 0.22636689
-0.032928459 0.04384248 0.1760767
-0.033062927 0.042433612 0.17748648
-0.032961238 0.03984322 0.17946914
-0.033069156 0.037058916 0.18083681
-0.033499729 0.034341462 0.18312465
-0.033951517 0.031029463 0.18653305
-0.034317579 0.027949994 0.18811354
-0.034934931 0.025286477 0.19047037
-0.035491694 0.022714939 0.19307287
-0.03612154 0.020190418 0.19585712
-0.036865551 0.017351944 0.19895068
-0.036820699 0.014510418 0.20060726
-0.036711358 0.009857811 0.20303392
-0.036823016 0.0056228167 0.20601238
-0.0378206 0.0022159622 0.21000102
-0.038579185 -0.00072883168 0.21352281
-0.039065924 -0.0035881253 0.21606433
-0.039149627 -0.0070384424 0.21716501
-0.039454948 -0.011030787 0.21884175
-0.039945301 -0.015133505 0.22049984
-0.040257581 -0.018985892 0.22326575
-0.040163212 -0.021552527 0.2260931
-0.029926028 0.043940846 0.17672138
-0.029859586 0.042459525 0.17793709
-0.029986579 0.039994735 0.17985465
-0.030208869 0.037376706 0.18189861
-0.030430065 0.034570046 0.18433331
-0.030920045 0.031413581 0.18753776
-0.031309523 0.02844906 0.18925859
-0.031875562 0.025466768 0.1915717
-0.032339241 0.022523891 0.1946667
-0.033190865 0.020134138 0.19758095
-0.03400797 0.017359154 0.20058191
-0.034001298 0.014749289 0.20228434
-0.033713516 0.010429731 0.20471379
-0.033863112 0.0065817614 0.20760617
-0.034681417 0.0032701008 0.21121635
-0.035265166 -0.00021221732 0.21428061
-0.035488319 -0.0036268462 0.21634528
-0.035719626 -0.0071310862 0.21769567
-0.036171474 -0.011175098 0.21950619
-0.036452822 -0.015082761 0.22129351
-0.036502145 -0.018797103 0.22292584
-0.036229797 -0.021596145 0.22555739
-0.026861615 0.044216119 0.17710525
-0.026871365 0.0426706 0.1783478
-0.027130913 0.040031362 0.18004845
-0.027176412 0.037551697 0.18249184
-0.027383368 0.034679238 0.1851335
-0.027800543 0.031785067 0.18797961
-0.028231453 0.028769126 0.19022962
-0.028733876 0.025795136 0.19264887
-0.029318072 0.022589846 0.19626163
-0.030277502 0.020019578 0.19999564
-0.03096089 0.017455354 0.20226279
-0.030637085 0.015064197 0.20399396
-0.030698432 0.011252848 0.20687424
-0.030682966 0.0074833492 0.20913219
-0.031312931 0.0034860068 0.2121809
-0.0318598 2.2882523e-05 0.21470188
-0.032072268 -0.0038640166 0.21727435
-0.03245509 -0.0074469866 0.21820897
-0.032890338 -0.011277378 0.22028573
-0.033155452 -0.015051034 0.22295299
-0.032940432 -0.018614657 0.22470379
-0.033025511 -0.021785472 0.22701749
-0.023996145 0.044456564 0.17797394
-0.023910169 0.04301155 0.17923322
-0.023957966 0.040207811 0.18052134
-0.024134507 0.037506379 0.18273909
-0.024385281 0.034930028 0.18555933
-0.024692094 0.032141529 0.18819363
-0.025164263 0.029101195 0.19122624
-0.025642408 0.025825061 0.19421543
-0.026146324 0.022425819 0.19820967
-0.026996279 0.019649198 0.20173571
-0.026729252 0.017534012 0.20404935
-0.027031465 0.015295729 0.20594862
-0.027613765 0.011525127 0.20956461
-0.027796844 0.0078296475 0.21153304
-0.028113589 0.0037249085 0.21418668
-0.02829692 -0.00017783292 0.21593188
-0.028810479 -0.0044640894 0.21826421
-0.028988725 -0.0078625968 0.21954434
-0.029453991 -0.011401697 0.22136956
-0.029643737 -0.014865296 0.22413497
-0.029373288 -0.018385854 0.22595623
-0.02986552 -0.021905985 0.22790852
-0.030404989 -0.02489428 0.23170601
-0.020979308 0.044820976 0.17901252
-0.020791937 0.04332627 0.18032986
-0.020965131 0.040398959 0.18190116
-0.021035619 0.037544362 0.18332645
-0.021308584 0.034905955 0.18637361
-0.021700907 0.032228708 0.18874891
-0.022074725 0.029480252 0.19174936
-0.022523368 0.02620009 0.19498093
-0.022890931 0.022255419 0.19960405
-0.023303133 0.019377252 0.20305304
-0.022830317 0.01680861 0.20581146
-0.023264507 0.014312871 0.20758891
-0.023992391 0.011117945 0.21057463
-0.024722844 0.0077428012 0.21349867
-0.024674015 0.0036761034 0.21497433
-0.024652863 -0.00076194346 0.2161255
-0.02523192 -0.0044697165 0.2192876
-0.025504583 -0.0080679515 0.22107539
-0.025572706 -0.011397743 0.22257693
-0.025901886 -0.01473789 0.22551076
-0.025924843 -0.018346179 0.22690596
-0.026504539 -0.022340277 0.22816728
-0.0265659 -0.025983943 0.23210476
-0.018109713 0.043248855 0.18178651
-0.018086409 0.041018251 0.1837054
-0.018119043 0.037986577 0.18491773
-0.018356141 0.035082817 0.18678328
-0.018530855 0.032247819 0.18920559
-0.01878964 0.029567176 0.19183853
-0.019086884 0.026283277 0.1962394
-0.019445421 0.022782752 0.19955768
-0.019703591 0.019229798 0.20293507
-0.019750394 0.015985185 0.20552079
-0.019827174 0.013022798 0.20763917
-0.02059043 0.010029826 0.21023799
-0.021299547 0.0065843677 0.21305212
-0.021138839 0.0031959848 0.21502285
-0.021147946 -0.00047358041 0.21739016
-0.021676183 -0.0042155599 0.22089665
-0.022073925 -0.0079492666 0.22291514
-0.021877222 -0.011511195 0.22384436
-0.02171986 -0.014994022 0.22643504
-0.021836257 -0.01843337 0.22709879
-0.022236148 -0.022390846 0.22763129
-0.022744875 -0.026446074 0.23270059
-0.015212941 0.041087866 0.18496275
-0.015264466 0.038395837 0.18647464
-0.015336568 0.035363816 0.18787421
-0.015527747 0.032361746 0.19017103
-0.015834831 0.029623738 0.19242232
-0.015781637 0.026515936 0.19674057
-0.016217466 0.022926845 0.20036513
-0.016345041 0.019652562 0.2028373
-0.016590364 0.016215052 0.20498052
-0.01637169 0.012978268 0.20823975
-0.016935619 0.010092109 0.2108887
-0.017403992 0.0068637482 0.21339874
-0.017509701 0.0036130662 0.21615918
-0.017662615 -0.00013491276 0.21945372
-0.018062087 -0.0037658913 0.22256435
-0.018285261 -0.0075591151 0.2245485
-0.017834494 -0.011342537 0.22549155
-0.017831586 -0.015109805 0.22658721
-0.018434906 -0.018867383 0.22784258
-0.018626865 -0.022814583 0.22964565
-0.019141765 -0.026662786 0.23450689
-0.012606738 0.038139753 0.18787451
-0.012370053 0.035318237 0.18906985
-0.012542987 0.032354053 0.19110887
-0.012725476 0.029487913 0.19289227
-0.012547175 0.026691291 0.19619335
-0.012924219 0.023264062 0.2004312
-0.013231344 0.019977005 0.20377146
-0.013301933 0.016637759 0.20668741
-0.013253824 0.01352723 0.20945874
-0.013350171 0.010569912 0.21174851
-0.01339924 0.007493325 0.21428157
-0.013758627 0.0039428542 0.2175405
-0.014147436 0.00014096606 0.22105318
-0.014309203 -0.0035006448 0.22346221
-0.014316482 -0.0072817742 0.2249103
-0.014149589 -0.011752046 0.22643089
-0.014294188 -0.015709 0.22780803
-0.014774297 -0.019424111 0.22956857
-0.015169954 -0.02345434 0.23260142
-0.015338563 -0.026629753 0.2365198
-0.0096807908 0.035115261 0.1899136
-0.0091879033 0.032565434 0.19167964
-0.0093925847 0.029703677 0.19363406
-0.0093007367 0.026982008 0.19679566
-0.0097737694 0.023832953 0.2008515
-0.010048681 0.020576166 0.20479552
-0.009929399 0.017401734 0.20779708
-0.0099521847 0.014122432 0.21040864
-0.0098238727 0.010872497 0.21231359
-0.0097465105 0.0076520955 0.21551318
-0.010170495 0.0040923883 0.21857168
-0.010300129 0.0002505478 0.22160445
-0.010521564 -0.0033786318 0.22374119
-0.010853807 -0.0074013551 0.22543712
-0.010549551 -0.011658757 0.22595906
-0.010761111 -0.015794611 0.22912274
-0.011021471 -0.019538788 0.23093084
-0.011518762 -0.023797538 0.23477934
-0.012280305 -0.026291339 0.23719107
-0.0061135828 0.032295056 0.1925184
-0.0060156267 0.029811412 0.19493985
-0.0062352717 0.027013713 0.19837183
-0.0065091932 0.024117121 0.20118314
-0.0067898883 0.021172196 0.20513867
-0.0065229377 0.017959423 0.20833127
-0.0063306922 0.014544192 0.21071097
-0.0063157105 0.011149765 0.21255268
-0.0062078941 0.0076042274 0.21583404
-0.0064412574 0.0038387489 0.21897222
-0.006570817 -2.239899e-05 0.22206886
-0.0067023938 -0.0035910953 0.22342528
-0.0071001346 -0.0074383691 0.22591098
-0.0070358519 -0.011916878 0.22645411
-0.0072089536 -0.016024191 0.22981815
-0.0078695239 -0.01981573 0.23200753
-0.00858544 -0.022840027 0.23383717
-0.003471429 0.031759772 0.19410704
-0.0025805086 0.02987708 0.19669694
-0.0027838279 0.027054615 0.19899492
-0.0029510022 0.024153851 0.20147933
-0.0029758932 0.021243481 0.2045487
-0.0030618645 0.018026387 0.20769273
-0.0027091308 0.014512033 0.21050383
-0.0027939209 0.011132583 0.21282905
-0.0026383179 0.0076606399 0.21572495
-0.002780962 0.0036874849 0.21824247
-0.0027765066 -5.2801706e-06 0.2213852
-0.0029874577 -0.0038816899 0.22295673
-0.0032957897 -0.0079238387 0.22579341
-0.003799133 -0.012135978 0.22694272
-0.0046535563 -0.01555326 0.22936654
0.00038000059 0.02943771 0.19820507
0.00059002091 0.027362922 0.19968797
0.0005001502 0.024504118 0.20167424
0.0005285269 0.021394258 0.20398383
0.00062781945 0.018158285 0.2066655
0.00086564082 0.014617109 0.20954789
0.00094357354 0.011156381 0.2122141
0.0010487929 0.0076474375 0.21449487
0.00066653441 0.0037990103 0.2168683
0.00086808077 -7.9471371e-05 0.21962626
0.00028911265 -0.0037790241 0.22249393
-0.00095932861 -0.007315231 0.22614391
0.0038174863 0.027549924 0.20028903
0.004183752 0.024721408 0.20194007
0.0041965609 0.021467796 0.20356207
0.0040253806 0.018203223 0.20634191
0.0042862026 0.01476035 0.20844017
0.0038406902 0.011586884 0.21086662
0 0 0 1 0 0 0 1 0 0 0 1 0 0 0 0 0 346 1 0 0
