ply
format ascii 1.0
comment PCL generated
element vertex 346
property float x
property float y
property float z
element camera 1
property float view_px
property float view_py
property float view_pz
property float x_axisx
property float x_axisy
property float x_axisz
property float y_axisx
property float y_axisy
property float y_axisz
property float z_axisx
property float z_axisy
property float z_axisz
property float focal
property float scalex
property float scaley
property float centerx
property float centery
property int viewportx
property int viewporty
property float k1
property float k2
end_header
-0.05656739 0.031205025 0.1870857
-0.05716661 0.028335104 0.18791428
-0.057404209 0.02555107 0.18936114
-0.057686951 0.022687329 0.19100089
-0.057771832 0.019697946 0.1921626
-0.057159197 0.016636606 0.19309057
-0.052562155 0.033049788 0.18290365
-0.053565368 0.030806232 0.18472756
-0.053331532 0.027947098 0.18537667
-0.053556617 0.025302703 0.18715198
-0.053947642 0.022546023 0.18894404
-0.054408222 0.019559406 0.19076431
-0.054516401 0.016432887 0.19177894
-0.05502313 0.013288315 0.19320169
-0.054964289 0.010167697 0.19467478
-0.047765106 0.035464656 0.17912623
-0.048718933 0.032988403 0.18020324
-0.049420331 0.030171279 0.18168467
-0.04967504 0.02748985 0.18354745
-0.04991914 0.025047516 0.18610287
-0.050309796 0.022310795 0.18788247
-0.050734099 0.019536747 0.18986636
-0.051131379 0.016631264 0.19135465
-0.051782679 0.013042367 0.19252695
-0.052758221 0.009085523 0.19449638
-0.053546764 0.005505681 0.19863445
-0.053302638 0.0022134753 0.20179068
-0.044363171 0.038178876 0.17719059
-0.044944767 0.035755508 0.1778834
-0.045330591 0.033014655 0.17909825
-0.045827519 0.030258484 0.1808525
-0.046414144 0.027617861 0.18354838
-0.046491072 0.025031291 0.18628654
-0.046765573 0.022299742 0.1882534
-0.047356937 0.019486159 0.19017886
-0.048042625 0.016663978 0.19222021
-0.048638288 0.012813347 0.19306956
-0.049163409 0.0082629621 0.19352689
-0.050289266 0.0041820845 0.19753785
-0.050452761 0.00081180502 0.20326327
-0.051303551 -0.0020572541 0.20727706
-0.051676244 -0.0039403122 0.21133676
-0.041009791 0.040743869 0.17656529
-0.041801628 0.038705915 0.17716941
-0.041925624 0.035940714 0.17809449
-0.042231318 0.033308297 0.17950994
-0.042823732 0.030591322 0.18156764
-0.042996988 0.027591113 0.18435842
-0.043127771 0.024934297 0.18709247
-0.04350964 0.022190869 0.18900321
-0.044029824 0.01928369 0.19079457
-0.044971365 0.016627299 0.19293559
-0.045409046 0.0126254 0.19423752
-0.045299556 0.0078358483 0.19414021
-0.045751091 0.0030833562 0.19754629
-0.047032267 0.00045403314 0.20426601
-0.048021279 -0.0022030943 0.20846018
-0.049114607 -0.0042997217 0.21229759
-0.049833503 -0.0064097121 0.2152821
-0.050442696 -0.0086611453 0.21858768
-0.038664471 0.041550141 0.17635714
-0.038887732 0.038899735 0.17776276
-0.039056007 0.036093071 0.17878343
-0.03942756 0.033370622 0.18028644
-0.03955001 0.030424384 0.18243538
-0.03996788 0.027184069 0.18542507
-0.040453371 0.024845278 0.18803164
-0.040837839 0.022368209 0.18983687
-0.041111533 0.019545557 0.19163218
-0.041810241 0.016560744 0.19384062
-0.042079173 0.012566353 0.19570464
-0.041192774 0.0077535734 0.19590031
-0.040323105 0.0024902795 0.19798058
-0.043514159 -0.00031740608 0.20531419
-0.044682745 -0.0023472942 0.20969392
-0.045506332 -0.0039328546 0.21346655
-0.04652277 -0.0061444016 0.21667466
-0.04779087 -0.0091362689 0.21980467
-0.048201047 -0.012354106 0.22293535
-0.047315229 -0.015944025 0.22408597
-0.035612833 0.043765184 0.17564292
-0.036035758 0.042149201 0.17698449
-0.036098804 0.039344471 0.17828809
-0.036235925 0.036318514 0.17920117
-0.036453199 0.033659574 0.18115509
-0.036708813 0.030283444 0.18407568
-0.037056915 0.027402513 0.1866978
-0.037766762 0.025242899 0.18910843
-0.038432427 0.022803424 0.19150668
-0.038857322 0.019916775 0.19327605
-0.039416026 0.016566232 0.19597837
-0.039033167 0.012730712 0.19751985
-0.038237747 0.0074739507 0.19858094
-0.037901267 0.0024389059 0.2005595
-0.04004677 -0.00053439679 0.20662452
-0.041293167 -0.0020283854 0.21109486
-0.042130273 -0.0039599044 0.21462384
-0.042472113 -0.0070376401 0.21662122
-0.043133419 -0.010108628 0.21891099
-0.043495297 -0.014109702 0.22075334
-0.044020802 -0.01808461 0.22385421
-0.042886954 -0.020663079 0.22609454
-0.032962523 0.044286977 0.17628914
-0.033068426 0.042737279 0.17751133
-0.032848693 0.039913859 0.17909431
-0.03283748 0.036918622 0.17998162
-0.033218995 0.034052696 0.18228504
-0.033907928 0.031029182 0.18646273
-0.034256771 0.028089248 0.18810818
-0.034956753 0.025590973 0.19051406
-0.035624348 0.022991376 0.19313072
-0.036144752 0.01992923 0.19549671
-0.036390178 0.016310778 0.1979882
-0.035941869 0.013072783 0.19873522
-0.035540592 0.0080882981 0.2003087
-0.035588317 0.0036844772 0.20309657
-0.037237618 0.00098299608 0.20808543
-0.038054734 -0.0015204448 0.2124705
-0.038656469 -0.0040333034 0.21557079
-0.038821746 -0.0073668421 0.21675143
-0.038798653 -0.011345779 0.21799317
-0.03911154 -0.015260553 0.2196584
-0.039569501 -0.01888708 0.22277936
-0.039589301 -0.021293223 0.22586663
-0.029974071 0.044390772 0.17697501
-0.029816872 0.042768244 0.17793775
-0.029871305 0.040080145 0.17950842
-0.030035328 0.037213404 0.18118237
-0.030308455 0.034279324 0.18377666
-0.0310126 0.031547092 0.1877135
-0.031434622 0.028743107 0.18956071
-0.032108448 0.02602637 0.1919968
-0.032541748 0.022825722 0.19481096
-0.033101551 0.019669926 0.19707143
-0.033324238 0.016104888 0.19917582
-0.033028383 0.013124667 0.19991952
-0.032592125 0.0085482094 0.20183502
-0.032914285 0.0048183538 0.20493226
-0.034259439 0.0022460264 0.20932876
-0.035102833 -0.00061459886 0.21343139
-0.035280347 -0.0039995345 0.21595694
-0.035360459 -0.0074453386 0.21714506
-0.035469007 -0.011445284 0.21863094
-0.035672981 -0.015256207 0.22051743
-0.035784442 -0.018795956 0.22245525
-0.03574308 -0.021553256 0.22541898
-0.026813064 0.044595003 0.17720036
-0.026821565 0.04296574 0.17827962
-0.027032815 0.040136639 0.17973551
-0.027005928 0.037379142 0.18180592
-0.027338469 0.034405403 0.18457134
-0.027902765 0.031891875 0.18811081
-0.028392358 0.029102528 0.19065197
-0.029015455 0.026371628 0.19322988
-0.029489966 0.022811081 0.19632311
-0.029849207 0.019141408 0.19917372
-0.030207723 0.016074641 0.20042026
-0.029799869 0.013410752 0.20139275
-0.029926512 0.009621866 0.20417795
-0.030041788 0.0060487576 0.20677055
-0.030954253 0.0025067725 0.21037412
-0.031784069 -0.00026317092 0.21370699
-0.031861901 -0.004126492 0.21678019
-0.032114025 -0.0076966542 0.21767493
-0.032252457 -0.011471673 0.21955721
-0.032446738 -0.015145141 0.22228387
-0.032301445 -0.018602297 0.22434264
-0.03273911 -0.021937346 0.22708769
-0.023914546 0.04473488 0.17798027
-0.023791065 0.043204606 0.17914906
-0.023845635 0.04033076 0.18020917
-0.023985837 0.037386611 0.18223056
-0.024367139 0.034815501 0.18518116
-0.024832048 0.032237519 0.18823375
-0.025379747 0.029400116 0.1915783
-0.025885448 0.026316727 0.19474342
-0.026154015 0.02252195 0.19805495
-0.026431529 0.018660583 0.20038079
-0.025905576 0.015937671 0.2018939
-0.026473662 0.01370798 0.20326476
-0.027269535 0.0099930847 0.20700163
-0.02748175 0.0064463061 0.20917575
-0.027826425 0.0029487659 0.21232656
-0.028157141 -0.00068193075 0.21487282
-0.0285048 -0.0048106606 0.21764097
-0.028632291 -0.008258271 0.21885346
-0.02890181 -0.011715909 0.22077601
-0.029016504 -0.014950519 0.22365519
-0.028974341 -0.018450988 0.22581106
-0.029761665 -0.022153217 0.22810139
-0.030490952 -0.025274349 0.23219831
-0.020764893 0.04483854 0.17879918
-0.020600293 0.043356236 0.18020201
-0.020912588 0.040482305 0.18186316
-0.020985346 0.037604116 0.18326233
-0.021412717 0.034964189 0.18642116
-0.021925 0.032405511 0.18898326
-0.022344021 0.029754737 0.19206594
-0.022730034 0.02660143 0.19541116
-0.022823006 0.022277348 0.19926211
-0.023250429 0.018549405 0.2019003
-0.022622444 0.015263906 0.20364054
-0.022937628 0.012473178 0.20487452
-0.023725348 0.0094878059 0.20790173
-0.024649827 0.0063095549 0.21102563
-0.024660433 0.0028330686 0.21341743
-0.024580069 -0.0010112718 0.21554324
-0.025010362 -0.0048413784 0.21858233
-0.02519621 -0.0086763427 0.22016709
-0.025189074 -0.011921109 0.22197533
-0.025446244 -0.014901543 0.22522321
-0.025799105 -0.018674493 0.22715758
-0.026596423 -0.022847693 0.22865404
-0.026705656 -0.026463607 0.23276842
-0.017972864 0.043283302 0.18186165
-0.018104455 0.041094147 0.1838747
-0.018259566 0.038176712 0.18516849
-0.018570494 0.035263978 0.1871186
-0.018771723 0.032497153 0.18958141
-0.019029913 0.029732171 0.19213782
-0.019153891 0.026236396 0.19623221
-0.019367374 0.022635417 0.19911131
-0.019589255 0.018834524 0.20214868
-0.019524986 0.015179093 0.20405169
-0.019416865 0.011761694 0.20577832
-0.020230841 0.0089444043 0.20861517
-0.021131955 0.0059408434 0.21186371
-0.021142986 0.002976082 0.21441124
-0.021100467 -0.00060498167 0.21687312
-0.021603225 -0.0044811256 0.22025827
-0.021771459 -0.0084327478 0.22197619
-0.021543277 -0.01193134 0.22320929
-0.021445174 -0.015116671 0.22615476
-0.021709299 -0.018631594 0.22724482
-0.022281697 -0.022818945 0.22811739
-0.02283599 -0.026859149 0.23340066
-0.01520019 0.041109797 0.18515107
-0.015364513 0.038453553 0.18670307
-0.015525878 0.035493445 0.1881372
-0.015726235 0.032354221 0.19027473
-0.015997875 0.029477241 0.19236863
-0.015784048 0.026105482 0.19625655
-0.016102461 0.022548307 0.19967233
-0.016217468 0.019164709 0.20194319
-0.01646403 0.015548904 0.2036213
-0.01600516 0.011773955 0.20647246
-0.016586185 0.0090757245 0.20938623
-0.017243294 0.0063403882 0.21239135
-0.017483164 0.0034735475 0.21558607
-0.017683562 -0.00026388318 0.21886377
-0.018030547 -0.0039154901 0.22195445
-0.018091042 -0.0078263348 0.22355698
-0.017618529 -0.011528748 0.22473048
-0.017701944 -0.015252142 0.22615784
-0.018331436 -0.018994059 0.22771181
-0.018643793 -0.023075964 0.22997947
-0.019187704 -0.026850594 0.23503111
-0.012691206 0.038090482 0.18804432
-0.012471023 0.035142448 0.18902054
-0.012648976 0.031986859 0.19083269
-0.012869472 0.029049458 0.1924112
-0.012596157 0.025975481 0.19537079
-0.012794307 0.022626366 0.19952154
-0.013051769 0.019311501 0.20275965
-0.013118106 0.015770275 0.20536864
-0.012977431 0.012630611 0.20806941
-0.013097627 0.0098873349 0.21059534
-0.013231488 0.0071351402 0.21342193
-0.013709968 0.0038267111 0.2169037
-0.014072786 1.5040144e-06 0.22028923
-0.01421436 -0.0036678351 0.22252819
-0.014214313 -0.0074262279 0.22392695
-0.014099174 -0.011859938 0.22567838
-0.014196197 -0.015809929 0.22737283
-0.014723369 -0.019505886 0.22934575
-0.015193762 -0.023516497 0.23271209
-0.015382363 -0.026682086 0.23681039
-0.009811461 0.034839533 0.18973054
-0.0092621744 0.032146756 0.19123679
-0.0094187669 0.0291417 0.19290517
-0.0092477957 0.026135862 0.19572064
-0.0096239885 0.023017008 0.19982846
-0.0098962272 0.019816032 0.20384242
-0.0097777713 0.016711395 0.20683488
-0.0098773791 0.013647846 0.20966525
-0.009720386 0.010478496 0.21161528
-0.0096976142 0.007462278 0.21486524
-0.010110351 0.0040559992 0.21797311
-0.010192219 0.00018834168 0.22089186
-0.010422133 -0.0034838719 0.2227252
-0.010757615 -0.0075071952 0.22444974
-0.010501938 -0.011748015 0.22525787
-0.010763089 -0.015841244 0.2286825
-0.010993935 -0.019523803 0.23064722
-0.011550742 -0.023789123 0.23482867
-0.012351515 -0.026235636 0.23736253
-0.0061462899 0.03185726 0.19200142
-0.0059612519 0.029267404 0.19426078
-0.006112623 0.026230849 0.1974573
-0.0063683102 0.023381406 0.20028231
-0.0067598945 0.02068696 0.20451684
-0.0065390742 0.01769541 0.20789146
-0.0063845105 0.014398133 0.21037498
-0.0062963101 0.011013778 0.21221159
-0.0062079499 0.0075154072 0.21546941
-0.006363166 0.0039170729 0.21855426
-0.0064626257 3.3228666e-06 0.2215521
-0.0065683206 -0.0035746344 0.22278492
-0.0070340605 -0.0074716508 0.22514991
-0.0070429984 -0.011998123 0.22591303
-0.0072602862 -0.016048821 0.22942808
-0.0079162857 -0.019741282 0.23169929
-0.0086330632 -0.022787489 0.23375943
-0.0034731962 0.031305641 0.19354555
-0.0025336039 0.029350275 0.19614236
-0.002682731 0.026393503 0.19833215
-0.002783495 0.023489114 0.20079312
-0.0029089712 0.020741571 0.20394231
-0.0030702755 0.017733071 0.20729144
-0.0027427096 0.014419425 0.21036693
-0.0028732189 0.011072289 0.2127219
-0.0026815319 0.0076694195 0.21562688
-0.0026740935 0.0038608131 0.21803123
-0.002614391 0.00012073316 0.22104755
-0.0028444007 -0.0038595465 0.2225402
-0.0032544446 -0.0079243192 0.22535034
-0.0038521008 -0.012221065 0.22654155
-0.0047058789 -0.015605968 0.22901943
0.00047160982 0.028854867 0.19768134
0.00073466951 0.026663765 0.19902243
0.00069908012 0.023798719 0.20096579
0.00060619385 0.020714607 0.20337735
0.0006240076 0.017614186 0.2062159
0.00080468459 0.014346016 0.20930913
0.00085670344 0.011067798 0.2121229
0.0009902562 0.0076439576 0.21447709
0.0007873298 0.0039578108 0.21687192
0.0011003315 0.00013563373 0.2194993
0.00045604762 -0.0036821251 0.22230023
-0.00092129281 -0.0073075751 0.22578974
0.0040176981 0.026836928 0.19970922
0.0043601613 0.024009878 0.20133904
0.0043098545 0.020727251 0.20298077
0.0040273578 0.017605556 0.20587288
0.0042680134 0.014254449 0.20812035
0.0037609711 0.011292836 0.21070471
0 0 0 1 0 0 0 1 0 0 0 1 0 0 0 0 0 346 1 0 0
