ply
format ascii 1.0
comment PCL generated
element vertex 346
property float x
property float y
property float z
element camera 1
property float view_px
property float view_py
property float view_pz
property float x_axisx
property float x_axisy
property float x_axisz
property float y_axisx
property float y_axisy
property float y_axisz
property float z_axisx
property float z_axisy
property float z_axisz
property float focal
property float scalex
property float scaley
property float centerx
property float centery
property int viewportx
property int viewporty
property float k1
property float k2
end_header
-0.057075381 0.031051842 0.18760557
-0.057824317 0.028197216 0.1884854
-0.058059685 0.025499199 0.1898661
-0.058233317 0.022622786 0.19131431
-0.058384769 0.019699359 0.19253072
-0.057490885 0.016434552 0.19410752
-0.053195145 0.033209901 0.18375413
-0.054219142 0.030848989 0.18553282
-0.054011505 0.027974548 0.18613087
-0.054256391 0.025300555 0.18780281
-0.054670934 0.022584287 0.18958922
-0.055228107 0.019613426 0.19166407
-0.055123292 0.016557049 0.19303927
-0.055411033 0.013439476 0.19451484
-0.055274244 0.010206403 0.19585812
-0.04830138 0.03562874 0.17976572
-0.049323894 0.033276822 0.18106993
-0.050000705 0.030429307 0.18262464
-0.050350174 0.027634624 0.18433383
-0.050611634 0.025186813 0.1868536
-0.051060483 0.022469116 0.18866518
-0.051544774 0.019804642 0.19096552
-0.051758941 0.016866075 0.19265817
-0.052263614 0.013200532 0.19387302
-0.053173114 0.0090633612 0.19570144
-0.05381282 0.0053746351 0.1993635
-0.053620551 0.0018992579 0.20234033
-0.044680614 0.03817502 0.1777191
-0.04539245 0.035800911 0.17867298
-0.045902953 0.033250738 0.18012592
-0.046486478 0.030627338 0.18193603
-0.047051389 0.027843392 0.18439858
-0.047204133 0.025290241 0.1871126
-0.047550149 0.022633906 0.18920773
-0.048151709 0.019908775 0.19139515
-0.048543114 0.016958099 0.19333611
-0.048975851 0.012978265 0.19404782
-0.049510807 0.008272985 0.19415554
-0.050621834 0.0040370035 0.19813724
-0.050860517 0.00067832635 0.20370854
-0.051626075 -0.0021351385 0.20773445
-0.052043501 -0.0040539526 0.21174732
-0.04130324 0.040633716 0.17700778
-0.042198945 0.038690824 0.17779486
-0.042427596 0.036063638 0.17908625
-0.042819954 0.033612352 0.18068583
-0.043538276 0.031043109 0.1828506
-0.043682702 0.028004335 0.18527651
-0.043761965 0.02521801 0.18775387
-0.044140235 0.022494545 0.18971688
-0.044768155 0.019664222 0.19181548
-0.045418203 0.016894074 0.1937401
-0.045501329 0.012694856 0.19451678
-0.045347419 0.0077226362 0.19388722
-0.045806479 0.0028222022 0.19740915
-0.047427695 0.00024821592 0.20458266
-0.048393078 -0.0023233069 0.20884633
-0.049484503 -0.0044379123 0.21269986
-0.05030258 -0.0065481635 0.21567705
-0.050986767 -0.0090095652 0.21893017
-0.038901448 0.041400373 0.17676304
-0.039281331 0.038990166 0.17853533
-0.039645478 0.036340885 0.17989977
-0.040083963 0.03376529 0.1816207
-0.040285129 0.030968517 0.18381283
-0.040500958 0.027710637 0.18620658
-0.040844932 0.025136491 0.1884874
-0.041266974 0.022544777 0.19016689
-0.041621618 0.019710068 0.19222054
-0.042201035 0.016765637 0.19428234
-0.041719351 0.012330467 0.19489779
-0.040442888 0.0070315963 0.1945471
-0.039374117 0.0016631143 0.19689862
-0.043902218 -0.00063606101 0.20546381
-0.045073934 -0.0025057101 0.20994814
-0.045870956 -0.0040619583 0.21379444
-0.047030982 -0.0064167138 0.21712039
-0.048396353 -0.0096175987 0.22016421
-0.048772022 -0.013081721 0.22293629
-0.048202064 -0.016593887 0.22409302
-0.035749633 0.043258321 0.17560683
-0.036184389 0.041878872 0.17715858
-0.036382366 0.039379194 0.1789017
-0.036848411 0.03657075 0.18043663
-0.037185825 0.034077566 0.18260582
-0.03723314 0.030786235 0.18497238
-0.037419368 0.027686251 0.18709837
-0.038010083 0.025312968 0.18931887
-0.038502309 0.022665514 0.19141854
-0.038911495 0.019655924 0.19316293
-0.039283361 0.016233148 0.19549534
-0.038238168 0.011976302 0.19592628
-0.03729308 0.0065837875 0.19715564
-0.037097044 0.0017466597 0.19963352
-0.040353335 -0.00093691598 0.20653109
-0.04163764 -0.0022233673 0.21122029
-0.042505953 -0.0040259417 0.21496697
-0.043019462 -0.0068806238 0.21734026
-0.043797456 -0.0099568171 0.21970123
-0.044511642 -0.014329006 0.22179815
-0.044914532 -0.018576639 0.22481211
-0.043634944 -0.021286611 0.22673725
-0.033069827 0.043711003 0.17598459
-0.033175599 0.04232268 0.17743579
-0.033046469 0.039835267 0.17948896
-0.03319139 0.037111681 0.18099149
-0.033572115 0.034464601 0.18335721
-0.03392677 0.031141587 0.18663216
-0.034377154 0.028053371 0.18809709
-0.035014499 0.025351565 0.19033988
-0.035426993 0.022542356 0.19256927
-0.035971493 0.019450475 0.19501196
-0.03618608 0.015895108 0.1972442
-0.035261299 0.012326685 0.19740771
-0.034735836 0.0073638358 0.19908789
-0.034958396 0.0031116644 0.20224889
-0.037286498 0.0007108351 0.20762384
-0.03839599 -0.0017555148 0.21260409
-0.038995147 -0.003917837 0.21596254
-0.039307401 -0.0070630633 0.21748869
-0.039773248 -0.011022253 0.21944429
-0.040350914 -0.01528857 0.22097914
-0.040561017 -0.019155232 0.22370656
-0.04026198 -0.021733787 0.2263422
-0.030096956 0.043858565 0.17667873
-0.029990999 0.04244101 0.1779934
-0.030089587 0.040040221 0.1799884
-0.030288372 0.037460353 0.18207178
-0.030369787 0.03465765 0.1845289
-0.03083769 0.031436197 0.18765719
-0.031294066 0.028481472 0.1892617
-0.031928133 0.025451304 0.19143192
-0.032239709 0.022201182 0.19395386
-0.032976054 0.01919079 0.19655631
-0.033173658 0.015720863 0.1985141
-0.032549445 0.012577081 0.19891913
-0.031996857 0.0080889706 0.2010188
-0.032494489 0.0043607531 0.20426002
-0.034328081 0.0021100577 0.20879745
-0.03534421 -0.00067584607 0.21319006
-0.03550344 -0.0039031853 0.21612772
-0.035887767 -0.00719098 0.21772654
-0.036459856 -0.011173775 0.21977888
-0.036795244 -0.015240578 0.22159405
-0.03682081 -0.019000338 0.22323748
-0.036331199 -0.021787576 0.22566904
-0.027015638 0.044199426 0.17720541
-0.027008999 0.042695086 0.17849627
-0.027280327 0.040128078 0.18022698
-0.027283447 0.037643846 0.18275347
-0.027325472 0.0347846 0.18547767
-0.027681969 0.031788498 0.1881378
-0.028210197 0.028706631 0.19030766
-0.028772246 0.025700273 0.19250299
-0.029206028 0.022179391 0.19551672
-0.029861515 0.018723918 0.19888712
-0.030349672 0.015856652 0.20015642
-0.029798077 0.01336542 0.20103863
-0.029816063 0.0094651477 0.20375565
-0.02988 0.0057925433 0.20621784
-0.031101847 0.0023726746 0.20988807
-0.032095071 -0.00024612952 0.21332856
-0.032154493 -0.0041850857 0.21661332
-0.032671157 -0.0075538619 0.21808328
-0.033204611 -0.011360495 0.22042707
-0.033489328 -0.01527554 0.22310108
-0.033191178 -0.018864192 0.22476812
-0.033105325 -0.022001117 0.22697912
-0.024143642 0.044500742 0.17812516
-0.024057638 0.043074343 0.17943102
-0.024084501 0.040307559 0.18072902
-0.024202477 0.03763295 0.18308233
-0.024327187 0.035023879 0.18589963
-0.024626603 0.032156028 0.18840961
-0.025125917 0.029049922 0.19132915
-0.025705123 0.025662376 0.19409618
-0.026045199 0.021873295 0.19752647
-0.026609391 0.018285261 0.20039281
-0.026241539 0.016031368 0.20235993
-0.026908468 0.01402782 0.20351198
-0.027559519 0.0098961173 0.206839
-0.027539518 0.0061792624 0.20861062
-0.028007338 0.0027119662 0.21178535
-0.028349882 -0.00073996547 0.21472931
-0.028993027 -0.0047129677 0.21791592
-0.02926418 -0.0079501597 0.2193983
-0.029765006 -0.011482054 0.22136614
-0.029901002 -0.015041181 0.22409095
-0.029535569 -0.018657917 0.2258825
-0.029959219 -0.022010256 0.22776505
-0.030506721 -0.024897121 0.23154967
-0.02109714 0.044883784 0.1791936
-0.020826537 0.043344215 0.18048681
-0.021013455 0.040413201 0.18203132
-0.021050386 0.037577927 0.18361296
-0.021271136 0.034971509 0.1866515
-0.02170426 0.032261524 0.18895178
-0.022066096 0.029528869 0.19190678
-0.022510322 0.026163191 0.19504736
-0.022894349 0.021651512 0.19939946
-0.023536323 0.018126516 0.20230131
-0.023266073 0.015671495 0.20475115
-0.023578273 0.013189237 0.20580594
-0.024196582 0.009826364 0.20821051
-0.024848405 0.006107376 0.21063621
-0.024659844 0.0024899538 0.21301123
-0.024848711 -0.00091189635 0.21572834
-0.025455374 -0.0045998003 0.21894665
-0.025716357 -0.0081463344 0.22074009
-0.025779691 -0.01138651 0.22223707
-0.026074219 -0.014837271 0.22520939
-0.026025197 -0.018391076 0.22670704
-0.026564399 -0.022367243 0.22817461
-0.026566008 -0.025964614 0.23211575
-0.018089347 0.043172624 0.18177925
-0.018065577 0.040948112 0.18376693
-0.018093811 0.038007997 0.18508698
-0.018377302 0.035118438 0.18701848
-0.018566139 0.032279227 0.18933274
-0.018768316 0.029639045 0.19204351
-0.019084418 0.026468003 0.19645271
-0.019530386 0.022564471 0.19965298
-0.01981708 0.018752893 0.20297056
-0.019986723 0.015558789 0.20539735
-0.02010094 0.012901606 0.20724469
-0.020915924 0.0099407937 0.20948093
-0.02151571 0.0063299877 0.21228184
-0.02133823 0.0030614519 0.21456932
-0.021340989 -0.00052123616 0.21716124
-0.021870226 -0.0042260629 0.22073369
-0.022175821 -0.0079660164 0.22257182
-0.021948807 -0.011573162 0.22351941
-0.021764299 -0.015076519 0.2261916
-0.021869974 -0.01841017 0.22684768
-0.02224317 -0.02232399 0.22749855
-0.022729075 -0.026374698 0.23264417
-0.015158875 0.040988293 0.18498464
-0.015248009 0.038339224 0.18654633
-0.015381738 0.035336543 0.18800156
-0.015577072 0.032356557 0.19025187
-0.015854308 0.029725356 0.19262275
-0.015823757 0.026680129 0.19706196
-0.016332183 0.022754621 0.20053194
-0.016436877 0.019369798 0.20297842
-0.016693266 0.015899999 0.20510457
-0.016632365 0.01301507 0.20835395
-0.017252207 0.010256573 0.21080996
-0.017652327 0.0069232341 0.21327743
-0.017718602 0.0035978034 0.21603778
-0.017803531 -0.00016337294 0.21922421
-0.018196842 -0.003751653 0.22258419
-0.018397223 -0.0076402375 0.22437982
-0.017839871 -0.011405304 0.2253208
-0.017834088 -0.015162189 0.2264173
-0.018452343 -0.018904706 0.22757338
-0.018665019 -0.022808231 0.22945639
-0.019112732 -0.026569059 0.23436169
-0.012633399 0.038067713 0.18787079
-0.012462581 0.035177533 0.18908899
-0.012651842 0.032346334 0.19112757
-0.012860106 0.029590182 0.1930653
-0.012633409 0.026825776 0.19642706
-0.013042067 0.023238126 0.20060208
-0.013366948 0.019794149 0.20393687
-0.013477643 0.01643651 0.20684944
-0.013411674 0.01347057 0.20962448
-0.013509931 0.010581125 0.21189156
-0.013540658 0.0075940988 0.21436639
-0.013903254 0.0038943547 0.21743825
-0.014202788 0.00012836457 0.22098294
-0.014424181 -0.003510308 0.22357267
-0.014413346 -0.0073763514 0.22490387
-0.014163569 -0.011848865 0.22633657
-0.014291265 -0.015825009 0.22761658
-0.014804494 -0.019585667 0.22927175
-0.015194962 -0.023423212 0.2322474
-0.015344514 -0.026586652 0.23627645
-0.0097779501 0.035020228 0.18984742
-0.0093141794 0.032404345 0.19162688
-0.0095741395 0.029587705 0.19362071
-0.0094607463 0.026894335 0.19679746
-0.009866925 0.023743661 0.20087649
-0.01021074 0.020389169 0.20483057
-0.010086828 0.017228326 0.2077976
-0.01002013 0.013865308 0.21040136
-0.009914211 0.010718731 0.21245222
-0.0098149609 0.0076316535 0.21560137
-0.010251298 0.0040770285 0.21857101
-0.010396111 0.00026607487 0.22177042
-0.010621916 -0.003376991 0.2238798
-0.010957471 -0.0074696732 0.22535045
-0.010593847 -0.011725675 0.22587161
-0.010756983 -0.015936257 0.22891071
-0.011015242 -0.019675525 0.23070098
-0.01153673 -0.023826607 0.23456487
-0.012317427 -0.026285229 0.23707294
-0.0062621408 0.032065976 0.19241212
-0.0061863228 0.029549684 0.19482049
-0.0063608447 0.02675546 0.1981442
-0.0066879671 0.023843328 0.20098323
-0.0069183479 0.020789828 0.20482835
-0.0066044936 0.017571913 0.20798786
-0.0063946266 0.014257195 0.21052159
-0.0063406439 0.010922321 0.2125442
-0.0062312321 0.0075013125 0.21595055
-0.0065008453 0.0037986983 0.21911928
-0.0066284752 -1.7254666e-07 0.22219943
-0.0067500295 -0.0035684542 0.22346447
-0.0071792211 -0.0074772253 0.22583468
-0.007103479 -0.011953774 0.22632331
-0.0072385669 -0.016109066 0.22970505
-0.0078884466 -0.019820422 0.23174292
-0.0086462554 -0.022908064 0.23367412
-0.0036483044 0.031497736 0.19393468
-0.0027296334 0.029605338 0.19639987
-0.0029508648 0.026691858 0.19862249
-0.0031307216 0.023728414 0.20105116
-0.0031299242 0.020865249 0.20409651
-0.0031462654 0.01769492 0.20724007
-0.0027966863 0.014237135 0.21029945
-0.0027906052 0.010929352 0.21271676
-0.002618687 0.0074993265 0.21574219
-0.0028375436 0.0036886777 0.21832642
-0.0028471095 -1.5106121e-05 0.22141223
-0.0030372643 -0.0039512222 0.22290303
-0.0033032959 -0.0079604024 0.22566153
-0.0038616969 -0.012132368 0.2268104
-0.004735155 -0.01558702 0.22935317
0.00023653005 0.029063564 0.19779481
0.00042266081 0.026901681 0.19909939
0.00027974413 0.024023077 0.20099694
0.00032750505 0.021026319 0.20345213
0.00052355061 0.017850455 0.20632009
0.00083881471 0.014410106 0.2094605
0.00096639834 0.01099102 0.21215224
0.0010677797 0.0074650082 0.21450599
0.0005896134 0.0037391449 0.21691407
0.00076725509 -0.00013911446 0.21958092
0.00022980437 -0.0038414921 0.22241278
-0.00096650241 -0.0073869159 0.22595032
0.0036426843 0.027016554 0.19964151
0.0040085088 0.024208676 0.20126535
0.0040190248 0.021069266 0.20299217
0.0039309678 0.017977068 0.20605387
0.0043366025 0.014624312 0.20843436
0.0039032113 0.011491241 0.21088029
0 0 0 1 0 0 0 1 0 0 0 1 0 0 0 0 0 346 1 0 0
