ply
format ascii 1.0
comment PCL generated
element vertex 346
property float x
property float y
property float z
element camera 1
property float view_px
property float view_py
property float view_pz
property float x_axisx
property float x_axisy
property float x_axisz
property float y_axisx
property float y_axisy
property float y_axisz
property float z_axisx
property float z_axisy
property float z_axisz
property float focal
property float scalex
property float scaley
property float centerx
property float centery
property int viewportx
property int viewporty
property float k1
property float k2
end_header
-0.056249581 0.030838452 0.18709911
-0.057097901 0.028047638 0.18811816
-0.057400566 0.025430949 0.18950203
-0.057583548 0.022572538 0.19084826
-0.057683431 0.019635195 0.19170897
-0.056852367 0.016307225 0.19353996
-0.052502319 0.032622356 0.18283905
-0.053520262 0.030499393 0.18489479
-0.053358357 0.027693789 0.18561257
-0.053622313 0.025118718 0.18732807
-0.054074824 0.022452546 0.18907104
-0.054650489 0.019433696 0.190937
-0.054675251 0.016544189 0.19253589
-0.055038325 0.013560704 0.19428487
-0.055105731 0.010405925 0.19587784
-0.047849398 0.034716472 0.178717
-0.048761774 0.032389354 0.17999651
-0.049380213 0.02974504 0.1817112
-0.049780022 0.027193002 0.18361311
-0.049979609 0.024894981 0.18619187
-0.050496407 0.02224406 0.1879987
-0.050965052 0.019604284 0.19012578
-0.051314589 0.016792232 0.1920453
-0.051978398 0.013260037 0.19363615
-0.053094812 0.0092144534 0.19573013
-0.053731129 0.0054313662 0.19922365
-0.053622544 0.0018196037 0.202177
-0.044314925 0.037594337 0.17696013
-0.044929218 0.035098121 0.17789176
-0.045338165 0.032491893 0.17922153
-0.045839384 0.02983249 0.18090613
-0.046425011 0.027253369 0.18346961
-0.046617333 0.02493256 0.18622366
-0.04698728 0.022342559 0.18832755
-0.047564629 0.01967199 0.19039515
-0.048077177 0.016841371 0.1925993
-0.048707195 0.013039542 0.19362263
-0.049463 0.008345319 0.19376862
-0.05061223 0.0040115439 0.19792235
-0.050876748 0.00056515686 0.20350979
-0.051685855 -0.0021642956 0.20760973
-0.052203275 -0.0039160312 0.21162218
-0.041125871 0.040255815 0.17642768
-0.041958243 0.03824842 0.17720856
-0.042046148 0.035613377 0.17850843
-0.042291436 0.033120077 0.17999597
-0.042934101 0.030391727 0.18194194
-0.043040134 0.027434072 0.18407306
-0.04324225 0.024865562 0.18670605
-0.043625057 0.022205988 0.1887407
-0.044200916 0.019372856 0.19075665
-0.044918943 0.016727148 0.19280842
-0.045167033 0.012610168 0.19363171
-0.04533805 0.0075386572 0.19291499
-0.045877706 0.002602797 0.19685335
-0.047431838 3.4707544e-05 0.20438698
-0.04851773 -0.0023947975 0.20873657
-0.049706094 -0.0043388531 0.21269943
-0.050532635 -0.006411822 0.21569273
-0.051304612 -0.0089175692 0.21897261
-0.038778741 0.041182816 0.17627066
-0.039108168 0.0387844 0.17810607
-0.039377186 0.036112893 0.17946522
-0.039664395 0.033474859 0.18110135
-0.0397234 0.030566493 0.18305872
-0.040047821 0.027448146 0.18529068
-0.040452965 0.024965031 0.18767209
-0.04086449 0.022357844 0.18930526
-0.041079037 0.019484337 0.19108509
-0.041645352 0.016462266 0.19304441
-0.041282002 0.011862665 0.19329526
-0.040196989 0.0059420024 0.19279805
-0.03918701 0.00048872177 0.19568385
-0.043897141 -0.0010033526 0.20523092
-0.045195851 -0.0026477529 0.20979208
-0.046100698 -0.0039571114 0.21381089
-0.047278356 -0.0063441028 0.21719132
-0.048751719 -0.0096202362 0.2202616
-0.049131121 -0.013186894 0.22287209
-0.048593927 -0.016755108 0.22400939
-0.035633884 0.043149278 0.17521308
-0.036106907 0.041742358 0.17672969
-0.036299437 0.039293952 0.17851362
-0.03662885 0.036537785 0.18016812
-0.036863495 0.033985883 0.18227096
-0.036883254 0.030664545 0.18442634
-0.037151065 0.027679008 0.18660714
-0.037783276 0.025313346 0.18876699
-0.038283277 0.022644818 0.19080634
-0.038428612 0.01947042 0.19193275
-0.038445212 0.01555482 0.19329572
-0.037469286 0.010777704 0.19331434
-0.036778457 0.0052181599 0.19516939
-0.036681123 0.00067152944 0.19830072
-0.040277842 -0.0014090379 0.20619909
-0.041750904 -0.0023598557 0.21105911
-0.042839356 -0.004031552 0.21497682
-0.043408979 -0.0068799341 0.21745153
-0.044220075 -0.0099149495 0.21985771
-0.04498307 -0.014332528 0.22205287
-0.045202248 -0.018773839 0.22496544
-0.04371478 -0.021563042 0.22663185
-0.033046819 0.043805771 0.17578058
-0.033164706 0.042371102 0.1772211
-0.033127673 0.040109858 0.17945461
-0.033403005 0.037506633 0.18117447
-0.033579297 0.03470961 0.18338314
-0.033808973 0.031194273 0.18640937
-0.034253273 0.028169967 0.18785727
-0.034936819 0.025505804 0.19011837
-0.035233591 0.022579864 0.19211608
-0.035452146 0.019141689 0.19362178
-0.035323646 0.015013841 0.19476089
-0.034338053 0.010958189 0.19461848
-0.034029398 0.0060840552 0.19698974
-0.034294873 0.0021143768 0.20071703
-0.036988642 0.00023074519 0.20659193
-0.038576573 -0.0019473578 0.21247254
-0.039371271 -0.0040164175 0.21585497
-0.039659988 -0.0070369765 0.21749789
-0.040288575 -0.010883319 0.2197371
-0.040858686 -0.015214333 0.22119039
-0.040827315 -0.019219339 0.22369519
-0.040318463 -0.021862764 0.22605459
-0.030176561 0.044142276 0.17674081
-0.030075446 0.042741805 0.17804977
-0.030222969 0.040351402 0.18013015
-0.030462682 0.037811302 0.18225792
-0.030417385 0.034872331 0.18464287
-0.030734144 0.0314239 0.18750969
-0.031212475 0.028539309 0.18911175
-0.031905871 0.025648788 0.19138435
-0.032013085 0.022193627 0.19346963
-0.032474332 0.018779319 0.1951267
-0.032388594 0.01477056 0.19603795
-0.031688083 0.011315299 0.19631489
-0.031206949 0.0070632724 0.19907774
-0.031826887 0.0035172047 0.20273395
-0.033920102 0.001588779 0.20740119
-0.035371654 -0.00088574056 0.2124176
-0.035977542 -0.0038995789 0.21595061
-0.036233719 -0.0070133791 0.21774907
-0.036941461 -0.010890956 0.21999821
-0.037254468 -0.015083365 0.22161709
-0.037121832 -0.018954983 0.22309367
-0.036368933 -0.021754336 0.22521229
-0.027157081 0.044559643 0.1775001
-0.02715268 0.043012556 0.17876206
-0.027436966 0.040427715 0.18043521
-0.027461594 0.037963863 0.18300125
-0.027373089 0.035088655 0.18580648
-0.027595749 0.031806774 0.18808222
-0.028128171 0.028651351 0.19016421
-0.02871359 0.025771476 0.19241279
-0.02900232 0.022109834 0.19508491
-0.029428933 0.018065725 0.19746502
-0.029792232 0.014950389 0.1979797
-0.029338591 0.01260583 0.19896136
-0.029400272 0.008913015 0.20212607
-0.029310156 0.0052181948 0.2046404
-0.030807652 0.0018228533 0.20844574
-0.032093931 -0.0004630012 0.21234307
-0.03270806 -0.0039374391 0.21665803
-0.033070087 -0.0072235237 0.21831724
-0.033695959 -0.01096569 0.22058991
-0.03387541 -0.015113375 0.22299281
-0.033410534 -0.018769288 0.22439149
-0.033078652 -0.021844205 0.22624573
-0.024323964 0.044929437 0.17856644
-0.024266049 0.04345046 0.17982022
-0.024227155 0.040631626 0.1810018
-0.024335347 0.037983738 0.18343265
-0.024417678 0.035391316 0.18635063
-0.024666971 0.03231911 0.18864147
-0.025087535 0.029029509 0.19130123
-0.025668617 0.025628679 0.19395606
-0.02589299 0.021684188 0.19725659
-0.026211003 0.01756949 0.19928011
-0.02622116 0.015622012 0.20125262
-0.027041186 0.013752822 0.20221691
-0.027482534 0.0094875386 0.2054721
-0.027079433 0.0057005235 0.20700462
-0.027690029 0.0021984214 0.21056914
-0.028596925 -0.00049040624 0.21436287
-0.029486513 -0.0042494163 0.21810496
-0.029813567 -0.0072600539 0.21999033
-0.03026592 -0.010838731 0.22161324
-0.030213078 -0.014751618 0.22384803
-0.029629858 -0.018446166 0.22530197
-0.029900171 -0.021739775 0.22684529
-0.030321945 -0.024688637 0.23037554
-0.021327619 0.045334551 0.17971216
-0.020935064 0.043583307 0.18071571
-0.021084497 0.040590409 0.18216091
-0.021148168 0.037836876 0.18396175
-0.02137075 0.035281859 0.18703757
-0.02183738 0.032469597 0.18928112
-0.022188568 0.029748026 0.19219503
-0.0226788 0.026523411 0.19543836
-0.023046626 0.021866124 0.20040159
-0.023515822 0.017961536 0.20309192
-0.023581333 0.015710764 0.20489779
-0.02391872 0.013314386 0.20527388
-0.024250248 0.0097364439 0.20720929
-0.024484599 0.0057541528 0.2092576
-0.024543162 0.0024422274 0.21213837
-0.025063958 -0.00049194926 0.21545544
-0.02582759 -0.0039852359 0.21897638
-0.026184607 -0.0073217666 0.22090068
-0.026197009 -0.010571961 0.22203462
-0.026221884 -0.014357498 0.22465575
-0.026029957 -0.017967932 0.22577111
-0.026462397 -0.021968383 0.22704771
-0.026295571 -0.025712868 0.23075028
-0.018031593 0.043146782 0.18163484
-0.01804396 0.040981352 0.18372393
-0.018146757 0.038177297 0.18526424
-0.01849978 0.035357818 0.18738969
-0.018774187 0.032467335 0.18964374
-0.018994 0.029901346 0.19244541
-0.0193433 0.02716358 0.19724698
-0.019811807 0.023196887 0.20097917
-0.019907381 0.019150294 0.20425186
-0.020116683 0.015832534 0.20626196
-0.020296246 0.01327495 0.20746355
-0.021036731 0.010166914 0.20906901
-0.021452358 0.0063141128 0.21159658
-0.021363076 0.0032248369 0.21395245
-0.021456346 -0.00023556371 0.21667908
-0.02195207 -0.0038695403 0.22021785
-0.022258563 -0.0074783224 0.22179393
-0.022055523 -0.01113752 0.22241597
-0.02172363 -0.014838509 0.22487246
-0.021830207 -0.018062901 0.22543219
-0.02215087 -0.021888327 0.22609869
-0.022443453 -0.026093224 0.23106033
-0.01512544 0.040954821 0.18490644
-0.015305948 0.038413778 0.18661588
-0.015561781 0.035468489 0.18835731
-0.015821809 0.032383353 0.19041248
-0.016130263 0.029855749 0.19286796
-0.01609428 0.027158646 0.19775306
-0.016559921 0.023371106 0.20172988
-0.016515069 0.019974848 0.2042608
-0.016645661 0.016308118 0.20621003
-0.016671361 0.01345042 0.20885286
-0.017306339 0.010536755 0.21054578
-0.017643338 0.007067577 0.21281102
-0.017714238 0.0037418581 0.21552493
-0.017749658 -3.8390375e-05 0.21843675
-0.018107822 -0.0036786729 0.22166342
-0.018283965 -0.0075367568 0.22313201
-0.017789543 -0.011248049 0.22390029
-0.017823819 -0.014992885 0.22497843
-0.018444156 -0.018725336 0.22608012
-0.018584488 -0.022499615 0.22797382
-0.018854855 -0.026372984 0.2327539
-0.012755315 0.038085546 0.18797626
-0.012662752 0.034969054 0.18907988
-0.01290331 0.032141503 0.19101608
-0.013194685 0.029498432 0.19309986
-0.01299605 0.026932262 0.19671869
-0.013248369 0.02381482 0.20149462
-0.013380843 0.020479606 0.20504673
-0.013364241 0.017050397 0.20793329
-0.013308239 0.013957355 0.21017236
-0.013443287 0.010816555 0.21178545
-0.013461522 0.007767892 0.21403354
-0.013861605 0.0040217489 0.21691377
-0.014102461 0.00019782684 0.22020644
-0.014350662 -0.0035060898 0.22248513
-0.014366266 -0.0073803486 0.22356372
-0.014167668 -0.011752677 0.22505683
-0.014324381 -0.015671344 0.22633073
-0.014862671 -0.019460747 0.22794186
-0.01518587 -0.023186032 0.23080742
-0.015217612 -0.026431035 0.23480617
-0.010004521 0.034680009 0.18960755
-0.0096209869 0.031983476 0.19132164
-0.0099363439 0.029204303 0.19331488
-0.0098631224 0.026571535 0.19662164
-0.010019546 0.02405359 0.20123136
-0.010125701 0.021150306 0.20564413
-0.0099096019 0.018021641 0.20866692
-0.0098538585 0.014353817 0.21089935
-0.0097964415 0.011055214 0.2126376
-0.0096947486 0.0078986408 0.21547401
-0.010197348 0.0042667915 0.21819659
-0.010382268 0.00038935416 0.22113851
-0.01057571 -0.0033569813 0.2227252
-0.01093932 -0.0074873031 0.22396743
-0.010613987 -0.011627558 0.22465263
-0.010804933 -0.015825979 0.22778691
-0.011140334 -0.019569451 0.22965722
-0.011626723 -0.023651365 0.23340665
-0.01234826 -0.02613784 0.23582621
-0.0066126627 0.031530976 0.19185475
-0.0065240413 0.028966594 0.19414286
-0.0066327564 0.02619284 0.19740441
-0.0069162692 0.023732422 0.20074828
-0.0068022879 0.021240482 0.20497905
-0.0063989819 0.018135024 0.20828536
-0.0062392284 0.014620403 0.21075396
-0.0062028663 0.011169421 0.21265325
-0.006064008 0.0076903747 0.21584179
-0.0064586843 0.0040045385 0.2187454
-0.0066532977 0.00021080323 0.22154763
-0.0067999186 -0.003361322 0.22261928
-0.0072158375 -0.007416517 0.22472088
-0.0071515031 -0.011859619 0.22530207
-0.0073436308 -0.015998321 0.22888215
-0.0080221435 -0.019636609 0.23082873
-0.0088252891 -0.022770001 0.23275076
-0.0039856629 0.03082029 0.19303207
-0.0029927047 0.028856598 0.19517563
-0.0032262236 0.025844377 0.19725791
-0.0034124043 0.023101311 0.19998442
-0.0032173782 0.020703394 0.20347832
-0.0030391619 0.017922301 0.20697503
-0.0026931537 0.014378047 0.21017441
-0.0026246712 0.010972466 0.21249531
-0.0024364449 0.0075267861 0.21544456
-0.0027746342 0.0038676679 0.21786191
-0.0028952854 0.0002025487 0.22074187
-0.0030851373 -0.0037588323 0.22212288
-0.0033323017 -0.0077712326 0.22493692
-0.0039232126 -0.011967469 0.22608116
-0.0048610051 -0.015412555 0.22871271
1.9212264e-05 0.028040273 0.19605485
0.00014716839 0.02571119 0.19709472
-6.9321322e-05 0.022966668 0.19912958
0.00010646154 0.020479001 0.2022209
0.00050027587 0.017627094 0.20558232
0.000909483 0.014151987 0.20879012
0.0010775815 0.010712722 0.21149634
0.001159984 0.0071646147 0.21377102
0.00061472395 0.003765329 0.21629871
0.00071346946 2.3221231e-05 0.21894115
0.00017109378 -0.003630813 0.22173393
-0.0010210015 -0.0071693896 0.22528279
0.003386294 0.025619548 0.19726107
0.0037256202 0.022955315 0.19908898
0.0037288396 0.020126579 0.2012763
0.0038417634 0.017379431 0.20480573
0.0043206387 0.013935338 0.20717761
0.0039401269 0.010962156 0.20977117
0 0 0 1 0 0 0 1 0 0 0 1 0 0 0 0 0 346 1 0 0
