ply
format ascii 1.0
comment PCL generated
element vertex 346
property float x
property float y
property float z
element camera 1
property float view_px
property float view_py
property float view_pz
property float x_axisx
property float x_axisy
property float x_axisz
property float y_axisx
property float y_axisy
property float y_axisz
property float z_axisx
property float z_axisy
property float z_axisz
property float focal
property float scalex
property float scaley
property float centerx
property float centery
property int viewportx
property int viewporty
property float k1
property float k2
end_header
-0.056992684 0.030986639 0.18745753
-0.057805385 0.028133309 0.18836936
-0.058039777 0.025467932 0.18970107
-0.058256429 0.022571672 0.19114619
-0.058173951 0.019585341 0.19197026
-0.057210442 0.016239431 0.19387482
-0.053118665 0.033165798 0.18371983
-0.05417949 0.030805698 0.18545648
-0.054045729 0.027915735 0.18606012
-0.054317757 0.025233286 0.18770699
-0.05481004 0.022537762 0.18951018
-0.055142038 0.019466996 0.19132526
-0.055078156 0.016502006 0.1929443
-0.0553228 0.013473524 0.19460955
-0.055309851 0.010259243 0.19613943
-0.048266545 0.035470773 0.17986915
-0.049237181 0.033179615 0.18109131
-0.049955662 0.030419188 0.18257806
-0.050405964 0.027610026 0.18422629
-0.050682716 0.025120772 0.18674172
-0.051185887 0.022400044 0.18856506
-0.051452931 0.019720089 0.19062756
-0.05172288 0.016845984 0.19247182
-0.052293539 0.013193355 0.19394985
-0.053319998 0.0090599144 0.19597377
-0.053844213 0.0053279451 0.19947335
-0.053685851 0.0017878694 0.2024463
-0.044689629 0.038044438 0.17789884
-0.045370396 0.035670504 0.1788574
-0.045843542 0.033143427 0.18021879
-0.046453301 0.030524557 0.18192555
-0.047043029 0.027767597 0.18429011
-0.047306016 0.025199685 0.18703437
-0.047671661 0.022557504 0.18912846
-0.048039682 0.019872477 0.19100679
-0.048477232 0.016886255 0.19301763
-0.049041189 0.012920349 0.1939064
-0.049776454 0.0081576677 0.19393568
-0.050785463 0.003871267 0.1981113
-0.050922338 0.00053839094 0.20371215
-0.051666319 -0.0021800627 0.2078266
-0.052143488 -0.0039393953 0.21183172
-0.041357882 0.040561952 0.17713566
-0.042241909 0.038623188 0.17798641
-0.042437568 0.035989538 0.17930394
-0.042783674 0.033515476 0.18082377
-0.043527007 0.030873675 0.18287711
-0.043798592 0.027911549 0.18519647
-0.043926571 0.025203574 0.18768637
-0.044254761 0.022482973 0.18963411
-0.044658434 0.019608717 0.19135866
-0.045315318 0.016777147 0.19320442
-0.0455162 0.012496066 0.19382259
-0.045682162 0.0072886953 0.19295521
-0.046112634 0.0023630864 0.19690289
-0.047465451 -1.0085319e-05 0.20453477
-0.048498176 -0.0024331105 0.2088996
-0.049632587 -0.0043773083 0.21287417
-0.050372463 -0.0065985471 0.21569785
-0.051025931 -0.0091387229 0.21905576
-0.038992878 0.041379016 0.17688425
-0.039342269 0.038975012 0.178744
-0.039706178 0.036316495 0.1801392
-0.040084805 0.033703264 0.18177707
-0.0403299 0.030872354 0.18384571
-0.040727101 0.02783116 0.18620375
-0.041023731 0.025238046 0.18843625
-0.041419622 0.022624699 0.19002263
-0.041476499 0.019700849 0.19150075
-0.042031504 0.016539741 0.19335416
-0.041640919 0.011606271 0.19323584
-0.040521026 0.0054865978 0.1925932
-0.039400689 4.9784565e-05 0.19556083
-0.043930318 -0.0011009622 0.20531738
-0.045171417 -0.0027391142 0.20989956
-0.046019856 -0.0040137782 0.21394086
-0.047063902 -0.0064805462 0.2171915
-0.048426319 -0.0097442623 0.22028698
-0.048719365 -0.013256059 0.22282936
-0.048247464 -0.016719151 0.22375205
-0.03582184 0.043243177 0.17572589
-0.036267813 0.041877329 0.17727876
-0.03649139 0.039414939 0.17907773
-0.036915321 0.036570791 0.18070489
-0.037221663 0.03400984 0.18281409
-0.037329979 0.030833803 0.1849995
-0.037613146 0.02781626 0.18704481
-0.038185973 0.025385855 0.18919356
-0.038626276 0.022668576 0.19108993
-0.038674764 0.019484522 0.19189389
-0.038751699 0.015549636 0.19328201
-0.037838429 0.010352594 0.19298996
-0.037048627 0.0047725374 0.19487344
-0.036855068 0.00032726995 0.1981647
-0.040309519 -0.0015943159 0.20620212
-0.041719161 -0.0025127141 0.21110976
-0.04271603 -0.0040972563 0.21511611
-0.043181382 -0.0071145385 0.21728404
-0.043956771 -0.010015642 0.21967155
-0.044698045 -0.014343823 0.22174078
-0.045238327 -0.018541193 0.22476815
-0.04405085 -0.021260265 0.22672023
-0.033191372 0.043767318 0.17607968
-0.033257455 0.042377077 0.17757915
-0.033122119 0.039894711 0.17967802
-0.033293653 0.037184846 0.18120232
-0.033613376 0.034433257 0.18348297
-0.033967521 0.031158483 0.18656431
-0.034514468 0.028086314 0.18795964
-0.035156641 0.025361994 0.19010191
-0.035484768 0.022377463 0.19197516
-0.035615154 0.019010458 0.19334517
-0.035630919 0.014923614 0.19463024
-0.034713276 0.010593821 0.19430113
-0.034283642 0.0057406607 0.19669028
-0.034452863 0.0018501563 0.20058253
-0.037056249 -6.4945729e-05 0.20642327
-0.038513843 -0.0021798916 0.21247303
-0.039255522 -0.00419275 0.21592297
-0.039475355 -0.0073622186 0.21726161
-0.040022332 -0.011176561 0.21946931
-0.040699199 -0.015323187 0.22115062
-0.040968351 -0.019158335 0.22390145
-0.040603798 -0.021717535 0.22642408
-0.030227564 0.043935325 0.17680715
-0.030120471 0.042520013 0.17813788
-0.030182023 0.040086545 0.18016097
-0.030349996 0.03751941 0.18222629
-0.030364517 0.034613911 0.18455105
-0.03088868 0.031377569 0.18756485
-0.031377658 0.028431315 0.18909012
-0.032028139 0.025331791 0.19111255
-0.032263082 0.021900833 0.19317642
-0.032633122 0.018605111 0.19483414
-0.032738518 0.014661842 0.19592521
-0.032083858 0.011081042 0.19606857
-0.031453423 0.0068418784 0.19885203
-0.031999242 0.0033409426 0.2026352
-0.034091763 0.0013596046 0.20722973
-0.035395179 -0.0011924274 0.21219897
-0.035805065 -0.0041573881 0.21595231
-0.036160987 -0.0073604463 0.21767293
-0.036751643 -0.011201226 0.22000337
-0.037185472 -0.015278351 0.22178859
-0.037256762 -0.019029785 0.2235004
-0.036701538 -0.021823877 0.22588342
-0.027160097 0.044173017 0.17729145
-0.027117142 0.042684082 0.17860343
-0.027393157 0.040155109 0.18035051
-0.027366433 0.037646584 0.18289894
-0.027320266 0.034792762 0.18565053
-0.027728075 0.031761426 0.18813944
-0.02831316 0.028636608 0.19024181
-0.028891079 0.02556234 0.19218664
-0.029228015 0.021831255 0.19474772
-0.02963382 0.017953336 0.1972504
-0.030163338 0.01493162 0.1979564
-0.029697508 0.012454784 0.19880562
-0.029533507 0.0087584713 0.20187734
-0.029425722 0.0051377835 0.20448698
-0.030948991 0.0017197455 0.20830627
-0.032187533 -0.00079569739 0.21215864
-0.032594614 -0.0042642327 0.21660681
-0.033006474 -0.0075915698 0.21835282
-0.03358059 -0.011389758 0.22083424
-0.033941314 -0.015326634 0.22338267
-0.033653725 -0.018919533 0.2250198
-0.03344918 -0.02206686 0.22716998
-0.024222285 0.044401959 0.17810747
-0.024128957 0.042999741 0.17944863
-0.024159515 0.040283781 0.18077119
-0.024269706 0.037641708 0.18327183
-0.024329783 0.035044003 0.18613006
-0.024671094 0.032134961 0.18851943
-0.025249394 0.029029103 0.1913477
-0.025897181 0.025568159 0.19390793
-0.026091808 0.021515397 0.19690137
-0.026425606 0.017471345 0.19913451
-0.026231298 0.015321706 0.20088445
-0.027069764 0.013477726 0.20179914
-0.02744557 0.0093524391 0.20503446
-0.027209133 0.0055896719 0.20687629
-0.027914429 0.00212686 0.21051
-0.028575381 -0.00094326062 0.21427225
-0.029313218 -0.0047661718 0.21819006
-0.029630659 -0.0079580862 0.21981819
-0.030157812 -0.011507518 0.22175261
-0.030352961 -0.015115215 0.22438835
-0.029927393 -0.018789923 0.22617772
-0.030281702 -0.022150759 0.22800103
-0.030818496 -0.025077738 0.2316553
-0.021144409 0.044747729 0.17908241
-0.020886641 0.043264486 0.1804706
-0.021071224 0.040323652 0.18202372
-0.021113267 0.037491012 0.1837505
-0.021295348 0.034959022 0.18682249
-0.021772543 0.032251358 0.18907326
-0.022175007 0.02953049 0.19200404
-0.02263055 0.02615237 0.19509751
-0.022817003 0.021152049 0.1992003
-0.023349892 0.017270764 0.20198701
-0.023417966 0.015107603 0.2039286
-0.023789959 0.01286477 0.20458798
-0.024281543 0.0094730239 0.20676036
-0.024734389 0.0057013039 0.20912926
-0.024772059 0.0022854337 0.21236639
-0.025170866 -0.00091906596 0.21590178
-0.025813157 -0.0046271025 0.21921286
-0.026051572 -0.0082393456 0.22094767
-0.02608894 -0.011507149 0.22249308
-0.026359458 -0.014955475 0.22552386
-0.026256148 -0.018543055 0.22699524
-0.026812714 -0.022559974 0.22844122
-0.026788555 -0.026255192 0.23229334
-0.018158976 0.043106455 0.18178314
-0.01809614 0.040835533 0.18373087
-0.018074794 0.037903689 0.18507388
-0.018402243 0.035049565 0.18712424
-0.018630711 0.032246549 0.18940718
-0.018786643 0.029605772 0.1921538
-0.019093094 0.026461909 0.19651774
-0.019465195 0.022258278 0.1996462
-0.019730426 0.018299956 0.20286828
-0.019976838 0.015035176 0.20499547
-0.020181414 0.01246176 0.20655282
-0.021087701 0.0095762769 0.20860001
-0.021664204 0.0060359188 0.21166596
-0.021549564 0.0028810324 0.21441154
-0.021626234 -0.00054919085 0.21734731
-0.022105074 -0.004209124 0.22098868
-0.022346999 -0.0081319874 0.22267433
-0.022085859 -0.011809654 0.22368339
-0.021824006 -0.0153116 0.22636345
-0.02195785 -0.018604506 0.22701181
-0.022372428 -0.022565488 0.22770172
-0.022932524 -0.02669993 0.23278444
-0.015170851 0.040847547 0.18490024
-0.015217802 0.038180791 0.18641911
-0.015381481 0.035147779 0.18791144
-0.015607623 0.032210149 0.19019109
-0.015877021 0.029654864 0.19266552
-0.015850969 0.026647812 0.19717583
-0.01631684 0.022592578 0.2006084
-0.016378038 0.019152392 0.20308191
-0.016629953 0.015592013 0.20515254
-0.016694373 0.012722542 0.20807473
-0.017455345 0.0099740392 0.21034227
-0.017849842 0.006688382 0.21298453
-0.01788128 0.0033945753 0.21588834
-0.017901909 -0.00027390377 0.21915309
-0.01827261 -0.003753853 0.22270651
-0.018492034 -0.0077701723 0.22441448
-0.017929429 -0.011652051 0.22529927
-0.017879251 -0.015411754 0.22640504
-0.018532662 -0.019190006 0.22757791
-0.018812919 -0.023129158 0.22959436
-0.019262765 -0.026936693 0.23449057
-0.012603856 0.037878446 0.18766867
-0.012499964 0.034911018 0.18896626
-0.012706912 0.032175023 0.19106156
-0.012917108 0.029494978 0.19311003
-0.012650398 0.026816005 0.19661464
-0.013082562 0.023236308 0.20081998
-0.01337531 0.019710699 0.20412655
-0.013477942 0.016284298 0.20699738
-0.013421151 0.013190893 0.20949933
-0.01358309 0.010218168 0.21161944
-0.013646691 0.0073491959 0.21413985
-0.013981164 0.0036673299 0.21721202
-0.014226016 -2.0104977e-05 0.22081763
-0.014478492 -0.0035618332 0.22356553
-0.014482323 -0.0075322879 0.2248354
-0.01421209 -0.012099897 0.2262437
-0.014344572 -0.016141806 0.22756852
-0.014881155 -0.019914823 0.22920235
-0.015324974 -0.023694443 0.23221172
-0.015486184 -0.026926449 0.23632964
-0.0098244231 0.034859322 0.18979131
-0.0093726376 0.032235533 0.19161715
-0.0096109817 0.029492747 0.19372115
-0.0094887167 0.026885143 0.19701841
-0.0099059381 0.023829674 0.20116149
-0.010267029 0.020400008 0.20506939
-0.010124911 0.017153028 0.2079175
-0.010025336 0.013557534 0.21023336
-0.0099177463 0.01035032 0.21225418
-0.0098547665 0.0073503265 0.21536987
-0.010284425 0.003894279 0.21837837
-0.010465148 0.00014815343 0.22168638
-0.010685536 -0.0034296482 0.22377461
-0.011017654 -0.0076054176 0.22515479
-0.010631747 -0.011940122 0.22574964
-0.010785301 -0.016233169 0.22882286
-0.011035411 -0.019942334 0.23061988
-0.011631736 -0.024075387 0.234557
-0.012436523 -0.026566954 0.23712632
-0.0062637278 0.031931069 0.19252579
-0.0061921836 0.029476577 0.19501927
-0.0063321688 0.026797075 0.19841926
-0.0067195143 0.023898115 0.20138279
-0.0069307922 0.020800428 0.20517355
-0.0066381325 0.01744801 0.2081333
-0.0064007621 0.013975414 0.21041587
-0.0063253744 0.010600012 0.21243763
-0.0062565431 0.0072224992 0.21584445
-0.0065067732 0.0036259301 0.21904121
-0.0066814707 -9.3400755e-05 0.22211719
-0.0067788721 -0.0036355704 0.22331367
-0.0072369124 -0.0075795143 0.22559378
-0.0071583469 -0.012133324 0.22614454
-0.007280515 -0.016351229 0.22964735
-0.0079197902 -0.020024359 0.23164903
-0.0087095983 -0.023141943 0.2336877
-0.0036593035 0.031427741 0.19412872
-0.0027056714 0.029643483 0.19667843
-0.0029328291 0.026787858 0.19906428
-0.0031449054 0.023805602 0.20150925
-0.0031615964 0.02088777 0.20448437
-0.0032006241 0.017599477 0.20747833
-0.0028406458 0.014006827 0.2103086
-0.0027699692 0.010690616 0.21269432
-0.0026301215 0.0072729262 0.21573204
-0.0028644346 0.003552275 0.21828216
-0.0028775989 -9.9816491e-05 0.22131847
-0.0030472064 -0.0040775109 0.22274014
-0.0033233177 -0.0080930237 0.22541933
-0.0039263354 -0.012288897 0.22666332
-0.0048206034 -0.015817035 0.22935823
0.00024388472 0.029186571 0.19820258
0.0004055014 0.027036881 0.19966264
0.00023452613 0.024185169 0.20157599
0.00028645666 0.021105062 0.20394191
0.00044712293 0.017768923 0.20666887
0.00076715549 0.01419787 0.20966601
0.00094830204 0.01076932 0.21226908
0.0010493851 0.0072452407 0.21460377
0.00057102088 0.0036192709 0.21690409
0.00075547158 -0.00024571733 0.2194925
0.00020741335 -0.0039489181 0.22225489
-0.0010099136 -0.0075383359 0.22573259
0.003664538 0.027137036 0.20026793
0.0040502572 0.024302818 0.20187351
0.0040271725 0.021162979 0.20356198
0.0038689859 0.017891722 0.20646665
0.0043004765 0.014418199 0.20873705
0.0038798058 0.011294127 0.21110648
0 0 0 1 0 0 0 1 0 0 0 1 0 0 0 0 0 346 1 0 0
