ply
format ascii 1.0
comment PCL generated
element vertex 346
property float x
property float y
property float z
element camera 1
property float view_px
property float view_py
property float view_pz
property float x_axisx
property float x_axisy
property float x_axisz
property float y_axisx
property float y_axisy
property float y_axisz
property float z_axisx
property float z_axisy
property float z_axisz
property float focal
property float scalex
property float scaley
property float centerx
property float centery
property int viewportx
property int viewporty
property float k1
property float k2
end_header
-0.057420176 0.030625451 0.18778066
-0.058324702 0.027922519 0.18895905
-0.058571931 0.025318887 0.19046341
-0.058782361 0.022543447 0.1920996
-0.059074935 0.02011426 0.19323561
-0.058129393 0.016566394 0.194695
-0.053432226 0.032819461 0.18404286
-0.054702077 0.030467808 0.18577996
-0.054638702 0.027589899 0.18652354
-0.054948904 0.0249923 0.1884191
-0.055535063 0.022374701 0.19048752
-0.056129131 0.01966225 0.19242653
-0.056026984 0.016634431 0.19380462
-0.05630574 0.013574923 0.19534627
-0.056518819 0.010614612 0.19683589
-0.048240442 0.034904853 0.17994303
-0.049306281 0.032747779 0.18128671
-0.050344519 0.03008162 0.18281998
-0.05098721 0.027227931 0.18457347
-0.05132762 0.024786578 0.18729676
-0.051860671 0.0221662 0.18936247
-0.052382644 0.019542946 0.19130316
-0.052702017 0.016643509 0.19298826
-0.053443789 0.013067354 0.19449687
-0.05469368 0.0091050649 0.19663492
-0.054927047 0.0053799893 0.19964819
-0.054707211 0.0020200636 0.20245524
-0.044666905 0.037350092 0.17783834
-0.04535035 0.035054881 0.17891084
-0.045868613 0.032655608 0.18034057
-0.046649713 0.030125456 0.182127
-0.047551852 0.027322909 0.18459685
-0.047965184 0.024754327 0.18745814
-0.048315249 0.022151787 0.18960316
-0.048934821 0.01942822 0.19132622
-0.049423367 0.016393229 0.19314238
-0.050313797 0.01247076 0.1942261
-0.051373657 0.0078873551 0.19465625
-0.052343585 0.0037656438 0.19848983
-0.05214015 6.6341869e-05 0.20345524
-0.052227151 -0.0024315719 0.2076553
-0.052443903 -0.0040018684 0.21143766
-0.041393839 0.040075406 0.17707959
-0.042205725 0.038053606 0.17788903
-0.042429674 0.035442069 0.17926437
-0.042828482 0.033049606 0.18086687
-0.043632139 0.030479809 0.18303749
-0.044348195 0.027363161 0.18533984
-0.044591509 0.024633445 0.18776903
-0.044823173 0.021892797 0.18965656
-0.045608781 0.018976348 0.19146124
-0.046289288 0.016100783 0.19305404
-0.04684737 0.011771979 0.1939515
-0.047603957 0.0065566152 0.1938165
-0.048156865 0.0019004404 0.19784033
-0.048613019 -0.00087881886 0.20383005
-0.049164064 -0.0029954319 0.20840438
-0.050166339 -0.0047832574 0.21255572
-0.050788824 -0.00706995 0.21555442
-0.051287834 -0.0096012019 0.21916284
-0.039138351 0.041150138 0.17704064
-0.039403301 0.03846458 0.17863446
-0.039770614 0.035816301 0.18006049
-0.040141024 0.033305161 0.18176207
-0.040539987 0.030476004 0.18395372
-0.041360211 0.02725983 0.18615016
-0.041629333 0.024575923 0.18825011
-0.042043898 0.021912469 0.18973663
-0.04247091 0.019012956 0.19127069
-0.043041136 0.015652519 0.19289386
-0.043462295 0.010594259 0.19340193
-0.043417577 0.0046355897 0.19364126
-0.042317849 -0.00039361737 0.19708788
-0.044947095 -0.0020348143 0.2045403
-0.045829989 -0.0033946352 0.20945527
-0.046607371 -0.0045065125 0.21347173
-0.047439352 -0.007014249 0.21701567
-0.048651945 -0.010105412 0.22042933
-0.048620328 -0.013541598 0.22282341
-0.047889486 -0.017178539 0.22363336
-0.036051281 0.043269016 0.17610525
-0.036463264 0.041749459 0.17753965
-0.036625754 0.039092835 0.17907943
-0.037008096 0.03615253 0.18059322
-0.03731158 0.033653967 0.18286894
-0.037730876 0.030428614 0.185156
-0.038227249 0.027212838 0.18694362
-0.038800992 0.02460504 0.18893091
-0.039297488 0.021826627 0.19061661
-0.039791029 0.018632056 0.1914697
-0.040065885 0.014575156 0.19268027
-0.040526748 0.0093308836 0.19313784
-0.040094536 0.0040863571 0.19571905
-0.039670493 0.00018336673 0.19942652
-0.041362558 -0.0024257826 0.20554253
-0.0424136 -0.0033206332 0.21034046
-0.04328806 -0.0050935107 0.21412243
-0.043790746 -0.0079495152 0.21664676
-0.044453252 -0.010415913 0.21941401
-0.044786084 -0.014824862 0.22198351
-0.04546259 -0.018989658 0.22528556
-0.044551324 -0.021604935 0.22742788
-0.033413097 0.043817315 0.17636223
-0.033413041 0.042348035 0.17779258
-0.033215679 0.039764706 0.17958169
-0.033407584 0.037060175 0.18099226
-0.03376336 0.034185704 0.18349767
-0.034371793 0.030708319 0.18672362
-0.035066191 0.027463863 0.18787275
-0.035771556 0.024552166 0.1897278
-0.036222819 0.021374058 0.19138101
-0.036795352 0.017938362 0.19265927
-0.037093718 0.013703307 0.19368915
-0.037444293 0.0095522618 0.19405028
-0.03722563 0.0051415106 0.19716296
-0.037099771 0.001868883 0.20124868
-0.038336672 -0.00077549327 0.20646198
-0.03897747 -0.0032886385 0.21143253
-0.039765868 -0.005528274 0.21491313
-0.040099893 -0.0082787108 0.21679625
-0.040428739 -0.012077237 0.21959905
-0.041056242 -0.016164636 0.22184849
-0.041448537 -0.019779565 0.2247923
-0.040990405 -0.02205256 0.22746803
-0.030462632 0.043924171 0.17688134
-0.030311037 0.042428825 0.17808472
-0.03025398 0.03990607 0.17991795
-0.030344192 0.03731411 0.18184216
-0.030475296 0.034313712 0.18438597
-0.031227103 0.030988205 0.18759401
-0.031812415 0.027882613 0.18899669
-0.032611743 0.024434844 0.19068979
-0.033099119 0.020762669 0.19242951
-0.033824116 0.017287884 0.19395995
-0.034240022 0.013258442 0.19479129
-0.03470365 0.0099295704 0.19539931
-0.034161676 0.0061416626 0.19877301
-0.034274045 0.0033637562 0.20284714
-0.035469752 0.00065795827 0.20740566
-0.036196429 -0.0022630447 0.21178071
-0.036395181 -0.0051147244 0.21571264
-0.036804415 -0.0081240227 0.21777913
-0.037179161 -0.012030119 0.22052042
-0.037668448 -0.01608862 0.22245006
-0.037797857 -0.019671235 0.22444296
-0.037120145 -0.022211093 0.22702077
-0.027456114 0.044007037 0.17718633
-0.027293542 0.042489577 0.17839496
-0.027475463 0.039933078 0.17999735
-0.027375884 0.037373319 0.18244632
-0.027326312 0.034382574 0.18523875
-0.027936142 0.031389557 0.18794836
-0.028628258 0.028196083 0.19011563
-0.029398035 0.024800999 0.19181825
-0.030065307 0.020536356 0.19392215
-0.03078864 0.016355366 0.1960413
-0.031373553 0.013235585 0.19636382
-0.03141316 0.010942993 0.19723628
-0.031050904 0.0078262119 0.20087866
-0.030808715 0.0048037767 0.20419545
-0.032338809 0.0012015619 0.20836516
-0.033230808 -0.0016224461 0.2123358
-0.033383258 -0.0048332107 0.21715918
-0.033702135 -0.0082523571 0.21888624
-0.034207821 -0.012188062 0.2216848
-0.034582008 -0.016074924 0.22415325
-0.034286223 -0.01951376 0.22596866
-0.033804696 -0.022370951 0.22811767
-0.024440387 0.044165038 0.17786726
-0.024275346 0.042751089 0.17914538
-0.024214296 0.040027276 0.18032824
-0.02421484 0.037335746 0.18279572
-0.024292359 0.034707438 0.18565433
-0.024796106 0.03184288 0.18816707
-0.025463436 0.028701847 0.19103521
-0.026294418 0.024909602 0.19352783
-0.026780959 0.020093648 0.19606945
-0.027182231 0.015729794 0.19774856
-0.026654202 0.013299825 0.19878851
-0.027587373 0.01172947 0.19962858
-0.027895246 0.008516253 0.20346512
-0.028164625 0.0050738156 0.20631649
-0.029303929 0.001723155 0.21067116
-0.029523483 -0.0013976764 0.21513639
-0.02998317 -0.005450529 0.21867685
-0.030351352 -0.0086129131 0.22049855
-0.030898966 -0.012193724 0.22271357
-0.031106543 -0.01587134 0.22528955
-0.030473746 -0.019365398 0.22712888
-0.030672537 -0.022435883 0.22883321
-0.031054009 -0.025251424 0.23229748
-0.021290826 0.044636719 0.17886549
-0.020986428 0.043121938 0.18021525
-0.02110081 0.040169261 0.18172532
-0.021084277 0.037259109 0.18345588
-0.02133004 0.034733519 0.18644048
-0.021882216 0.032111634 0.18871684
-0.022340605 0.029390262 0.19165356
-0.022903942 0.025887731 0.19460447
-0.023168739 0.020377059 0.19878708
-0.023077628 0.016110402 0.20070453
-0.023203041 0.013665379 0.20216051
-0.024132211 0.011463366 0.20280798
-0.024990652 0.0085832337 0.20558293
-0.025820224 0.005394503 0.20864974
-0.025889698 0.0021157099 0.21274042
-0.025836343 -0.0013420319 0.21642099
-0.026474131 -0.0051766327 0.21987583
-0.026701877 -0.0087886155 0.22153686
-0.02666262 -0.01200375 0.22330983
-0.026891377 -0.015474604 0.22643107
-0.026623348 -0.018915376 0.22775303
-0.027176533 -0.022782413 0.22921306
-0.026966726 -0.026471727 0.23302959
-0.018224163 0.043030061 0.18168481
-0.018203078 0.040745482 0.18358922
-0.018145015 0.037775591 0.18488318
-0.018448144 0.034893412 0.18689013
-0.018779332 0.032170288 0.18918104
-0.01899722 0.029598111 0.19191881
-0.01945932 0.026459515 0.19613892
-0.019712904 0.021971004 0.19949476
-0.01989059 0.017768499 0.20253947
-0.020174237 0.014326258 0.20432425
-0.020659631 0.011805321 0.20571446
-0.021808553 0.0090749329 0.20777732
-0.022309264 0.0056778463 0.21130602
-0.022074413 0.0024966737 0.2145492
-0.022177089 -0.00084470643 0.21775965
-0.02257916 -0.0045595262 0.2214697
-0.022775561 -0.0085504623 0.22301854
-0.022360232 -0.012210229 0.22424024
-0.02192436 -0.015581335 0.2268818
-0.022141736 -0.018788571 0.2275164
-0.022613009 -0.022797203 0.22829476
-0.023032242 -0.026964188 0.23336354
-0.01532732 0.040807135 0.18486023
-0.015342563 0.038120162 0.18631452
-0.015483204 0.035094041 0.18783063
-0.01582106 0.032228541 0.19009458
-0.016152384 0.029749164 0.19251861
-0.016224464 0.026660128 0.19710131
-0.016686093 0.022536006 0.20057188
-0.016584428 0.018999981 0.20307572
-0.016736565 0.015264602 0.205028
-0.017108273 0.012370382 0.207819
-0.018165024 0.0096151391 0.21007682
-0.018466072 0.0063617802 0.21295014
-0.018301036 0.0030866649 0.21599658
-0.018212855 -0.00048732766 0.21927306
-0.018434893 -0.0039729266 0.22286668
-0.018708952 -0.0080342786 0.22448809
-0.01811707 -0.01191528 0.22543137
-0.018053066 -0.015588659 0.22659273
-0.018866979 -0.019397307 0.22792982
-0.019082043 -0.023387969 0.23008275
-0.019317064 -0.027216287 0.23492399
-0.012800353 0.03788523 0.18767183
-0.012722613 0.034876157 0.18906948
-0.012979116 0.032159403 0.19110574
-0.013195204 0.029547218 0.19320513
-0.012994022 0.026819414 0.19671907
-0.013511383 0.023262387 0.20094243
-0.013675137 0.019775948 0.2042648
-0.01363641 0.016264232 0.20709985
-0.013675901 0.013077737 0.20955227
-0.013993773 0.010029026 0.21178296
-0.014101214 0.0072066784 0.21430495
-0.014274107 0.0035294823 0.21732421
-0.014373983 -0.00018072219 0.22089241
-0.014640389 -0.0037055162 0.22359644
-0.014651326 -0.0077630533 0.22476292
-0.014391718 -0.012348332 0.22625533
-0.014571482 -0.016449261 0.22780381
-0.015186801 -0.020221924 0.22953025
-0.015552798 -0.023937924 0.23243922
-0.015503174 -0.027183251 0.2364525
-0.010147315 0.034920577 0.18995957
-0.0097104264 0.032278158 0.19180147
-0.0099245049 0.029582916 0.19396561
-0.0098034004 0.02686945 0.1971703
-0.010292343 0.023881773 0.20127364
-0.010692925 0.020616885 0.20525837
-0.010358295 0.017364608 0.20807293
-0.010219583 0.013637655 0.21032387
-0.01011784 0.010347839 0.21250036
-0.010110224 0.0073075821 0.21555258
-0.010436273 0.0038860498 0.21848699
-0.010594595 9.2052498e-05 0.22171868
-0.010836961 -0.0034538342 0.22368868
-0.01117952 -0.0077199042 0.22492149
-0.010833711 -0.012144715 0.22572923
-0.010966156 -0.016552072 0.22888729
-0.011164711 -0.020252978 0.23069534
-0.011736464 -0.024399552 0.23459849
-0.012445929 -0.02687189 0.23711969
-0.006527971 0.032074675 0.19288127
-0.0064601111 0.029630637 0.19540693
-0.0065462571 0.026784098 0.19863494
-0.0070067765 0.023907939 0.20160609
-0.0072292625 0.021067394 0.20551303
-0.0069255126 0.017689887 0.20843539
-0.0065834811 0.014119303 0.21060969
-0.0064558815 0.010659662 0.21265681
-0.0064382521 0.0072269468 0.21606401
-0.0065881433 0.0036065306 0.21917726
-0.006796171 -0.00010500117 0.22216615
-0.0068706339 -0.0036136219 0.22325435
-0.0074400818 -0.0076303431 0.22534363
-0.0073814145 -0.012312686 0.22601542
-0.0073979939 -0.016647123 0.2295275
-0.0079384269 -0.020364 0.23151252
-0.0087294644 -0.023481149 0.2336399
-0.0038818184 0.031565826 0.1945311
-0.0028189393 0.029645998 0.1970488
-0.0030799315 0.026645422 0.19931398
-0.0033868791 0.023823958 0.20167358
-0.0034083927 0.021050924 0.20479022
-0.003528568 0.017731821 0.20782943
-0.0030278475 0.014085812 0.21051235
-0.0028703643 0.010763283 0.21285079
-0.0027724311 0.0073096352 0.21592548
-0.0029386447 0.0035927659 0.21853478
-0.0029201431 -5.8781679e-05 0.22155838
-0.0030736218 -0.0040892349 0.22286788
-0.0035430798 -0.0081581082 0.22534041
-0.0041183247 -0.012455942 0.22648406
-0.0049237306 -0.01617085 0.22924456
0.00012972191 0.028992793 0.19844574
0.00025604732 0.026722858 0.19976698
3.8277023e-05 0.02404066 0.20169054
2.0104364e-05 0.021097111 0.20427449
7.8834266e-05 0.017700499 0.20699427
0.0005276684 0.014109451 0.20991082
0.00079039577 0.010742673 0.21244985
0.00093109894 0.0072436836 0.21480885
0.00049703359 0.0037251678 0.21720393
0.00076131045 -0.00015506345 0.21991657
0.00016758349 -0.0039568255 0.22259468
-0.0012831627 -0.0075909044 0.22580487
0.0036329282 0.026720326 0.20033714
0.0039115939 0.02395748 0.20202745
0.0037732869 0.020928025 0.20387147
0.0035523034 0.0176659 0.2067665
0.004102008 0.014133254 0.20898183
0.0036875454 0.011132435 0.21134858
0 0 0 1 0 0 0 1 0 0 0 1 0 0 0 0 0 346 1 0 0
