ply
format ascii 1.0
comment PCL generated
element vertex 346
property float x
property float y
property float z
element camera 1
property float view_px
property float view_py
property float view_pz
property float x_axisx
property float x_axisy
property float x_axisz
property float y_axisx
property float y_axisy
property float y_axisz
property float z_axisx
property float z_axisy
property float z_axisz
property float focal
property float scalex
property float scaley
property float centerx
property float centery
property int viewportx
property int viewporty
property float k1
property float k2
end_header
-0.057467733 0.030506922 0.18787915
-0.058364823 0.027815251 0.18907234
-0.058609553 0.025204932 0.19058901
-0.05880969 0.022432974 0.1922327
-0.05915565 0.02021159 0.19360694
-0.058228232 0.016576357 0.19491425
-0.053485073 0.032725144 0.18412806
-0.054766715 0.030367741 0.18587178
-0.054697465 0.027484637 0.18662474
-0.054998878 0.024886109 0.18853402
-0.055583403 0.022263547 0.19061917
-0.056242347 0.019752458 0.19279221
-0.056129821 0.016654413 0.1940285
-0.056410432 0.013516511 0.19543695
-0.056639325 0.010543733 0.19683935
-0.048244901 0.034815513 0.17997551
-0.049330823 0.032665178 0.18133998
-0.050405964 0.02999524 0.18288612
-0.05105482 0.027132418 0.18465407
-0.05137765 0.024686895 0.18738745
-0.051902018 0.022064596 0.18946904
-0.052486952 0.019644886 0.19162644
-0.052805789 0.016650753 0.19316925
-0.05356089 0.012980225 0.19454031
-0.054832537 0.0089778276 0.19661205
-0.055028517 0.0052765687 0.19958122
-0.054805975 0.0020122216 0.20238891
-0.044666536 0.037251804 0.17785849
-0.045346618 0.034971658 0.1789504
-0.045875531 0.032585364 0.18038954
-0.046675906 0.030055314 0.18217543
-0.047607757 0.027229877 0.18465881
-0.048011519 0.024653563 0.18752393
-0.048351828 0.022043258 0.18967216
-0.049014028 0.019521138 0.19157815
-0.049508143 0.016349731 0.1932205
-0.050433759 0.012331751 0.19419505
-0.051525317 0.0077335639 0.19458972
-0.052489996 0.003649998 0.19843957
-0.052275289 -9.7144566e-06 0.20340684
-0.052330356 -0.002489544 0.20761426
-0.052545957 -0.0040518669 0.21142423
-0.041406047 0.039995041 0.17709917
-0.04220574 0.037970647 0.1779086
-0.042428415 0.035373099 0.17930079
-0.042834889 0.032990936 0.1809112
-0.043637682 0.030420361 0.18307891
-0.044386193 0.027270276 0.18535922
-0.044633828 0.0245234 0.18778491
-0.044854742 0.021772886 0.18966477
-0.04567802 0.018978011 0.19154905
-0.046368938 0.016009515 0.19302924
-0.046968602 0.011600221 0.19384764
-0.047758453 0.0063766087 0.19370691
-0.048307128 0.0017579816 0.19776824
-0.04874884 -0.00096495857 0.20376277
-0.049277313 -0.0030691456 0.20833814
-0.050274782 -0.0048439377 0.21250758
-0.050816458 -0.0072137285 0.21553941
-0.051291041 -0.0097421966 0.21916296
-0.039166771 0.041096944 0.17708293
-0.039416261 0.038398616 0.17866005
-0.039779406 0.035758372 0.18009624
-0.040147867 0.033256628 0.18179891
-0.04055218 0.030414065 0.18397832
-0.041400738 0.027159406 0.1861383
-0.041668352 0.024457103 0.18822366
-0.042082213 0.021779897 0.18970636
-0.042532355 0.018916246 0.1912183
-0.043115091 0.015513859 0.19275196
-0.04361761 0.01040236 0.19325013
-0.043595787 0.0044424329 0.19352937
-0.042481776 -0.00053610123 0.19704376
-0.045080177 -0.0021027215 0.20445289
-0.045948319 -0.0034682716 0.2093792
-0.046724256 -0.00458284 0.21338597
-0.047467045 -0.0071482342 0.21698755
-0.048651412 -0.010215405 0.22043054
-0.048575643 -0.013636711 0.22284049
-0.047812723 -0.017259913 0.22370861
-0.036090571 0.043241508 0.17615582
-0.036497023 0.041709527 0.1775851
-0.036648232 0.039040532 0.17911151
-0.037021469 0.036106631 0.18062569
-0.037317947 0.033608429 0.18290521
-0.037754454 0.030355159 0.18516582
-0.03826775 0.027111735 0.18692313
-0.038839694 0.024479752 0.18888992
-0.039337847 0.021689868 0.19056582
-0.0398711 0.018483682 0.19134627
-0.040124465 0.014393479 0.19239999
-0.040694185 0.0091203107 0.19293873
-0.040279932 0.0039235321 0.19561009
-0.039849389 8.9210589e-05 0.19937086
-0.041516203 -0.0024628956 0.20542751
-0.042540763 -0.0034074213 0.21021225
-0.043427549 -0.0052435282 0.21397957
-0.043835819 -0.0080796489 0.2166054
-0.044477962 -0.01050497 0.21940343
-0.044764481 -0.014921808 0.22207069
-0.045423355 -0.019080251 0.22542903
-0.044522628 -0.021674337 0.22757998
-0.033449005 0.043795072 0.17639264
-0.033441957 0.042322494 0.17782
-0.033242527 0.039746899 0.17960317
-0.033436511 0.037050772 0.18102503
-0.033777729 0.034153044 0.18351711
-0.034395933 0.030637477 0.18671782
-0.035104301 0.02736629 0.18785287
-0.035812423 0.024428699 0.18968078
-0.036274441 0.021232624 0.19132967
-0.036864724 0.017765639 0.19247349
-0.037142389 0.013482556 0.19333103
-0.037592839 0.009331258 0.19377188
-0.037407011 0.0049829176 0.19701727
-0.037284292 0.0018068049 0.20111445
-0.038425114 -0.00087122881 0.20632114
-0.039076339 -0.0034278422 0.21128519
-0.039901573 -0.005702537 0.21473953
-0.040150866 -0.0084033627 0.21677542
-0.040450368 -0.012202804 0.21963501
-0.041057911 -0.016295528 0.22194658
-0.04143906 -0.019879501 0.22492209
-0.040960815 -0.022109905 0.22762866
-0.030498713 0.043897726 0.17688923
-0.030343719 0.042400137 0.17809507
-0.030280113 0.039881647 0.17993021
-0.030363264 0.037297703 0.18185821
-0.030481772 0.034289081 0.18439034
-0.031244751 0.030937357 0.1875769
-0.031836949 0.027809659 0.18897451
-0.032653306 0.024316596 0.19064344
-0.033161536 0.020622049 0.19237669
-0.033881433 0.017081188 0.19371393
-0.034284368 0.012994618 0.19437449
-0.03483548 0.0096708387 0.19505943
-0.034330063 0.0059591732 0.19857334
-0.034412842 0.0032819703 0.20268202
-0.035536639 0.00052838342 0.20721395
-0.036278017 -0.0024394982 0.21159625
-0.036515396 -0.005308338 0.2155461
-0.036848083 -0.0082491972 0.21778187
-0.037196632 -0.012158395 0.22055589
-0.03767699 -0.016214119 0.22251825
-0.037796099 -0.019772004 0.22455034
-0.037083268 -0.022269454 0.22715233
-0.027501198 0.043971881 0.17719454
-0.027329143 0.042457554 0.17840096
-0.027501924 0.039902017 0.18000348
-0.027392868 0.037349526 0.18245171
-0.027319303 0.034343116 0.18521594
-0.027940333 0.031350695 0.18792485
-0.028645439 0.028148714 0.19009052
-0.029433217 0.024713337 0.19177924
-0.03013332 0.020396598 0.19387348
-0.030816913 0.016074101 0.19571032
-0.031384733 0.012901776 0.19587325
-0.031478841 0.010639156 0.19678958
-0.031132912 0.0076555451 0.2005804
-0.030871818 0.0046991925 0.20399141
-0.03240373 0.0010820712 0.2081687
-0.03330237 -0.0017791098 0.21214284
-0.033475611 -0.0050374945 0.21691944
-0.033746075 -0.0083778584 0.21889772
-0.034239572 -0.012311232 0.22172897
-0.034591559 -0.01618555 0.22420724
-0.034282997 -0.019597625 0.2260484
-0.033765845 -0.022414962 0.22818741
-0.024484139 0.044132099 0.17787136
-0.024313396 0.042723767 0.17914821
-0.024240371 0.04000169 0.18032855
-0.024215788 0.037302926 0.18278427
-0.024284387 0.034677334 0.18564481
-0.024802815 0.031818923 0.1881602
-0.02547707 0.028672567 0.19101316
-0.026323337 0.024845896 0.19349404
-0.026843268 0.019955251 0.19602671
-0.027215224 0.015426129 0.1973813
-0.026678147 0.01310719 0.19845632
-0.027634453 0.011564055 0.19927926
-0.027947972 0.0084537622 0.20323887
-0.028217426 0.0050456082 0.20613864
-0.02937299 0.0016240114 0.21049725
-0.029603664 -0.001502012 0.21494673
-0.030025406 -0.0055872011 0.21867126
-0.030400841 -0.0087415166 0.22051454
-0.03094288 -0.012306398 0.22275525
-0.031122115 -0.015975056 0.22533581
-0.030457528 -0.019437553 0.22718121
-0.030651404 -0.022478292 0.22886331
-0.031033443 -0.025287198 0.23229454
-0.021335034 0.044632245 0.17888066
-0.021017652 0.043106437 0.18021469
-0.021118583 0.040149916 0.18171975
-0.021081196 0.037235029 0.18345375
-0.021335641 0.034728054 0.18645096
-0.021894896 0.032113694 0.18874086
-0.022355532 0.029385252 0.19166249
-0.022940898 0.025868056 0.19458079
-0.023255656 0.020299574 0.19877891
-0.023238312 0.016091552 0.2006775
-0.023340955 0.013694227 0.20210668
-0.024236426 0.011496794 0.20269777
-0.025083434 0.008630028 0.20547728
-0.025902689 0.0054308595 0.20853838
-0.025967678 0.0021256178 0.21262291
-0.025874507 -0.0014590269 0.21642213
-0.026521798 -0.0052946438 0.21989767
-0.026758784 -0.0088900095 0.22156982
-0.026716344 -0.0120865 0.22336873
-0.026916098 -0.015550445 0.22647686
-0.026627256 -0.018966643 0.22777627
-0.02718265 -0.022814954 0.22922693
-0.026963918 -0.02650228 0.233043
-0.018235581 0.04300528 0.18167129
-0.018218054 0.040727496 0.18357904
-0.018157193 0.037765481 0.18488641
-0.018462924 0.034902226 0.18692844
-0.018809436 0.032199014 0.18923801
-0.019034453 0.029616531 0.19195463
-0.019517373 0.026446791 0.19613118
-0.019785164 0.021926291 0.19949621
-0.019968325 0.017692773 0.202516
-0.020253075 0.014227295 0.20425841
-0.020738948 0.01170878 0.20562586
-0.021879286 0.0089833178 0.20768636
-0.02235985 0.0055954736 0.21125579
-0.022107607 0.0024043554 0.21454139
-0.022214411 -0.00092846755 0.21776465
-0.022620553 -0.004637043 0.22149377
-0.022824146 -0.0086156148 0.22304915
-0.022392653 -0.012267658 0.22428964
-0.021931522 -0.015623068 0.22692531
-0.022152854 -0.018817866 0.22754826
-0.022619851 -0.022821072 0.22832114
-0.023029426 -0.02698647 0.23338318
-0.015340437 0.040788282 0.18484651
-0.015359246 0.038110353 0.18630934
-0.015511971 0.035113838 0.18788843
-0.015864663 0.032255061 0.19015853
-0.016201911 0.029759638 0.19255398
-0.016282594 0.026636086 0.19711477
-0.016762845 0.022500161 0.20057771
-0.016659025 0.018953111 0.20307747
-0.016813215 0.015198174 0.2050155
-0.017184326 0.01229464 0.20777994
-0.01823763 0.0095384028 0.21003434
-0.018521486 0.0062876358 0.21293665
-0.018337637 0.0030171359 0.21599628
-0.018240897 -0.00054077577 0.21927767
-0.018451406 -0.004018994 0.22287479
-0.018730393 -0.0080725448 0.22449847
-0.018132057 -0.011949841 0.22544815
-0.018066514 -0.015613703 0.22661559
-0.018894931 -0.019421522 0.22796647
-0.019100389 -0.023399474 0.2301202
-0.019321263 -0.027224708 0.23495148
-0.012820547 0.037876882 0.18767695
-0.012762101 0.034886297 0.18914171
-0.01302838 0.032163132 0.19117256
-0.013246699 0.029539092 0.19325356
-0.013047234 0.026793063 0.19673866
-0.013580799 0.023230048 0.20095351
-0.013753286 0.019739423 0.20427409
-0.01370774 0.016212795 0.20710668
-0.013739063 0.013024973 0.20955878
-0.014043131 0.009976442 0.21179481
-0.014150144 0.0071520568 0.2143124
-0.014306765 0.0034825592 0.21732858
-0.014390861 -0.00021414885 0.22089583
-0.01465865 -0.0037336575 0.22358869
-0.01466451 -0.0077931429 0.22476912
-0.014403945 -0.012375115 0.226271
-0.014590223 -0.016476722 0.22783966
-0.015216256 -0.020241836 0.22958808
-0.015576218 -0.023937462 0.23248562
-0.015508443 -0.027171714 0.23648129
-0.010195772 0.034922894 0.19000989
-0.0097637177 0.03227571 0.19185376
-0.0099737532 0.029569019 0.19400463
-0.0098492326 0.026840229 0.19718198
-0.010349561 0.023853721 0.20127504
-0.010770592 0.02058953 0.20526388
-0.010422977 0.017332142 0.20807083
-0.010266508 0.013601974 0.21033821
-0.010152218 0.010310658 0.21252166
-0.010143654 0.0072657606 0.21555756
-0.010457594 0.0038596496 0.21848646
-0.010611367 7.4505944e-05 0.22171883
-0.010854912 -0.0034684332 0.22367035
-0.011192586 -0.0077383122 0.22490425
-0.010851499 -0.012170165 0.22574137
-0.010981405 -0.016575292 0.22891903
-0.011179513 -0.020268543 0.23074457
-0.011751583 -0.024396457 0.23465075
-0.012455401 -0.026857467 0.23715742
-0.0065748091 0.032078873 0.19293602
-0.0065056314 0.029625824 0.19545063
-0.0065823663 0.026758486 0.19864605
-0.0070549478 0.023883948 0.20161368
-0.0072820913 0.021051366 0.20551331
-0.0069793672 0.017663725 0.20842873
-0.0066257385 0.01409288 0.21062104
-0.0064849309 0.010629058 0.21267863
-0.0064660511 0.007194763 0.21607703
-0.0066070696 0.0035908634 0.21918844
-0.0068174829 -0.00011322493 0.22217754
-0.006885434 -0.003621422 0.22325137
-0.00745524 -0.0076466524 0.22531633
-0.0074017174 -0.012340497 0.2260077
-0.007408855 -0.016668716 0.22954303
-0.0079442849 -0.020379139 0.2315436
-0.0087340623 -0.02348241 0.2336881
-0.0039295405 0.031563669 0.19457337
-0.0028467504 0.029619116 0.19706164
-0.0031040928 0.026604032 0.1993039
-0.0034331575 0.02380373 0.20165843
-0.0034524866 0.021033274 0.20477766
-0.0035806692 0.017702175 0.20781991
-0.0030681102 0.014062295 0.21051495
-0.0028957031 0.010743091 0.21285823
-0.0027953782 0.0072876154 0.21593928
-0.0029570335 0.0035906888 0.21856694
-0.0029369891 -5.7119181e-05 0.22160046
-0.0030810938 -0.0040892684 0.22288921
-0.0035621445 -0.0081710732 0.22532758
-0.0041360324 -0.012485597 0.22646756
-0.0049348283 -0.016199784 0.22925402
0.00011170547 0.028936498 0.19840947
0.00022965533 0.026654052 0.19971418
-2.2334607e-06 0.02399355 0.20164792
-2.6713107e-05 0.021066925 0.20425336
2.8917111e-05 0.017657887 0.20698163
0.00048748343 0.014083846 0.20990828
0.0007593871 0.010725712 0.21245337
0.00090842764 0.0072313887 0.21482418
0.00048029236 0.0037351688 0.21724445
0.0007503127 -0.0001338242 0.21998487
0.00015786193 -0.0039498769 0.22264521
-0.0013089598 -0.0075992867 0.22580746
0.0036134303 0.026638471 0.20027351
0.0038783553 0.023896005 0.20198712
0.0037250323 0.020877562 0.20385551
0.0035074621 0.017620841 0.20675324
0.0040699318 0.014089253 0.20898262
0.0036565242 0.011106501 0.21135403
0 0 0 1 0 0 0 1 0 0 0 1 0 0 0 0 0 346 1 0 0
