ply
format ascii 1.0
comment PCL generated
element vertex 346
property float x
property float y
property float z
element camera 1
property float view_px
property float view_py
property float view_pz
property float x_axisx
property float x_axisy
property float x_axisz
property float y_axisx
property float y_axisy
property float y_axisz
property float z_axisx
property float z_axisy
property float z_axisz
property float focal
property float scalex
property float scaley
property float centerx
property float centery
property int viewportx
property int viewporty
property float k1
property float k2
end_header
-0.057155471 0.031111032 0.18753691
-0.057827983 0.02824997 0.1882949
-0.058103442 0.025489271 0.18972047
-0.058352154 0.022618374 0.19130044
-0.058468495 0.019749824 0.19266985
-0.057953861 0.016776782 0.19399929
-0.053098038 0.033310398 0.18378522
-0.05413707 0.030902518 0.18543558
-0.053930856 0.027999151 0.18594483
-0.05421019 0.025291445 0.18762586
-0.054650355 0.0225602 0.18947569
-0.055139702 0.019803241 0.1914936
-0.055321325 0.016763851 0.19289449
-0.055634838 0.013443759 0.19419417
-0.055257432 0.010047779 0.19551288
-0.04819287 0.035850044 0.17982773
-0.049210198 0.033442073 0.18112282
-0.049872346 0.03053249 0.18258412
-0.050206412 0.027664393 0.18423982
-0.050559103 0.025198543 0.18673667
-0.051033784 0.022456434 0.18860343
-0.051553223 0.019942412 0.19085042
-0.05198127 0.017163243 0.1926641
-0.052377071 0.01342606 0.19376855
-0.052914925 0.0092304451 0.19551139
-0.053576026 0.0053926897 0.19932522
-0.053309701 0.0020292138 0.20230865
-0.044644583 0.038324635 0.17770924
-0.045326781 0.03597115 0.17862199
-0.04581397 0.033393361 0.18009251
-0.04635122 0.030724261 0.18192199
-0.046951629 0.027899845 0.18437685
-0.047176026 0.025278777 0.18710439
-0.047581241 0.022628559 0.18924886
-0.048325669 0.020064911 0.19136806
-0.048832241 0.017270287 0.19354174
-0.04921753 0.01336207 0.19436987
-0.049446393 0.0088062314 0.19510114
-0.050189931 0.0045661558 0.19879214
-0.050602335 0.0010695516 0.20402512
-0.051564306 -0.0019718278 0.20778556
-0.052022759 -0.0039522396 0.21170738
-0.041226175 0.040776946 0.17697865
-0.042078946 0.038802378 0.17773797
-0.0423324 0.036162641 0.17897218
-0.04273773 0.033666011 0.18058777
-0.043407019 0.031088946 0.18276463
-0.043590974 0.027965503 0.18528454
-0.043760054 0.025181873 0.18787812
-0.044206094 0.022488374 0.18988548
-0.044949863 0.019798249 0.19183837
-0.045704465 0.017242815 0.19410785
-0.045944821 0.013198773 0.19537552
-0.045768581 0.0084763914 0.19574475
-0.045924138 0.0038883823 0.19918594
-0.047295358 0.0009654903 0.20515721
-0.048335958 -0.0019456901 0.20909549
-0.049485035 -0.0042001032 0.21273425
-0.050226551 -0.0064471979 0.21563549
-0.050887212 -0.0087974025 0.21887046
-0.03880918 0.04149612 0.17672318
-0.03917557 0.039050404 0.17844896
-0.039490547 0.036364958 0.1797581
-0.03995372 0.033764374 0.18146788
-0.040175822 0.03089669 0.18364605
-0.040400002 0.027515588 0.18616536
-0.04081215 0.025012899 0.18859439
-0.041262936 0.02249038 0.19039723
-0.041652381 0.01976973 0.19222747
-0.042465262 0.017121971 0.19485585
-0.042501267 0.013099587 0.19652304
-0.041829366 0.0084652435 0.19764121
-0.041321281 0.003560202 0.20065418
-0.043895535 0.00054080487 0.20643835
-0.045092918 -0.0018827992 0.21049087
-0.045921799 -0.0037663335 0.21401599
-0.046955671 -0.0062740878 0.217031
-0.048283335 -0.0093623577 0.22004502
-0.04873902 -0.012717852 0.22306995
-0.048059057 -0.016312931 0.22430123
-0.035653405 0.043373484 0.17558295
-0.036082473 0.041992102 0.17714144
-0.036287803 0.039438363 0.17886934
-0.03668493 0.036557272 0.18024822
-0.037017696 0.034011953 0.1823535
-0.037151005 0.030629244 0.18485156
-0.0373329 0.027502915 0.18709898
-0.037934415 0.025204279 0.18942359
-0.03851423 0.022673531 0.19174957
-0.038885437 0.019958327 0.19354126
-0.039622534 0.01713627 0.19662213
-0.039532941 0.01358188 0.19868071
-0.039198536 0.008809289 0.20089971
-0.039117105 0.0040099197 0.20341747
-0.040579792 0.00066944846 0.20809674
-0.041784193 -0.0013677076 0.21210563
-0.042581625 -0.0036553424 0.21514222
-0.04282831 -0.0069501516 0.21688029
-0.043553423 -0.010130187 0.21911468
-0.04421277 -0.014283827 0.22135609
-0.044652235 -0.018430892 0.22441094
-0.043462507 -0.021083899 0.2264704
-0.032948267 0.043795899 0.17602587
-0.033082373 0.042401638 0.17744416
-0.032962665 0.039810438 0.17942384
-0.033059504 0.037013728 0.18077487
-0.033490732 0.034316983 0.18309499
-0.033946808 0.031015407 0.18655747
-0.034325939 0.027937829 0.1881346
-0.03495463 0.025279526 0.19049057
-0.035497807 0.022683401 0.193078
-0.036059309 0.020050293 0.19580355
-0.036781855 0.017178839 0.19889434
-0.036740184 0.014328581 0.20048387
-0.036597848 0.0096670967 0.20284294
-0.036690988 0.0054484666 0.20584239
-0.037772026 0.0021214511 0.20989206
-0.038559999 -0.00074738573 0.21347034
-0.039070517 -0.0035879624 0.21601675
-0.039149769 -0.0070562488 0.21720776
-0.039450876 -0.011048143 0.21890612
-0.039945599 -0.015156308 0.22056614
-0.040248401 -0.019001065 0.22335607
-0.04012173 -0.021556921 0.22616205
-0.029952686 0.043908261 0.17668594
-0.029871659 0.042440917 0.17792338
-0.029988712 0.039980229 0.17983404
-0.030202603 0.037350051 0.18186411
-0.030405523 0.034549002 0.18431887
-0.030907098 0.031405065 0.18756956
-0.031310514 0.02844354 0.18928295
-0.03189306 0.025459437 0.19159056
-0.032337677 0.022468392 0.19464329
-0.033116702 0.019990925 0.19752917
-0.033932995 0.017183963 0.20050435
-0.033939414 0.014574282 0.20215479
-0.033643126 0.010272118 0.20460139
-0.03381205 0.0064960644 0.20755985
-0.034717057 0.0032598765 0.21124305
-0.035341371 -0.0001731603 0.21436389
-0.035536177 -0.0035845409 0.21640788
-0.035720192 -0.0071516759 0.21771581
-0.036164127 -0.011185239 0.21952644
-0.03644095 -0.015112887 0.22132535
-0.036490038 -0.018823331 0.22297883
-0.036198113 -0.021609424 0.22557874
-0.026872726 0.044208728 0.17709996
-0.026883997 0.042673923 0.17834659
-0.027143769 0.04003714 0.180048
-0.027177595 0.037541714 0.18248494
-0.027373688 0.034660056 0.18513863
-0.02778082 0.031778365 0.18800727
-0.028229333 0.028762726 0.19026233
-0.02874993 0.025784224 0.19266294
-0.029307656 0.022515107 0.19620609
-0.030192515 0.01987504 0.1999571
-0.030903641 0.017301736 0.20217605
-0.030609297 0.014926998 0.20389961
-0.0307019 0.011189719 0.20684473
-0.030706909 0.0074802558 0.20918617
-0.03138366 0.0035431359 0.21232902
-0.031965774 0.00012115918 0.21490264
-0.0321308 -0.0037777014 0.21742725
-0.032465748 -0.007462177 0.21819839
-0.032894123 -0.011290499 0.22028767
-0.03314586 -0.015090331 0.22295655
-0.03291811 -0.018648602 0.22470717
-0.033007462 -0.021817451 0.22702052
-0.024010906 0.044463947 0.17798254
-0.02392086 0.043024175 0.17924953
-0.023969067 0.040222738 0.1805356
-0.02413339 0.037502687 0.18274936
-0.024373701 0.034919128 0.18556602
-0.024684848 0.032144245 0.18821444
-0.025165403 0.029101934 0.19125605
-0.025655061 0.025800932 0.19423094
-0.026116749 0.022324272 0.19812123
-0.026936676 0.019524425 0.20170705
-0.026659783 0.017398495 0.20400532
-0.027061852 0.015238917 0.20591788
-0.027686607 0.011532241 0.20960681
-0.027891533 0.007883111 0.21165204
-0.028246913 0.0038585472 0.21444228
-0.028394042 -8.4732215e-05 0.2161603
-0.028816577 -0.0045149773 0.21821935
-0.029001495 -0.0078948801 0.21950713
-0.029458961 -0.011432012 0.22135395
-0.029626386 -0.014897796 0.2241085
-0.029358359 -0.018424412 0.22593443
-0.029867832 -0.021914952 0.22789131
-0.030426176 -0.024887165 0.23171459
-0.020975867 0.044824261 0.17902359
-0.020780465 0.043334894 0.18035889
-0.020968484 0.040409014 0.18192849
-0.021031864 0.037546601 0.18335316
-0.021305652 0.034906048 0.186404
-0.021708159 0.03224105 0.18877725
-0.022085179 0.029506681 0.19177881
-0.022529138 0.026210997 0.19500537
-0.022907346 0.022156391 0.19954446
-0.023395713 0.019315751 0.20324151
-0.02291674 0.016732091 0.20591518
-0.02333062 0.014247843 0.20763232
-0.024102647 0.011132615 0.21066499
-0.024880409 0.0078276405 0.21368659
-0.024819979 0.0037779883 0.2152171
-0.024676418 -0.00080951478 0.21605654
-0.02524076 -0.0045156558 0.21922302
-0.025501749 -0.0081034992 0.22099271
-0.025559375 -0.011412176 0.22249047
-0.02588997 -0.014760503 0.22543289
-0.025927177 -0.018355573 0.22687851
-0.026524402 -0.022344977 0.22819611
-0.026584012 -0.025972666 0.23214793
-0.018102203 0.043263104 0.18182817
-0.018093675 0.041033696 0.18376127
-0.018133035 0.038008306 0.18497397
-0.018371351 0.035099339 0.18683122
-0.018539421 0.03226874 0.18922845
-0.018797291 0.029593222 0.19187672
-0.01909266 0.026317844 0.1962714
-0.019476436 0.02274821 0.19954528
-0.019752404 0.019138284 0.20291032
-0.019794028 0.015880384 0.20545067
-0.019851865 0.012929157 0.2075239
-0.020629587 0.0099537196 0.21010098
-0.021339055 0.0065127257 0.212929
-0.021170355 0.003158069 0.21494608
-0.021166405 -0.00049752503 0.21734419
-0.021699006 -0.0042364369 0.2208598
-0.02206856 -0.0079567851 0.22284012
-0.021865526 -0.011514894 0.22378208
-0.021728503 -0.014980752 0.22640814
-0.021855334 -0.018405665 0.22709127
-0.022258095 -0.022366814 0.22764872
-0.022762157 -0.026426991 0.23274586
-0.015218335 0.041103974 0.18503046
-0.015280581 0.038418639 0.18654139
-0.015359143 0.035390299 0.18792368
-0.015544267 0.032378558 0.19019938
-0.015847355 0.029653817 0.19246331
-0.015788622 0.026546411 0.19677886
-0.016254373 0.022887349 0.20036159
-0.016384952 0.019591421 0.20282266
-0.016634282 0.016139023 0.20494476
-0.016409511 0.012926813 0.20820357
-0.01696654 0.010064323 0.21084478
-0.017439328 0.0068492074 0.21336809
-0.017541485 0.0036111423 0.21614525
-0.017690336 -0.00013664036 0.2194301
-0.018092938 -0.0037637614 0.22258589
-0.018304745 -0.0075671063 0.22453827
-0.01783664 -0.011331169 0.22550741
-0.017867865 -0.015097302 0.22661766
-0.018486049 -0.018848639 0.22785535
-0.018669665 -0.02279981 0.22965929
-0.019168317 -0.026630383 0.23452815
-0.012628959 0.038159706 0.18793412
-0.012394701 0.03532752 0.1890998
-0.012567325 0.032365721 0.19112365
-0.012754323 0.029517306 0.19292431
-0.012562989 0.02671448 0.19622043
-0.012952805 0.023240935 0.20042665
-0.013280589 0.019924602 0.20376968
-0.013361331 0.016577492 0.20667993
-0.013287898 0.013501886 0.20947027
-0.013372655 0.010565232 0.21176754
-0.013420004 0.0075103105 0.21429852
-0.013785065 0.0039450703 0.21753934
-0.014158821 0.00015132825 0.22106449
-0.014332538 -0.0034930622 0.2235038
-0.014336217 -0.0072852154 0.22496609
-0.014174893 -0.011761273 0.22647557
-0.014334637 -0.015730102 0.22783966
-0.014841267 -0.019452877 0.2295851
-0.015230242 -0.023452289 0.23260164
-0.015386011 -0.026618043 0.23652036
-0.0097014587 0.035120465 0.18992665
-0.0092084194 0.032551609 0.19168234
-0.0094241202 0.029690897 0.1936347
-0.0093232719 0.026970796 0.19678423
-0.0097976467 0.023796864 0.20083319
-0.010106445 0.02053141 0.20479409
-0.0099803889 0.017378507 0.20781335
-0.0099726729 0.014098898 0.21044724
-0.0098435162 0.010862012 0.21236524
-0.009763971 0.0076579694 0.21554014
-0.010183939 0.0040960149 0.21857108
-0.010305089 0.00025834181 0.22164133
-0.010540285 -0.0033708774 0.22379731
-0.010873609 -0.0074118553 0.22548217
-0.010583917 -0.01168477 0.22600201
-0.010807667 -0.015836744 0.22913958
-0.011075812 -0.019580606 0.23094684
-0.011587662 -0.023821088 0.23480466
-0.012354339 -0.026298579 0.23722744
-0.006132273 0.032256387 0.19250681
-0.0060342206 0.029763412 0.19492316
-0.0062523368 0.026954589 0.19833322
-0.0065401187 0.024059625 0.20114259
-0.0068326797 0.02113197 0.20511867
-0.0065540993 0.017938016 0.20833711
-0.0063513415 0.014531376 0.21074137
-0.0063271294 0.011139312 0.21259263
-0.0062159826 0.0075971913 0.21586323
-0.0064484538 0.0038270778 0.21898644
-0.0065705883 -2.2844411e-05 0.22210383
-0.0067054257 -0.0035817917 0.22347638
-0.0071202233 -0.0074466476 0.2259623
-0.0070760562 -0.011960604 0.2264816
-0.0072577018 -0.016067231 0.22984339
-0.0079319393 -0.019843983 0.23201154
-0.008660513 -0.022874216 0.23386645
-0.0034873874 0.031706091 0.19408196
-0.0025944188 0.029811136 0.19666742
-0.002809434 0.026966501 0.19895145
-0.002973651 0.024069263 0.20143221
-0.003007395 0.021191875 0.20450954
-0.003087288 0.017993096 0.20767282
-0.002727058 0.014492096 0.21052741
-0.0028097515 0.01111709 0.21285509
-0.0026403442 0.0076355636 0.21574609
-0.0027872354 0.0036689597 0.21825188
-0.0027757739 -1.9172909e-05 0.22140242
-0.002993542 -0.0039034029 0.22300129
-0.0033125172 -0.0079322467 0.22584967
-0.0038401247 -0.012179124 0.22697423
-0.0047063958 -0.015597109 0.22940798
0.00036825638 0.029349379 0.19818291
0.00057072996 0.027264977 0.19963114
0.00047836575 0.024411554 0.20159727
0.0004958167 0.021318862 0.20392993
0.00060392107 0.018103864 0.20664135
0.00085914321 0.014589603 0.20957051
0.00093937811 0.011141403 0.21223798
0.0010449557 0.0076196138 0.21452288
0.00065127749 0.0037598468 0.21687891
0.00086310587 -0.0001203897 0.21963583
0.00028375367 -0.0038066378 0.22254035
-0.00097139337 -0.007328019 0.22618999
0.0038057738 0.027450051 0.20024146
0.0041656452 0.024624441 0.20187239
0.0041746618 0.021378735 0.2034968
0.0040080729 0.018148182 0.20631681
0.0042987904 0.014723647 0.20846044
0.0038456316 0.011564639 0.21089336
0 0 0 1 0 0 0 1 0 0 0 1 0 0 0 0 0 346 1 0 0
