ply
format ascii 1.0
comment PCL generated
element vertex 346
property float x
property float y
property float z
element camera 1
property float view_px
property float view_py
property float view_pz
property float x_axisx
property float x_axisy
property float x_axisz
property float y_axisx
property float y_axisy
property float y_axisz
property float z_axisx
property float z_axisy
property float z_axisz
property float focal
property float scalex
property float scaley
property float centerx
property float centery
property int viewportx
property int viewporty
property float k1
property float k2
end_header
-0.057701726 0.028458405 0.18824737
-0.058482431 0.02579562 0.18954672
-0.058732595 0.023046184 0.19108826
-0.058801509 0.02017837 0.19275309
-0.058924679 0.017212491 0.19422594
-0.058183186 0.013062154 0.19610001
-0.053737268 0.031013841 0.18453403
-0.055107698 0.028589068 0.18629166
-0.054949317 0.025595965 0.18710665
-0.055179093 0.022854907 0.18902682
-0.055733893 0.02007507 0.19111322
-0.056198753 0.016569985 0.19335437
-0.05620585 0.013066933 0.19504452
-0.056520868 0.0098598553 0.19714451
-0.056811731 0.0071401191 0.1990052
-0.048091464 0.033407491 0.1805838
-0.049265418 0.031160006 0.18179806
-0.050650891 0.028363947 0.18318823
-0.051363032 0.025382478 0.18506232
-0.051510639 0.02276475 0.18764967
-0.052004699 0.019951699 0.18966553
-0.052462123 0.01647988 0.19172135
-0.052978378 0.012910575 0.19380155
-0.053863499 0.0089559611 0.19637945
-0.055202067 0.0053032958 0.19891541
-0.055270441 0.0020309917 0.20151238
-0.055126179 -0.00088128302 0.20362289
-0.04463923 0.036024041 0.17852902
-0.045187693 0.033788525 0.17962874
-0.045730338 0.031365428 0.18092407
-0.046600349 0.028681276 0.18245749
-0.047779344 0.025529375 0.18492875
-0.048172355 0.022687513 0.18747239
-0.048513856 0.019797271 0.18942556
-0.049050834 0.016415099 0.19117661
-0.049798418 0.012431934 0.19348155
-0.050907578 0.0079641147 0.19606955
-0.052141961 0.003503538 0.19705029
-0.052967269 0.00019343328 0.20032825
-0.052652989 -0.0027860098 0.2039098
-0.052415453 -0.005064378 0.20777562
-0.052476861 -0.0065710791 0.21138979
-0.041574411 0.038886975 0.17759614
-0.042215299 0.036867306 0.17850716
-0.042328842 0.034302481 0.17985612
-0.04269921 0.031888947 0.18136211
-0.043406866 0.02918043 0.18330799
-0.04441933 0.025653826 0.18539736
-0.044739984 0.022536943 0.18749741
-0.044942532 0.019618683 0.18913385
-0.045742951 0.016047807 0.19089215
-0.046672691 0.012164624 0.19289255
-0.047631722 0.0070914766 0.1954651
-0.048496507 0.0019229848 0.19608971
-0.048814155 -0.0018792133 0.19927047
-0.049088057 -0.0036117588 0.20382322
-0.04934774 -0.0056190942 0.20825507
-0.050196119 -0.007374994 0.21223466
-0.050766721 -0.0092613595 0.21526048
-0.051176731 -0.011668209 0.21896461
-0.039505314 0.040135849 0.17750166
-0.039519172 0.037407961 0.17914397
-0.039746929 0.034756053 0.18057138
-0.040020101 0.032209981 0.18212298
-0.040401272 0.02917302 0.18417884
-0.041445605 0.025535107 0.18615012
-0.041679498 0.022529032 0.18779565
-0.042093631 0.01966548 0.18896168
-0.04245488 0.016357411 0.1904659
-0.043171208 0.012294123 0.19232175
-0.044819616 0.0060899751 0.1947547
-0.044732325 0.00048562765 0.19520627
-0.042937543 -0.0039607598 0.19795151
-0.045225587 -0.0046763606 0.20418918
-0.045943867 -0.0059792018 0.20899591
-0.046679091 -0.007062993 0.21292965
-0.047453824 -0.0091253435 0.21656579
-0.048560064 -0.011929142 0.22019906
-0.048236277 -0.01512673 0.22256564
-0.047007725 -0.018311055 0.22313455
-0.036541425 0.04258142 0.17665094
-0.036874365 0.04096939 0.1780408
-0.036898471 0.038187552 0.17949985
-0.037034754 0.035199121 0.18102178
-0.037180819 0.032587372 0.18317051
-0.037750661 0.028971048 0.18540533
-0.038323376 0.025439609 0.18692206
-0.038826387 0.022530554 0.18841323
-0.039271481 0.019532895 0.18968184
-0.039793681 0.016112495 0.19075115
-0.040211409 0.011982488 0.19203739
-0.042407922 0.0054828399 0.19411282
-0.04151535 0.00069323217 0.19644143
-0.040433686 -0.0029292093 0.19998351
-0.041579366 -0.0049303249 0.20500302
-0.042523038 -0.0060465494 0.20965974
-0.04339369 -0.0079178317 0.21319653
-0.043951992 -0.010053983 0.21621448
-0.044501245 -0.012023377 0.21918243
-0.044222489 -0.016060896 0.22176774
-0.044509511 -0.020256298 0.22514991
-0.043572348 -0.022675019 0.22722766
-0.033898253 0.043296572 0.17683053
-0.033792969 0.041830231 0.17827772
-0.0334583 0.039343718 0.18003814
-0.033543449 0.036693335 0.18146618
-0.033826884 0.033328336 0.18376583
-0.034497481 0.029190686 0.1869016
-0.035180878 0.025703084 0.18791799
-0.035846788 0.022510177 0.18936148
-0.036357518 0.019112213 0.19071719
-0.036960442 0.015516548 0.19204643
-0.03751542 0.01118225 0.19303994
-0.039396118 0.0063632587 0.19414206
-0.038724221 0.0020275142 0.1973732
-0.038144149 -0.00087948795 0.20118178
-0.03879258 -0.0032872222 0.20615092
-0.039022617 -0.0062067425 0.21069506
-0.039813187 -0.0083099892 0.21387164
-0.040260676 -0.010500421 0.21642916
-0.040169261 -0.013778488 0.21920556
-0.040453769 -0.017581316 0.22138697
-0.040670741 -0.021003406 0.22455876
-0.040050559 -0.022860734 0.22737567
-0.03094716 0.043515995 0.17733143
-0.030725105 0.042068832 0.17864749
-0.03054424 0.039626244 0.18050462
-0.030500894 0.037091121 0.18243173
-0.030564569 0.033756342 0.18477337
-0.031381227 0.029794551 0.18770227
-0.03188451 0.026417496 0.18901184
-0.032756589 0.022511749 0.19052394
-0.033430446 0.01856943 0.19197872
-0.034093801 0.014923265 0.19336918
-0.034838948 0.010646279 0.19404924
-0.03644225 0.0067828931 0.19488914
-0.035649799 0.0031102325 0.19835463
-0.035302106 0.00069040718 0.20237096
-0.036018673 -0.0018286525 0.20688786
-0.036353923 -0.004919813 0.21106818
-0.036553629 -0.0077247657 0.2147862
-0.037013955 -0.010175592 0.21753992
-0.036886141 -0.013562461 0.21992972
-0.037112299 -0.017387666 0.22176686
-0.037088215 -0.020756787 0.22403198
-0.036089223 -0.022860765 0.22680108
-0.027986841 0.043569777 0.17777815
-0.027722338 0.042134415 0.17901893
-0.027758701 0.039644103 0.18068929
-0.027543616 0.037205413 0.18309318
-0.027358152 0.03389547 0.18556601
-0.028017277 0.030624321 0.18814184
-0.028705662 0.027158629 0.19014268
-0.029524101 0.023266692 0.19168015
-0.030558169 0.018386219 0.19367865
-0.031165127 0.013930672 0.19547112
-0.031970493 0.010491733 0.19544293
-0.03275637 0.0077469912 0.19591674
-0.032315686 0.0049453932 0.19968159
-0.031786196 0.0024276499 0.20353249
-0.032816265 -0.0011052536 0.2077141
-0.033427048 -0.0040987013 0.21159966
-0.033462085 -0.0072092158 0.21618141
-0.033926573 -0.01004131 0.21872863
-0.034080103 -0.013535335 0.22114284
-0.034102779 -0.017162489 0.2234253
-0.033644028 -0.020321866 0.2254063
-0.032810364 -0.022710856 0.22752419
-0.024965046 0.043724526 0.17841569
-0.024727924 0.042422336 0.17972091
-0.024545792 0.039809607 0.18100712
-0.024353448 0.037078198 0.18320838
-0.024280408 0.03433599 0.18592563
-0.024840133 0.031390712 0.18845497
-0.025533441 0.028074829 0.19121146
-0.026385764 0.023717411 0.19345258
-0.027310928 0.018006366 0.19597818
-0.027999517 0.013298285 0.19722341
-0.027818667 0.010618346 0.19766375
-0.029030357 0.0090240166 0.1981549
-0.029054379 0.0061019897 0.20221369
-0.029050574 0.0031314145 0.20533337
-0.029666571 -0.00047678637 0.20992292
-0.029593961 -0.0037081328 0.21429339
-0.030281743 -0.0071959873 0.21846859
-0.030647125 -0.010168704 0.2203612
-0.030978383 -0.01331024 0.22236228
-0.030741312 -0.016749641 0.22466761
-0.029804654 -0.019846732 0.2265195
-0.029954782 -0.02259722 0.2280428
-0.030336894 -0.025308751 0.23126909
-0.021788215 0.044249058 0.17916042
-0.021413805 0.042707894 0.18034258
-0.021395318 0.039768416 0.18180498
-0.02116671 0.036921985 0.18351518
-0.021392172 0.034510601 0.186682
-0.021899791 0.031887248 0.18912056
-0.022320503 0.029148754 0.19190189
-0.023167346 0.025465786 0.1945059
-0.02396773 0.01895988 0.19836679
-0.024489598 0.014082296 0.19980724
-0.024674179 0.011386448 0.20066325
-0.025487775 0.0091640083 0.20127928
-0.026043797 0.0065465206 0.20421934
-0.02650067 0.0036379215 0.20768006
-0.026117014 0.00024434802 0.21193309
-0.02604649 -0.0029108594 0.21631478
-0.026809819 -0.0065554408 0.22000916
-0.027127866 -0.0098794615 0.22182015
-0.027047316 -0.012748261 0.22370686
-0.026835522 -0.01599616 0.22635452
-0.026234929 -0.019103654 0.2270975
-0.026710955 -0.022779742 0.22831407
-0.026498668 -0.026317231 0.23220816
-0.01844837 0.042509612 0.18146427
-0.018378697 0.040273946 0.18335292
-0.018258912 0.037425898 0.18476792
-0.018604962 0.034751721 0.18716373
-0.018965013 0.032171 0.18963332
-0.019257601 0.029499976 0.19204548
-0.019990295 0.025947342 0.19575717
-0.020451358 0.020982243 0.19891629
-0.02070437 0.016340371 0.2017072
-0.021040956 0.012599644 0.20319898
-0.021567075 0.010076651 0.20460111
-0.022652863 0.0074745105 0.20687629
-0.022891443 0.004378004 0.21086143
-0.022383414 0.0012635452 0.21451755
-0.022415433 -0.0019974369 0.21770315
-0.022891115 -0.0054708715 0.22157846
-0.023189338 -0.0091160936 0.22328836
-0.022565121 -0.012635406 0.22462234
-0.021891126 -0.015832331 0.22693025
-0.022053437 -0.018844001 0.22716565
-0.022322714 -0.022728236 0.22760513
-0.022566983 -0.02675092 0.23263243
-0.015475092 0.040381279 0.18458097
-0.015492781 0.037735865 0.18606292
-0.01574163 0.034945868 0.18810469
-0.016238326 0.032055482 0.19041988
-0.016632145 0.029399803 0.19256543
-0.0168366 0.025932519 0.19672769
-0.017493989 0.021590544 0.20005995
-0.017363314 0.017937513 0.20250216
-0.017536426 0.013950849 0.2042838
-0.017893748 0.010969248 0.20699663
-0.018921981 0.0083133131 0.20949499
-0.01904726 0.0052586999 0.21275721
-0.018682836 0.0021438159 0.21600176
-0.018411538 -0.0012524023 0.21926069
-0.018519105 -0.0045426642 0.22296683
-0.018865859 -0.0083237076 0.22454992
-0.018216221 -0.012124157 0.22531182
-0.018186718 -0.01571813 0.22630896
-0.019055042 -0.019470908 0.22755474
-0.019014146 -0.023220863 0.2294593
-0.018969806 -0.026865888 0.23421223
-0.013028856 0.037567005 0.18748233
-0.013165837 0.03452836 0.18943045
-0.013532079 0.031717803 0.19142637
-0.01377472 0.028947009 0.1932532
-0.013598619 0.026106566 0.19640841
-0.014310299 0.022423115 0.20056124
-0.014547353 0.018821543 0.20381567
-0.014399167 0.015113899 0.2066357
-0.014308332 0.011989321 0.20915344
-0.014485181 0.0090712765 0.21160647
-0.014594791 0.0063204658 0.21421808
-0.014603936 0.0027883523 0.21722935
-0.014474076 -0.00071028183 0.22084484
-0.014751093 -0.0040591047 0.22360517
-0.014740356 -0.008023602 0.22475554
-0.014494759 -0.012517589 0.22593294
-0.014757289 -0.016648034 0.22744186
-0.015450429 -0.020366998 0.22928914
-0.015587086 -0.023816971 0.23204686
-0.015299175 -0.02679752 0.23586592
-0.010670885 0.034520727 0.19015644
-0.010333419 0.03187073 0.19206426
-0.010465099 0.028979186 0.19392508
-0.010333682 0.026223015 0.19686823
-0.01099707 0.023239637 0.20092767
-0.011593725 0.019855579 0.20494981
-0.011112658 0.016599853 0.20775011
-0.010735684 0.012913789 0.21019489
-0.010484264 0.0096279867 0.21241966
-0.010455827 0.0065496992 0.21529475
-0.010615094 0.0032925087 0.21808833
-0.010640114 -0.00033685469 0.22158147
-0.010917062 -0.0037215999 0.22364916
-0.011282632 -0.0078314487 0.22469932
-0.010991333 -0.01228351 0.22548126
-0.011129024 -0.016657282 0.22863629
-0.011296091 -0.020290194 0.23058338
-0.01180675 -0.024217265 0.23437753
-0.012394743 -0.026532358 0.23670678
-0.0071554733 0.031828124 0.19327088
-0.0070309876 0.029232251 0.19558367
-0.007111189 0.026253283 0.19852312
-0.0076833419 0.023454184 0.20155476
-0.007984451 0.020661768 0.20544934
-0.0075873481 0.017263899 0.20834437
-0.0070836837 0.013606485 0.21055771
-0.0067729936 0.010079775 0.2126337
-0.0067061367 0.0065786703 0.21583083
-0.0067179156 0.0031493595 0.21885753
-0.0069351513 -0.0004156818 0.22215913
-0.0069743446 -0.0038395626 0.22332303
-0.0075554894 -0.0077398783 0.22511484
-0.0075404695 -0.012377991 0.22569256
-0.0074886587 -0.01668161 0.22937807
-0.0080264462 -0.020347558 0.23138061
-0.0087792827 -0.023355251 0.23360839
-0.0045882976 0.03135689 0.19491079
-0.0034039763 0.029303031 0.1972217
-0.0036032877 0.026211772 0.19937877
-0.004090616 0.02349977 0.20168492
-0.0040606 0.020685684 0.20472302
-0.0041594738 0.017321553 0.20781191
-0.0035111059 0.013693346 0.21039812
-0.0031900343 0.010344369 0.21274523
-0.0030316908 0.0068309428 0.21573707
-0.0030873637 0.0033256782 0.21845247
-0.0030268924 -0.00027613275 0.2218543
-0.0031204491 -0.0042188074 0.22314961
-0.0036789076 -0.0082126809 0.22535203
-0.004277104 -0.012504851 0.22628233
-0.0050229649 -0.016183089 0.22918032
-0.0004074685 0.02859077 0.19844964
-0.00032128114 0.026169145 0.19964954
-0.00062712393 0.023513559 0.20151462
-0.00068072445 0.020601626 0.20410189
-0.00055238017 0.017135847 0.20689154
-5.5598352e-06 0.013707289 0.20977671
0.00036391019 0.010407332 0.21234456
0.00059455563 0.0069004414 0.2147803
0.00029191253 0.0035412333 0.21730572
0.00068268197 -0.00016667588 0.22043155
0.00010822368 -0.0039951163 0.22315735
-0.0015044402 -0.0076407739 0.22599369
0.0031434027 0.025952701 0.20001194
0.0033655041 0.023214391 0.2016796
0.0031208072 0.020214684 0.20363802
0.0029643944 0.016991261 0.20654225
0.0035958488 0.013456685 0.20893277
0.0032040991 0.010674743 0.21131848
0 0 0 1 0 0 0 1 0 0 0 1 0 0 0 0 0 346 1 0 0
