ply
format ascii 1.0
comment PCL generated
element vertex 346
property float x
property float y
property float z
element camera 1
property float view_px
property float view_py
property float view_pz
property float x_axisx
property float x_axisy
property float x_axisz
property float y_axisx
property float y_axisy
property float y_axisz
property float z_axisx
property float z_axisy
property float z_axisz
property float focal
property float scalex
property float scaley
property float centerx
property float centery
property int viewportx
property int viewporty
property float k1
property float k2
end_header
-0.057787947 0.027466085 0.18763168
-0.058525905 0.024867279 0.18905094
-0.058775324 0.022188561 0.19074365
-0.058787778 0.019428683 0.19262478
-0.058893494 0.016877631 0.19428912
-0.057925951 0.012747627 0.19683576
-0.053630244 0.030195689 0.18441243
-0.055121925 0.027706988 0.18591775
-0.054899126 0.024702268 0.1868251
-0.055134825 0.022011859 0.18888624
-0.055700015 0.019317342 0.19112232
-0.056131933 0.016221875 0.19361761
-0.05598877 0.012762213 0.19578189
-0.056220502 0.0094525134 0.19804817
-0.056459051 0.0067581194 0.19987036
-0.047583994 0.032685749 0.18138608
-0.04877967 0.030444015 0.18234819
-0.050373506 0.027645163 0.18328853
-0.051202752 0.024588464 0.18505308
-0.051367547 0.021998273 0.18766588
-0.051907498 0.019241771 0.18980458
-0.052313127 0.016158711 0.19210957
-0.052793749 0.012600905 0.19457196
-0.053632781 0.0084262053 0.1973561
-0.054925289 0.0047898376 0.19977333
-0.055007242 0.001566054 0.20223333
-0.054968677 -0.001289743 0.20417704
-0.04432613 0.03542567 0.17918193
-0.044733051 0.033170581 0.18030062
-0.045221366 0.030713001 0.18153487
-0.046092927 0.028030006 0.18292734
-0.047542427 0.024871629 0.18521026
-0.048008177 0.022034025 0.18768461
-0.048338447 0.019194659 0.18971565
-0.048843879 0.016202234 0.19164208
-0.049646538 0.012090812 0.19430222
-0.0507246 0.0072864471 0.19696501
-0.051969968 0.002817262 0.19780694
-0.052800685 -0.00036966844 0.20098019
-0.052526649 -0.0033110511 0.20428607
-0.052350141 -0.0054580723 0.20816331
-0.05248173 -0.0067943931 0.21184598
-0.041417785 0.038343325 0.17784373
-0.04192856 0.036318522 0.1789608
-0.04191567 0.033715393 0.18029016
-0.042166937 0.031266585 0.18176422
-0.042779163 0.028521448 0.18369497
-0.0441502 0.025103476 0.18605022
-0.044529915 0.02195912 0.1880338
-0.04472927 0.019065909 0.18963708
-0.045473065 0.015815029 0.19143786
-0.046510808 0.011909655 0.19368039
-0.047450647 0.0062083746 0.19607411
-0.048231799 0.00096826884 0.19639048
-0.048449971 -0.002862334 0.19933754
-0.048973743 -0.00422335 0.20416363
-0.049304809 -0.0060739834 0.20865318
-0.050234258 -0.0076548862 0.21269141
-0.050845705 -0.0097766621 0.21546541
-0.051297262 -0.012103345 0.21920697
-0.039443683 0.039623391 0.1775142
-0.039262798 0.036903601 0.17935833
-0.039333288 0.034194779 0.18082875
-0.039480083 0.031615365 0.18233007
-0.039879777 0.028568964 0.18461108
-0.041278072 0.02505889 0.18704569
-0.041478548 0.021975957 0.1884726
-0.041891888 0.019081244 0.18949415
-0.042135365 0.015983477 0.19083279
-0.042942021 0.012009568 0.19288824
-0.044533778 0.0050900378 0.19490978
-0.043912373 -0.00074750121 0.19474547
-0.041703984 -0.0052679582 0.19716233
-0.045150846 -0.0054593394 0.20443149
-0.04593702 -0.0065499442 0.20934162
-0.046703681 -0.0074656382 0.21336682
-0.047538593 -0.0096566342 0.21673058
-0.04869828 -0.012322796 0.22045444
-0.048363712 -0.015420439 0.22284265
-0.046735436 -0.018623574 0.22318524
-0.036544677 0.042177819 0.17667806
-0.03685094 0.040576629 0.17808928
-0.036775116 0.03777869 0.17958415
-0.03662508 0.03469849 0.18112132
-0.036604475 0.03203588 0.18325768
-0.037443098 0.028405979 0.18605207
-0.038143869 0.024890674 0.18770166
-0.03862327 0.021907814 0.18902828
-0.039036196 0.018793611 0.18998557
-0.039390538 0.015382849 0.19064812
-0.039959863 0.011397225 0.19207577
-0.041919071 0.004477384 0.19403198
-0.040609945 -0.00045051746 0.1959141
-0.039481059 -0.0041639674 0.1993966
-0.04151687 -0.0059887744 0.20506822
-0.042517707 -0.0069609019 0.20989899
-0.043485291 -0.0085476646 0.213719
-0.044150084 -0.010440263 0.21673654
-0.044724584 -0.012090708 0.21981257
-0.043884732 -0.016398042 0.22200102
-0.043530192 -0.021237781 0.22474386
-0.042383097 -0.02382121 0.22644526
-0.033917617 0.042995047 0.17688973
-0.033778559 0.041554201 0.1783551
-0.033362027 0.03914341 0.18010664
-0.03342668 0.036722649 0.18177433
-0.033668388 0.033164144 0.1842175
-0.03436406 0.028570032 0.18745635
-0.034960259 0.025043866 0.18847521
-0.035568379 0.021763131 0.18975165
-0.036085799 0.018209444 0.19074903
-0.03656365 0.014642623 0.19182451
-0.037340656 0.010495131 0.19308594
-0.038959242 0.0056126616 0.19414121
-0.038053207 0.0010529779 0.19708928
-0.03754938 -0.002007501 0.20082498
-0.038656261 -0.0043640174 0.20602834
-0.039074004 -0.0074189403 0.21093412
-0.040082399 -0.0091817947 0.2145039
-0.040435288 -0.011207021 0.21686858
-0.03994374 -0.014418182 0.21928421
-0.039831806 -0.018316071 0.22078182
-0.039721731 -0.021985579 0.22367154
-0.038871754 -0.023899555 0.22633372
-0.030960599 0.043275394 0.17740797
-0.030706998 0.041869003 0.17874108
-0.03050022 0.039576896 0.18072693
-0.030460164 0.037273131 0.18288451
-0.030614061 0.033874933 0.18546928
-0.03127363 0.02923128 0.18802886
-0.031642251 0.02572144 0.18925482
-0.032409351 0.021608671 0.19067122
-0.033169422 0.017543526 0.19183888
-0.033793174 0.014004941 0.19319072
-0.034797933 0.0099571394 0.19434081
-0.036198359 0.0062843217 0.19514313
-0.035266217 0.0023820838 0.19835252
-0.034997147 -0.00028220392 0.20224643
-0.036037304 -0.0027088313 0.20685168
-0.036609951 -0.0057723424 0.21130045
-0.036833964 -0.0083824713 0.21542902
-0.037122164 -0.010914138 0.21767427
-0.036473986 -0.014305715 0.21935853
-0.036441509 -0.018120149 0.22077149
-0.036188975 -0.021619007 0.22277892
-0.034956537 -0.023692386 0.22553955
-0.0279814 0.043254897 0.177872
-0.027673606 0.041913122 0.17919268
-0.027702497 0.039591376 0.18104118
-0.027542001 0.037505005 0.18367422
-0.027385812 0.034032233 0.18617848
-0.027892279 0.030244039 0.18831792
-0.028444046 0.026542827 0.19015981
-0.029120695 0.022404877 0.19150886
-0.030294679 0.017222639 0.1934004
-0.030973407 0.013015086 0.19541435
-0.032014679 0.0098786857 0.19594197
-0.032801718 0.0074663218 0.19648442
-0.032301255 0.004358069 0.19995107
-0.031874105 0.0017725925 0.20378073
-0.032977369 -0.0017835683 0.2078606
-0.033746976 -0.0046621873 0.21183321
-0.033802658 -0.0076233144 0.21674322
-0.033892196 -0.010792525 0.21853812
-0.033573389 -0.014320982 0.22023952
-0.033290088 -0.017971244 0.22213237
-0.032652248 -0.021158537 0.22394054
-0.031812314 -0.023284134 0.22632414
-0.024957381 0.043401126 0.17851475
-0.024704941 0.04222057 0.17989515
-0.024535162 0.039763004 0.18142062
-0.024416998 0.037338734 0.18379465
-0.024240294 0.034466676 0.18624549
-0.024668571 0.031224392 0.18849191
-0.025249269 0.027652644 0.19115101
-0.025911994 0.022890935 0.19309877
-0.027052954 0.016822591 0.19562575
-0.027912555 0.012478857 0.19747253
-0.028036216 0.010099594 0.19824724
-0.029295307 0.0086529488 0.19870213
-0.029300336 0.0055945888 0.202638
-0.029331384 0.002643205 0.20568618
-0.029996948 -0.00099171791 0.21025786
-0.029888138 -0.0040898225 0.2147059
-0.03041072 -0.0077441195 0.21848284
-0.030510599 -0.010952373 0.21987292
-0.030461978 -0.014093987 0.2213091
-0.029860219 -0.017546583 0.22321965
-0.02890224 -0.020440931 0.22519378
-0.029206855 -0.022844547 0.22708204
-0.02967573 -0.025387149 0.23069122
-0.02181958 0.044099659 0.17931624
-0.021486722 0.042664479 0.1805324
-0.021461871 0.039867323 0.18208411
-0.021232845 0.037220087 0.18378408
-0.021325789 0.034640964 0.18682121
-0.02170028 0.031906221 0.18914935
-0.022062186 0.029208995 0.19187833
-0.022891885 0.025294626 0.19420165
-0.024027079 0.018181013 0.19742654
-0.024578886 0.013499351 0.19943804
-0.024921969 0.010871002 0.20086107
-0.025780369 0.0086595789 0.20171402
-0.026312176 0.0059756674 0.20458543
-0.026697364 0.0030040464 0.20799628
-0.026359115 -0.0002608854 0.21224195
-0.026135117 -0.0034825644 0.21630679
-0.026887421 -0.0070780581 0.22007614
-0.027069289 -0.010550785 0.22166649
-0.026903534 -0.013277568 0.22354332
-0.026423085 -0.016320674 0.22603478
-0.025797794 -0.01917896 0.22663514
-0.026281828 -0.022747576 0.22784704
-0.026165005 -0.026047388 0.23203555
-0.01855541 0.042681824 0.18170239
-0.018427724 0.040417574 0.18350983
-0.018247552 0.037590496 0.18487066
-0.0185616 0.034873717 0.18715845
-0.01882769 0.032368932 0.1896552
-0.019094968 0.029712636 0.19183189
-0.01990341 0.025834156 0.19503002
-0.020618049 0.020478508 0.19773875
-0.02097407 0.015748933 0.20073462
-0.02135711 0.011916359 0.20253982
-0.021938143 0.0093560396 0.20426072
-0.022965554 0.0067003709 0.206717
-0.023038052 0.0036760122 0.21069469
-0.022465264 0.00062295492 0.21434979
-0.022435369 -0.0026116634 0.21748163
-0.02288845 -0.005979233 0.22133826
-0.023199091 -0.0094600199 0.22316919
-0.022522606 -0.01284923 0.22481748
-0.02182496 -0.015782693 0.22702104
-0.022032097 -0.018695429 0.22716385
-0.0221751 -0.022579761 0.22744529
-0.022240819 -0.026423439 0.23246562
-0.01550805 0.040581349 0.18472058
-0.015471758 0.03784829 0.18606801
-0.015675345 0.034947552 0.18777783
-0.01615149 0.032052014 0.19005786
-0.016549978 0.02930342 0.19199044
-0.016785268 0.025501048 0.19559595
-0.017746659 0.021116335 0.19895682
-0.017700637 0.017547112 0.20165302
-0.017850423 0.013496457 0.20352575
-0.018170005 0.010382316 0.20644787
-0.019123582 0.0076332144 0.20916541
-0.019179242 0.0046251225 0.21245417
-0.018703442 0.0014856955 0.21565446
-0.018380135 -0.0019034805 0.21877468
-0.01838287 -0.0051627709 0.22236672
-0.018747985 -0.0087163309 0.22403054
-0.018134674 -0.012374784 0.22491243
-0.01825431 -0.015856508 0.22584784
-0.019198805 -0.019464383 0.22722293
-0.019037191 -0.023066744 0.22915585
-0.018708179 -0.026519984 0.23395161
-0.012985235 0.037621886 0.18723592
-0.013080644 0.034257349 0.18875119
-0.013432242 0.031382784 0.19062468
-0.013727616 0.028513815 0.19228223
-0.013569909 0.025590593 0.19523859
-0.014646837 0.021994546 0.19962409
-0.014995831 0.018523708 0.2031379
-0.014802494 0.014803665 0.20607205
-0.014568362 0.011529128 0.20862317
-0.014596572 0.0085154893 0.21121341
-0.014641105 0.0057318807 0.21384899
-0.014625714 0.0021798797 0.21676743
-0.014415583 -0.0013254626 0.22018611
-0.014635146 -0.004664225 0.22276829
-0.014584422 -0.0085577108 0.22394922
-0.014409092 -0.012945197 0.2250239
-0.014871666 -0.016971976 0.22663288
-0.015671706 -0.020562978 0.22869022
-0.015601519 -0.023814181 0.2315612
-0.015135229 -0.026614605 0.23536868
-0.010655388 0.03427273 0.18948568
-0.010377894 0.031590726 0.19139092
-0.010498315 0.028614286 0.1931126
-0.010365064 0.025818517 0.19598755
-0.011355387 0.02291527 0.20017597
-0.012116403 0.01968636 0.20450827
-0.011578662 0.016470382 0.20742407
-0.010976283 0.012559785 0.20980547
-0.010595429 0.0092280479 0.21206696
-0.010533638 0.0061152987 0.21489723
-0.010642423 0.0028438896 0.21759157
-0.010556173 -0.00089329749 0.22097069
-0.010797563 -0.0042675668 0.22280943
-0.011144483 -0.0082781883 0.22385089
-0.010883746 -0.012741787 0.22451822
-0.011133338 -0.017067133 0.22767657
-0.011314642 -0.020638049 0.22971824
-0.011768372 -0.024387335 0.23357573
-0.012264118 -0.026549706 0.2359699
-0.0073294537 0.031764723 0.19292831
-0.0072193765 0.029083168 0.19520578
-0.0073592593 0.025953291 0.19801033
-0.0081054801 0.023138365 0.20108388
-0.0084685571 0.020551702 0.2052094
-0.0080091394 0.017220581 0.20820183
-0.0073455791 0.013416573 0.21034044
-0.0069025257 0.0098757623 0.21242338
-0.0067807459 0.0063210656 0.21554658
-0.0066963858 0.002841875 0.21844006
-0.0069501302 -0.00078234106 0.22180179
-0.0069665844 -0.0041594878 0.22303018
-0.0074809436 -0.0080669336 0.22453256
-0.0074043814 -0.012741718 0.22475819
-0.007405451 -0.017103257 0.2284684
-0.0079789087 -0.020747023 0.23042114
-0.0087294858 -0.023702253 0.23272677
-0.00488766 0.031431571 0.1948828
-0.0037942191 0.029353244 0.19729789
-0.0039686267 0.025956346 0.19913025
-0.0045158407 0.023069361 0.20122722
-0.0044876933 0.020403808 0.20441338
-0.0045423377 0.017236277 0.20773645
-0.0037641686 0.01363084 0.21024373
-0.0033611294 0.010252979 0.21258785
-0.0031377461 0.006739466 0.21556813
-0.0030596906 0.0032046554 0.21830831
-0.003051461 -0.0004536671 0.22191265
-0.0030940017 -0.0043448741 0.22331344
-0.0036913771 -0.0083124004 0.2252706
-0.0042120037 -0.012780504 0.22557528
-0.0049267653 -0.016554797 0.22833802
-0.00085730624 0.028699677 0.19871946
-0.00071784045 0.025957709 0.19950071
-0.001026384 0.023080073 0.20107329
-0.0010902223 0.020270059 0.20379205
-0.00088966539 0.016991071 0.20682952
-0.00025519411 0.013562948 0.20957528
0.00016339522 0.010303817 0.21213612
0.00046494565 0.0068188808 0.21462116
0.00029691737 0.0035303936 0.21734332
0.00075470586 -0.00012793143 0.22089289
9.4052324e-05 -0.0039348351 0.223781
-0.0016063097 -0.0076953629 0.22614416
0.0027747767 0.025786055 0.19995655
0.0030264645 0.022944754 0.20148134
0.0027740591 0.019939143 0.20344847
0.0026852437 0.016696136 0.206278
0.0033785196 0.013041642 0.2085166
0.0029914209 0.010411216 0.2109949
0 0 0 1 0 0 0 1 0 0 0 1 0 0 0 0 0 346 1 0 0
