ply
format ascii 1.0
comment PCL generated
element vertex 346
property float x
property float y
property float z
element camera 1
property float view_px
property float view_py
property float view_pz
property float x_axisx
property float x_axisy
property float x_axisz
property float y_axisx
property float y_axisy
property float y_axisz
property float z_axisx
property float z_axisy
property float z_axisz
property float focal
property float scalex
property float scaley
property float centerx
property float centery
property int viewportx
property int viewporty
property float k1
property float k2
end_header
-0.057157036 0.031098399 0.18753122
-0.05783299 0.028236717 0.18829782
-0.058106653 0.02547865 0.1897233
-0.058350064 0.022607338 0.1912965
-0.058606453 0.019668808 0.19269724
-0.058089811 0.016734092 0.19413035
-0.053103957 0.033294942 0.18377478
-0.054144245 0.030889831 0.18543357
-0.053937308 0.027988683 0.18595208
-0.054214302 0.025283936 0.18763413
-0.054650348 0.022553051 0.18947771
-0.055263966 0.01973531 0.19158235
-0.055455826 0.016717572 0.19304767
-0.055790197 0.013433524 0.19442122
-0.055424936 0.010068951 0.19575371
-0.048197575 0.035834458 0.17982048
-0.049214136 0.033425685 0.18111511
-0.049879078 0.030515267 0.18258438
-0.050211266 0.0276527 0.18424623
-0.050561491 0.025187368 0.18674603
-0.051032886 0.022448245 0.1886081
-0.051663525 0.019900601 0.19098036
-0.052125432 0.017134663 0.19285993
-0.052551068 0.013416111 0.19402437
-0.05310626 0.0092285974 0.19575426
-0.053723685 0.005408335 0.19951199
-0.05341671 0.002066612 0.20245405
-0.044648685 0.038317204 0.17770399
-0.045330629 0.035960697 0.17861442
-0.045817357 0.033380833 0.18008384
-0.046356745 0.0307124 0.18191876
-0.046955332 0.027887056 0.18438369
-0.047173906 0.025271302 0.18711059
-0.04757395 0.022622516 0.1892495
-0.048430294 0.020045245 0.19152971
-0.049005665 0.017275425 0.19379877
-0.049412258 0.013364017 0.19468257
-0.049626444 0.00877856 0.19529557
-0.050346304 0.0045360303 0.19890499
-0.050669856 0.0010694333 0.20411523
-0.051602039 -0.0019317868 0.20791842
-0.052035298 -0.0038690774 0.21187802
-0.041229069 0.040772744 0.1769757
-0.042085659 0.038797095 0.17773178
-0.042335521 0.036153808 0.17896245
-0.042740043 0.033658125 0.18057586
-0.043411102 0.031082759 0.18275873
-0.043593869 0.02796229 0.18529411
-0.043755632 0.025179625 0.18788363
-0.044198923 0.022485523 0.18988949
-0.045052703 0.019805793 0.19205271
-0.045896944 0.017279372 0.19441751
-0.046151072 0.013221963 0.19574206
-0.045925919 0.0084739523 0.19595511
-0.046039321 0.0038351328 0.19925074
-0.047337413 0.00094002939 0.20521168
-0.04835568 -0.0019292756 0.20919372
-0.049483452 -0.0041376515 0.21288107
-0.050226524 -0.0064518261 0.21563469
-0.050892871 -0.0088032195 0.2188717
-0.038814683 0.041492838 0.17672089
-0.03918115 0.03904482 0.1784407
-0.03949485 0.036356289 0.17974593
-0.039957628 0.033755947 0.18145415
-0.040177695 0.03089476 0.183644
-0.040406343 0.027516644 0.18617806
-0.040815588 0.02501538 0.18860537
-0.041264936 0.022493094 0.19040719
-0.041750494 0.019783778 0.19249427
-0.042641651 0.017180746 0.19517837
-0.04269547 0.013141328 0.19691072
-0.04191456 0.0084479069 0.19774802
-0.041302513 0.0034607847 0.20052023
-0.043901265 0.00046825243 0.20643981
-0.045077059 -0.0019062656 0.21053788
-0.045894098 -0.0037364725 0.21411325
-0.046957184 -0.0062797046 0.2170337
-0.048290573 -0.0093690474 0.22005293
-0.048743296 -0.012726218 0.22306731
-0.048060726 -0.016315531 0.22430722
-0.035661049 0.043367378 0.1755815
-0.036091428 0.041985799 0.17714004
-0.036294024 0.039433908 0.1788644
-0.03668946 0.036548648 0.1802334
-0.037020192 0.034007031 0.18234283
-0.037153184 0.030626906 0.18485555
-0.037339225 0.027504232 0.18711008
-0.03794289 0.025207967 0.1894365
-0.03852012 0.022676354 0.19175953
-0.038954698 0.019963471 0.1937658
-0.039664421 0.017143996 0.19687895
-0.039588902 0.013517328 0.1988375
-0.039148916 0.0086304368 0.20078519
-0.0389961 0.003801614 0.20320709
-0.040535677 0.00053964404 0.20802553
-0.041735191 -0.0014390474 0.21209407
-0.04253304 -0.003670925 0.21519582
-0.042831209 -0.0069508627 0.21690644
-0.043562349 -0.010122597 0.2191544
-0.044217713 -0.014280054 0.2213967
-0.044650637 -0.018425049 0.22446014
-0.043452151 -0.021078477 0.2265175
-0.032955524 0.043787934 0.17601876
-0.033088788 0.042396568 0.17743856
-0.032963786 0.03980533 0.17941622
-0.033057652 0.03700586 0.18076266
-0.033488613 0.034316145 0.18309425
-0.033947051 0.031017296 0.18657205
-0.034330372 0.027939796 0.18814597
-0.03496303 0.02528361 0.19050148
-0.03550332 0.022679551 0.19308333
-0.036085337 0.020009752 0.19594952
-0.036757879 0.017091895 0.19902621
-0.036686599 0.01415109 0.20043768
-0.036500596 0.0094380947 0.20264938
-0.036555193 0.0052111498 0.20562911
-0.037708502 0.0019746425 0.20976184
-0.038492225 -0.00086112751 0.21341947
-0.039017685 -0.0036549368 0.21603091
-0.039151311 -0.0070622768 0.21722984
-0.039453022 -0.011054333 0.2189365
-0.039949246 -0.015166792 0.22059558
-0.040249817 -0.019005435 0.22339568
-0.04011263 -0.021556076 0.22619818
-0.029961823 0.043901917 0.17668051
-0.029875899 0.042437579 0.17792259
-0.02998942 0.039978649 0.17983106
-0.03020045 0.037345521 0.18185741
-0.030398788 0.034547389 0.1843214
-0.03090425 0.031406455 0.1875864
-0.031312302 0.028445756 0.1892958
-0.031901337 0.025462028 0.19160151
-0.032341432 0.022456272 0.19463699
-0.033104237 0.01989297 0.19760108
-0.0338584 0.017016318 0.20049293
-0.033829436 0.014325385 0.20195805
-0.033517145 0.010010188 0.20436202
-0.033710785 0.0063010948 0.20737413
-0.034688592 0.0031527835 0.21113455
-0.035329979 -0.00025147331 0.21432829
-0.035520498 -0.0036637583 0.21641754
-0.035719868 -0.0071604359 0.21772105
-0.036163453 -0.011191768 0.21953458
-0.036440335 -0.015125613 0.22134261
-0.036490548 -0.0188333 0.22300534
-0.036192928 -0.021614371 0.22559953
-0.02687607 0.044206295 0.17709833
-0.026887266 0.04267491 0.17834619
-0.027147349 0.040039796 0.18004841
-0.02717704 0.037540335 0.18248396
-0.027370919 0.034657616 0.18514529
-0.027775098 0.031778179 0.18802053
-0.028229494 0.028761057 0.19027549
-0.028756913 0.02578244 0.19266976
-0.029307466 0.022494411 0.19618778
-0.030104259 0.019691413 0.19994047
-0.030796815 0.017074768 0.20203531
-0.03049464 0.014664293 0.20363922
-0.030629018 0.011002251 0.20663857
-0.030663559 0.0073574684 0.20905237
-0.031375658 0.0034692441 0.21226396
-0.031984594 9.1187721e-05 0.21489695
-0.032119956 -0.0038390518 0.2174516
-0.032467116 -0.0074735284 0.21818659
-0.03289561 -0.011300809 0.22028558
-0.033145472 -0.015106445 0.22296208
-0.032915462 -0.018661883 0.22471704
-0.033006869 -0.021829097 0.22703534
-0.024014199 0.044463791 0.17798154
-0.023922492 0.043025579 0.17925172
-0.023971884 0.040226296 0.18053798
-0.024133317 0.037503935 0.18275483
-0.024370318 0.034918975 0.18557215
-0.024682565 0.032146696 0.18822457
-0.025164787 0.029101279 0.19126661
-0.025659081 0.025791308 0.19423293
-0.026108829 0.022292113 0.19808963
-0.026831869 0.019283356 0.20154917
-0.026528867 0.017144911 0.2037911
-0.027020017 0.015063124 0.20569991
-0.027693016 0.011421074 0.20945401
-0.027903335 0.0078056636 0.21154357
-0.028275857 0.0038280755 0.21441197
-0.028410858 -0.00012883198 0.21617214
-0.028814457 -0.0045387549 0.21818933
-0.029002314 -0.0079127401 0.21947974
-0.029459227 -0.011448923 0.22134104
-0.029622447 -0.014911597 0.22410074
-0.029357009 -0.018440144 0.22593464
-0.029873481 -0.021919282 0.2278984
-0.030439114 -0.024881991 0.23173389
-0.02097269 0.044820558 0.17902023
-0.02077448 0.043333605 0.18036224
-0.020969449 0.040411931 0.18193628
-0.021031428 0.037549987 0.18336514
-0.021304537 0.034908872 0.18641597
-0.021710357 0.032247141 0.18878844
-0.022086976 0.029516494 0.19179034
-0.022528058 0.026216563 0.19501546
-0.022908192 0.022123503 0.19951241
-0.023388449 0.019098043 0.20304374
-0.022926109 0.016522544 0.20569381
-0.02334941 0.014104612 0.20747752
-0.024148395 0.011049235 0.21053965
-0.024949832 0.0077846148 0.21361032
-0.024870822 0.0037453338 0.21518867
-0.024679806 -0.00083111291 0.21601914
-0.025239719 -0.0045361831 0.21918692
-0.025495391 -0.0081228269 0.22094862
-0.025550121 -0.011423645 0.22244969
-0.025884816 -0.014771249 0.22540279
-0.02593047 -0.018361965 0.22687514
-0.026535271 -0.02234962 0.22821917
-0.026596006 -0.025967574 0.23218162
-0.018097958 0.043263797 0.18183424
-0.018094456 0.041036617 0.18377484
-0.018137066 0.038016479 0.18499222
-0.018376289 0.035106201 0.18684724
-0.018542282 0.03227691 0.18923725
-0.018798316 0.029604655 0.19189087
-0.019091358 0.026333492 0.19628075
-0.019481493 0.022735717 0.19952734
-0.019762045 0.019104151 0.20288117
-0.0198029 0.015841728 0.20540841
-0.0198557 0.012897706 0.20747323
-0.020636877 0.0099257389 0.21004221
-0.021345397 0.0064829723 0.21287201
-0.021176301 0.00314068 0.21490766
-0.021169199 -0.00050886138 0.21731776
-0.021703366 -0.0042464552 0.22083648
-0.022062102 -0.0079638669 0.22280237
-0.021856753 -0.011520652 0.22375295
-0.021727655 -0.014978934 0.22639802
-0.021861248 -0.018399742 0.22709604
-0.022268713 -0.022363018 0.22766858
-0.022773849 -0.026418615 0.23278041
-0.015217503 0.041106645 0.18504587
-0.015284716 0.038425051 0.18655948
-0.015366073 0.035399206 0.18793821
-0.015548583 0.032385349 0.19020636
-0.01584905 0.02966553 0.19247486
-0.0157876 0.026557062 0.19678542
-0.016260929 0.022870967 0.20034434
-0.016391985 0.019565376 0.2027968
-0.01664244 0.016108001 0.20490946
-0.016417705 0.012907158 0.20817538
-0.01697313 0.010055246 0.21082108
-0.017447053 0.0068429206 0.21334815
-0.017549047 0.0036081492 0.21613149
-0.017697504 -0.00013952368 0.21941334
-0.018100204 -0.0037655153 0.22258392
-0.018308256 -0.0075721 0.22452489
-0.017833153 -0.011330428 0.22550608
-0.017874097 -0.015094602 0.22662807
-0.018498903 -0.018841948 0.22786945
-0.01868498 -0.022794405 0.22968075
-0.019181233 -0.026614474 0.23455508
-0.01263535 0.038166139 0.18794924
-0.01240127 0.035329543 0.18910486
-0.012572866 0.032368373 0.19112158
-0.012761137 0.029526092 0.19292803
-0.012565295 0.026720881 0.19621897
-0.012956909 0.023228556 0.20040794
-0.013289851 0.019899877 0.20374733
-0.013374367 0.016548598 0.20665184
-0.013294634 0.013485861 0.20945345
-0.013377464 0.010561303 0.21176252
-0.013424629 0.007515383 0.214296
-0.013791785 0.0039445339 0.21753095
-0.014160563 0.00015253063 0.22106044
-0.014338511 -0.0034920122 0.22351232
-0.014341057 -0.0072880527 0.2249795
-0.014179131 -0.011765304 0.22648646
-0.014342536 -0.015735019 0.227852
-0.014856845 -0.019457497 0.22959809
-0.015246999 -0.023444636 0.23261563
-0.01540215 -0.026604451 0.23653893
-0.0097084595 0.035123292 0.18992648
-0.0092141684 0.032546785 0.19167566
-0.0094324416 0.029685788 0.19362484
-0.0093282731 0.026964912 0.19676898
-0.0098004062 0.023778578 0.20081085
-0.010118627 0.020506511 0.20477247
-0.0099912789 0.017358679 0.20779325
-0.0099761058 0.014081586 0.21043701
-0.0098480908 0.010853873 0.21236624
-0.0097684152 0.0076591405 0.21553992
-0.010186728 0.004097682 0.2185652
-0.01030485 0.00026066185 0.2216475
-0.01054464 -0.0033679421 0.22381377
-0.010879305 -0.0074143209 0.22549623
-0.010590914 -0.011692622 0.22601484
-0.010818214 -0.015845792 0.22914624
-0.011088039 -0.019587299 0.2309574
-0.011605691 -0.023818236 0.23482409
-0.012375388 -0.02628885 0.23725493
-0.0061387396 0.032245908 0.19249606
-0.0060401834 0.029749339 0.19490978
-0.0062569762 0.026935099 0.19831082
-0.0065469299 0.02403683 0.20111495
-0.006843037 0.021109676 0.20509358
-0.0065608402 0.017920805 0.20831679
-0.0063558435 0.014519885 0.21073018
-0.0063286698 0.011131016 0.21258901
-0.0062175631 0.0075940131 0.21586373
-0.0064484072 0.0038236624 0.21898443
-0.0065671285 -2.399342e-05 0.22210731
-0.0067033274 -0.0035803288 0.22348708
-0.0071246121 -0.0074478686 0.22597939
-0.0070853811 -0.011970667 0.22649148
-0.0072698561 -0.016074579 0.22985397
-0.0079469923 -0.019843459 0.23201805
-0.0086797737 -0.022874665 0.23388401
-0.0034939155 0.031692673 0.1940686
-0.002600169 0.029793944 0.1966524
-0.0028176932 0.026940791 0.19892962
-0.0029789119 0.024041735 0.20140462
-0.0030150118 0.021171654 0.20448208
-0.0030924792 0.017977595 0.20764922
-0.002730906 0.014480907 0.2105176
-0.0028124438 0.011108954 0.2128492
-0.0026399365 0.0076279324 0.21574348
-0.0027869814 0.0036628502 0.21824551
-0.0027721715 -2.6688527e-05 0.22139755
-0.0029921753 -0.0039136107 0.22300662
-0.0033142976 -0.0079351645 0.22586213
-0.0038496503 -0.012187863 0.22698475
-0.0047198208 -0.015604047 0.22942384
0.00036289726 0.02932593 0.1981696
0.00056457054 0.02723695 0.19960408
0.00047216256 0.024381759 0.2015609
0.00048759367 0.021294268 0.20390005
0.00059951376 0.018085068 0.20662093
0.0008595924 0.014578954 0.20956479
0.00094078679 0.011134923 0.2122336
0.0010463962 0.0076106056 0.21452227
0.00064966554 0.0037463894 0.21687211
0.00086369796 -0.00013769472 0.21962477
0.0002848935 -0.0038203844 0.2225419
-0.00097104331 -0.0073336307 0.22619525
0.0037997717 0.027422542 0.20022011
0.004159099 0.024596635 0.2018431
0.0041688741 0.021352716 0.20346613
0.0040052463 0.018132279 0.20629841
0.0043056807 0.014713535 0.20845702
0.0038509278 0.011557767 0.21089175
0 0 0 1 0 0 0 1 0 0 0 1 0 0 0 0 0 346 1 0 0
