ply
format ascii 1.0
comment PCL generated
element vertex 346
property float x
property float y
property float z
element camera 1
property float view_px
property float view_py
property float view_pz
property float x_axisx
property float x_axisy
property float x_axisz
property float y_axisx
property float y_axisy
property float y_axisz
property float z_axisx
property float z_axisy
property float z_axisz
property float focal
property float scalex
property float scaley
property float centerx
property float centery
property int viewportx
property int viewporty
property float k1
property float k2
end_header
-0.05792819 0.027847277 0.18940055
-0.058731962 0.02508294 0.19058965
-0.059126444 0.022250436 0.19197717
-0.05928928 0.019280674 0.19356531
-0.059505969 0.016424758 0.19496934
-0.058439679 0.011611721 0.1976698
-0.053957548 0.030491233 0.18602249
-0.055359382 0.028098511 0.1876411
-0.055341594 0.024920182 0.18838917
-0.055672001 0.02203946 0.19008909
-0.056364566 0.019129476 0.19196326
-0.05691145 0.015687205 0.19399713
-0.056700304 0.011658075 0.19657621
-0.056530304 0.0082014445 0.1995157
-0.056275934 0.0054581426 0.20161137
-0.04791303 0.032225121 0.1817939
-0.049169898 0.030235365 0.18307735
-0.050864425 0.027773829 0.18453275
-0.051724974 0.024696589 0.18643618
-0.051920492 0.02187177 0.18860489
-0.052635211 0.018984662 0.19034517
-0.053213827 0.015587718 0.1922401
-0.053655248 0.011537903 0.19526248
-0.054023627 0.0072315843 0.19906883
-0.054752883 0.0037038571 0.20154843
-0.054683886 0.00063313771 0.2039104
-0.054651301 -0.002031069 0.20567372
-0.044592384 0.034730103 0.17955334
-0.045085862 0.032556899 0.18070327
-0.045652971 0.030303244 0.18210493
-0.046577856 0.027895041 0.18370447
-0.048012748 0.02473563 0.18631187
-0.048635103 0.021733204 0.18842727
-0.049228959 0.01873976 0.19003034
-0.049849756 0.015552901 0.19163778
-0.050660018 0.011196365 0.19494927
-0.051103696 0.006198816 0.19862352
-0.05170634 0.0017524415 0.19952238
-0.052362125 -0.0011349664 0.20265089
-0.052085001 -0.0038256999 0.20566033
-0.052143961 -0.0060097096 0.20930608
-0.052732065 -0.007450541 0.21283616
-0.041736025 0.037776917 0.17820016
-0.042218581 0.03567734 0.17925434
-0.042256486 0.033202864 0.18071918
-0.042638265 0.030913742 0.18234827
-0.043278232 0.028402461 0.18444021
-0.044503655 0.024863774 0.1871264
-0.04498779 0.021540634 0.18889721
-0.045384195 0.018598009 0.19014373
-0.046363637 0.0152184 0.19153923
-0.047605399 0.011180512 0.19419448
-0.047701359 0.0052519972 0.19738878
-0.047532935 -0.00018816345 0.19745953
-0.047238421 -0.0037772097 0.20062315
-0.048445731 -0.0045506693 0.20572233
-0.049125686 -0.006525558 0.210071
-0.050560411 -0.0082956692 0.21380888
-0.051457234 -0.01056772 0.21626338
-0.052228972 -0.013157123 0.21997961
-0.039836697 0.039137244 0.17768204
-0.039636642 0.036428902 0.17965625
-0.039731111 0.033828959 0.18121713
-0.03998265 0.031355686 0.18296827
-0.0403703 0.028444633 0.18547471
-0.041394006 0.024535397 0.18815199
-0.041627068 0.021476062 0.1895401
-0.04221284 0.018715002 0.19040896
-0.042649664 0.015674913 0.19158077
-0.043712493 0.011536418 0.19360012
-0.044173449 0.0040164269 0.19596957
-0.041916415 -0.0020053929 0.19530281
-0.038864452 -0.0063846307 0.19756514
-0.044521358 -0.0060206926 0.20595801
-0.045838434 -0.0070094382 0.21088111
-0.047197994 -0.0079266801 0.21495412
-0.048510443 -0.010206227 0.21809046
-0.050060835 -0.013176297 0.22141218
-0.049918141 -0.01629303 0.22376949
-0.048888132 -0.018432127 0.22549814
-0.036886863 0.041518033 0.176047
-0.037119787 0.040169913 0.17776458
-0.037169542 0.037532497 0.17980772
-0.037127532 0.034333728 0.18153895
-0.037164237 0.031890228 0.18388915
-0.037856136 0.0280439 0.18709426
-0.038287356 0.024288049 0.18896653
-0.038746081 0.021432882 0.19028217
-0.039105635 0.018538538 0.1913414
-0.039376006 0.015334028 0.19240794
-0.039916821 0.011376879 0.19402224
-0.040954784 0.0034384064 0.19512959
-0.03850355 -0.0014427679 0.19656362
-0.03723285 -0.0050281761 0.20011371
-0.040974606 -0.0069114221 0.20645824
-0.042509902 -0.0074930526 0.21157813
-0.044147428 -0.0087083308 0.21589975
-0.045395833 -0.010653018 0.21883248
-0.04635277 -0.012460344 0.22160865
-0.046687402 -0.015823461 0.22546014
-0.046826459 -0.019919448 0.22980537
-0.045483492 -0.022550078 0.23141761
-0.034229975 0.042402167 0.17577283
-0.034028195 0.041214895 0.17744361
-0.03358461 0.039088916 0.17942302
-0.033593535 0.036670364 0.18115292
-0.034029406 0.032940872 0.18438303
-0.034829356 0.02804911 0.18864338
-0.035279427 0.024527734 0.18995212
-0.035853617 0.021330643 0.1914157
-0.036261287 0.018199457 0.19250461
-0.03659422 0.01483699 0.19371651
-0.037149787 0.010588979 0.19510779
-0.037977003 0.0049572038 0.1952958
-0.03639571 0.00037286076 0.19798677
-0.036009423 -0.0025913971 0.20179379
-0.038180094 -0.004759178 0.20714074
-0.039228164 -0.0078768656 0.21327582
-0.041020248 -0.0093030818 0.21728201
-0.041915491 -0.01099768 0.21979326
-0.042745646 -0.013347629 0.22334409
-0.043538954 -0.016883237 0.22595628
-0.043205135 -0.020579398 0.22855923
-0.041949153 -0.022769578 0.23063797
-0.031216161 0.042841662 0.17619415
-0.030941183 0.041699 0.17785637
-0.030628156 0.039496638 0.18005481
-0.030516371 0.037206396 0.1821465
-0.030739153 0.033531494 0.18545395
-0.031782638 0.028860169 0.18924238
-0.032207314 0.025382254 0.19070251
-0.032837838 0.021440158 0.19258152
-0.033447556 0.017804701 0.19374633
-0.033864498 0.014370861 0.19512218
-0.034706894 0.010146581 0.19625932
-0.03555816 0.0060035288 0.19642968
-0.034216795 0.002172064 0.19951616
-0.034147967 -0.00045979815 0.20338129
-0.035685394 -0.0028333475 0.20799305
-0.036772233 -0.0062739071 0.2132064
-0.03819121 -0.0084534846 0.21857175
-0.039154898 -0.010150909 0.22140704
-0.039666738 -0.012734689 0.22443986
-0.040111929 -0.016760819 0.22555515
-0.039850507 -0.020404765 0.22719768
-0.038203944 -0.02278335 0.22907186
-0.028272299 0.043068286 0.17710601
-0.02791583 0.041868098 0.17850843
-0.027858434 0.039593257 0.18040235
-0.027512429 0.037296895 0.18289253
-0.027407305 0.033485692 0.18594182
-0.02826447 0.029989077 0.18930764
-0.029083332 0.026326619 0.19153629
-0.029775569 0.022312891 0.1931968
-0.030644987 0.017637232 0.19529133
-0.031038133 0.013531509 0.19737858
-0.032071132 0.010228244 0.197846
-0.032767288 0.0077957073 0.19805352
-0.031926982 0.0046954034 0.20126195
-0.031372778 0.00195978 0.20497721
-0.032818835 -0.0017751332 0.20924677
-0.033930629 -0.0048791808 0.21347514
-0.035498835 -0.0075122965 0.22018333
-0.03603201 -0.0098138032 0.22297658
-0.036857083 -0.013023893 0.22517662
-0.036860678 -0.016926546 0.22648728
-0.036169417 -0.020347314 0.22766086
-0.03456771 -0.022545759 0.228715
-0.025297606 0.043402102 0.17786267
-0.025015116 0.042303383 0.1792545
-0.024609126 0.039901279 0.18081686
-0.0243087 0.036835659 0.182951
-0.024238793 0.033964019 0.18581103
-0.024967015 0.031063227 0.1889555
-0.025800917 0.027457492 0.19220494
-0.026728872 0.022794992 0.19458644
-0.027363088 0.017402312 0.19763394
-0.027949443 0.013185851 0.19962427
-0.028119465 0.010879029 0.20016785
-0.029374518 0.009389786 0.2004794
-0.02904705 0.0062281089 0.20402871
-0.028941186 0.0030891285 0.20702003
-0.03021046 -0.00076806074 0.21199241
-0.030691341 -0.0037812309 0.21725488
-0.031832952 -0.0076320288 0.22162402
-0.032508004 -0.010283141 0.22391403
-0.03344449 -0.013180238 0.22561087
-0.033175692 -0.016949316 0.22691023
-0.031768207 -0.019905325 0.22767055
-0.031449832 -0.022195969 0.22844426
-0.031322133 -0.024859583 0.23140894
-0.022180557 0.044345714 0.17869726
-0.02173686 0.042835277 0.18017015
-0.021517301 0.039743435 0.1816937
-0.021093566 0.036546893 0.18317105
-0.021412704 0.034145564 0.18653674
-0.02196612 0.031647656 0.18939972
-0.022410698 0.028920505 0.19220045
-0.023210933 0.024854133 0.19491412
-0.024274213 0.018986618 0.20010829
-0.02477717 0.014281887 0.20229469
-0.024852214 0.01170063 0.20309456
-0.025599813 0.0094047524 0.20348924
-0.026061732 0.0065174066 0.20616683
-0.026560185 0.0033755112 0.20954143
-0.026731607 0.00013630027 0.21437009
-0.026648216 -0.0034774563 0.2183159
-0.027230006 -0.0078660753 0.22096471
-0.028022563 -0.010833238 0.22292246
-0.028127186 -0.013338303 0.22476821
-0.027886657 -0.016435491 0.22694461
-0.027238643 -0.018910551 0.22718628
-0.027806694 -0.022227487 0.22829975
-0.027372388 -0.025542922 0.23215351
-0.018663401 0.042589426 0.1816766
-0.018546248 0.040198009 0.18346152
-0.018305363 0.037177607 0.18460229
-0.018681535 0.034368228 0.18706939
-0.019023905 0.031962223 0.18978497
-0.019296398 0.02930074 0.19207896
-0.01999612 0.025690749 0.19590719
-0.020776292 0.021340935 0.20033985
-0.021168644 0.016715636 0.20402004
-0.021421144 0.012768315 0.20565629
-0.02176122 0.010025083 0.20655234
-0.0226619 0.007013496 0.2085142
-0.022975979 0.0037110976 0.21242315
-0.022556145 0.00039951046 0.21618415
-0.022496488 -0.0032665259 0.2187043
-0.022649268 -0.0072865291 0.22140639
-0.023317771 -0.010300805 0.22297929
-0.022799941 -0.013308471 0.22502492
-0.02223298 -0.015988797 0.22776684
-0.022516312 -0.018628975 0.22784683
-0.023050938 -0.022211567 0.22800799
-0.023342518 -0.026006326 0.23271532
-0.015666731 0.040491484 0.18490911
-0.015683856 0.037765656 0.18628486
-0.015828339 0.034564972 0.18818596
-0.016444184 0.031653199 0.19053851
-0.016779242 0.029132806 0.1926979
-0.01694167 0.02583771 0.19701421
-0.017843205 0.021989342 0.20129225
-0.017754447 0.01855531 0.20441405
-0.01793639 0.014467575 0.20673701
-0.018022314 0.010972961 0.20907855
-0.018962653 0.0075042318 0.21098654
-0.019036951 0.0042942618 0.21417913
-0.018567324 0.00084836798 0.21712664
-0.018084921 -0.0028803383 0.21976222
-0.018247692 -0.0060571139 0.22332928
-0.018828567 -0.0092049493 0.2249829
-0.018403351 -0.012342215 0.2264829
-0.0185 -0.015712805 0.22776476
-0.019585764 -0.019295124 0.22866534
-0.019739732 -0.022727905 0.23003565
-0.019729774 -0.02615937 0.23444267
-0.013364997 0.037624978 0.18782349
-0.013503262 0.034103725 0.18959454
-0.01375489 0.031383213 0.19154342
-0.013968167 0.02878068 0.19347669
-0.013755665 0.026021374 0.19674475
-0.014660687 0.022802753 0.20156591
-0.01485599 0.019383332 0.20536929
-0.014571193 0.015803104 0.20864116
-0.014335352 0.012109012 0.2109163
-0.014320921 0.0081332298 0.21272005
-0.014373879 0.0050784191 0.2152001
-0.014369094 0.0015344563 0.21805516
-0.014277042 -0.0019776127 0.22147696
-0.014642988 -0.0050969487 0.22430745
-0.014857843 -0.0083428696 0.22620265
-0.014809592 -0.012368526 0.22786574
-0.015161052 -0.016587788 0.2292136
-0.015954072 -0.020191722 0.23099849
-0.016264193 -0.023371274 0.23321208
-0.016048869 -0.026005235 0.23676732
-0.011091764 0.034206625 0.19030324
-0.010603766 0.031483799 0.19211592
-0.010649714 0.028776417 0.194251
-0.010434764 0.026084468 0.19733767
-0.011240792 0.023431722 0.2016864
-0.011728231 0.02032367 0.2061228
-0.011112398 0.017079769 0.20907676
-0.010653617 0.012810179 0.21117041
-0.010170343 0.0089888908 0.21321438
-0.010135923 0.0055195861 0.21606261
-0.010424831 0.0022633106 0.21894468
-0.010542689 -0.0013485058 0.22248349
-0.010896351 -0.0045775203 0.22461398
-0.011454972 -0.0080580255 0.22636452
-0.011309563 -0.01209351 0.22770177
-0.011531279 -0.016331617 0.2306615
-0.011748404 -0.019821163 0.2327269
-0.012565421 -0.023451997 0.23621941
-0.013259818 -0.025639836 0.23829281
-0.0072075021 0.031340998 0.193169
-0.0069666374 0.02890476 0.19577795
-0.0071529374 0.0260705 0.19888271
-0.0077976682 0.023467723 0.20213863
-0.007997375 0.020865731 0.2062149
-0.0075428053 0.017447328 0.20917995
-0.0069155428 0.013413904 0.2111733
-0.0064936359 0.009726855 0.21322982
-0.0063549667 0.0058511631 0.21657006
-0.0065548741 0.0022345264 0.21975015
-0.0068137823 -0.0013811822 0.22295725
-0.0069743725 -0.0047380012 0.22436069
-0.0077220839 -0.0079793241 0.22674099
-0.0077820355 -0.012163376 0.22805271
-0.0078632664 -0.016307296 0.23163889
-0.0085818646 -0.01981652 0.23376878
-0.0094773816 -0.022628259 0.23610635
-0.0044705351 0.030916883 0.19487333
-0.0031797118 0.029081482 0.19753924
-0.0034924371 0.026013935 0.19983181
-0.0041756323 0.023401514 0.20221186
-0.0041118097 0.020681774 0.20547144
-0.0040819542 0.017425099 0.20868915
-0.0032722014 0.013546001 0.21090035
-0.0028750713 0.010159818 0.21318191
-0.002684328 0.0063535185 0.21625718
-0.0029122385 0.0023825304 0.21912472
-0.0029148732 -0.0013733519 0.22248834
-0.003053183 -0.0052605891 0.22394307
-0.0038326634 -0.0087129204 0.22674696
-0.0044753696 -0.012426992 0.22843993
-0.0053212158 -0.015862778 0.23164359
-0.00021665607 0.028464882 0.19894317
-0.00024619457 0.025985511 0.2001913
-0.00062600692 0.023358729 0.20210533
-0.00075869577 0.020581668 0.20481709
-0.0004605974 0.01719288 0.20783158
0.00014032899 0.013630806 0.21042649
0.00061406242 0.01035324 0.21276599
0.00087580492 0.0066512269 0.21517143
0.00036465444 0.002665522 0.21777445
0.00072645035 -0.0014236773 0.22080331
0.00020468082 -0.0052103777 0.22358628
-0.0015473001 -0.0083200512 0.22714905
0.0031212049 0.025978746 0.20077528
0.0033618652 0.023274204 0.20253852
0.0030989116 0.020328743 0.20452702
0.00302597 0.017052546 0.20733424
0.0037707631 0.013328157 0.20963332
0.0033682352 0.010603047 0.2118533
0 0 0 1 0 0 0 1 0 0 0 1 0 0 0 0 0 346 1 0 0
