ply
format ascii 1.0
comment PCL generated
element vertex 346
property float x
property float y
property float z
element camera 1
property float view_px
property float view_py
property float view_pz
property float x_axisx
property float x_axisy
property float x_axisz
property float y_axisx
property float y_axisy
property float y_axisz
property float z_axisx
property float z_axisy
property float z_axisz
property float focal
property float scalex
property float scaley
property float centerx
property float centery
property int viewportx
property int viewporty
property float k1
property float k2
end_header
-0.058640223 0.027392682 0.18889281
-0.059310593 0.02459183 0.19007659
-0.05958968 0.021753311 0.19147794
-0.059665497 0.01877911 0.19310507
-0.059784431 0.015726671 0.19466831
-0.058378283 0.011533809 0.19789828
-0.054676335 0.030284744 0.18573441
-0.056046054 0.027792009 0.18728834
-0.055844016 0.024616446 0.18809412
-0.056052864 0.021721933 0.18985079
-0.056655593 0.018788792 0.19171426
-0.057108525 0.015176085 0.1939453
-0.056652028 0.011590452 0.19686481
-0.056248371 0.0083637675 0.19985759
-0.05600189 0.0056367251 0.20191886
-0.04838673 0.032259259 0.18187498
-0.04968261 0.030250195 0.18312365
-0.051415578 0.027701633 0.18450265
-0.052161589 0.02457439 0.18638137
-0.05222832 0.021735303 0.18864948
-0.052837562 0.018824972 0.19044924
-0.053332575 0.015280932 0.19255333
-0.053609468 0.011573459 0.19574067
-0.053769015 0.0074415905 0.19948222
-0.05448572 0.0038884005 0.20184562
-0.054443669 0.00080557412 0.20413838
-0.054492287 -0.0018400259 0.20586528
-0.044938661 0.034738194 0.17967758
-0.045485031 0.032611851 0.18089952
-0.046105362 0.030376142 0.18234828
-0.047076773 0.027998485 0.18391895
-0.048445057 0.024743037 0.18647876
-0.0488704 0.02168973 0.18870994
-0.049323652 0.018699473 0.1904889
-0.049941778 0.015406531 0.19235893
-0.050596748 0.011394389 0.19565575
-0.050847132 0.0064567118 0.19905202
-0.051415313 0.0019906457 0.19980535
-0.05213837 -0.00094523904 0.20286262
-0.052027009 -0.0036307138 0.20582256
-0.052136131 -0.005815458 0.20946352
-0.052707046 -0.0071908641 0.21302852
-0.042017166 0.03780536 0.17838959
-0.042550009 0.03569863 0.17946085
-0.042658534 0.033272646 0.1810047
-0.043101024 0.031016028 0.18270358
-0.043819658 0.028482838 0.18478893
-0.044894885 0.024843687 0.18737507
-0.045213427 0.021558616 0.18931566
-0.045491278 0.018675843 0.19077574
-0.046460636 0.015278199 0.19263263
-0.04756248 0.01148381 0.19520009
-0.047420211 0.0055969632 0.19776674
-0.047222275 0.0002048906 0.19760217
-0.047074348 -0.0035180647 0.20058472
-0.048442002 -0.0044277636 0.20582244
-0.049123544 -0.0063846065 0.2101793
-0.050539363 -0.0080564609 0.21397161
-0.051516864 -0.009867168 0.2160514
-0.052286517 -0.011972974 0.2199859
-0.040118359 0.039291877 0.17805208
-0.039978758 0.036483493 0.17993966
-0.040151108 0.033915486 0.18159549
-0.040472198 0.031488929 0.1834082
-0.040907405 0.028496495 0.18577343
-0.041777082 0.024544589 0.18826161
-0.041931991 0.02157951 0.18984111
-0.04243644 0.018863341 0.19094537
-0.042821977 0.01586579 0.19272077
-0.043729719 0.011848904 0.1947916
-0.043817542 0.0045015835 0.19612701
-0.041630756 -0.0014533866 0.19505814
-0.038713671 -0.0060072681 0.19710362
-0.044565655 -0.0059880861 0.20591915
-0.0458447 -0.006910082 0.21089205
-0.047152277 -0.0077227508 0.21502204
-0.048470888 -0.009456804 0.21772864
-0.050031465 -0.011931841 0.22141555
-0.04992817 -0.014743461 0.22404686
-0.048633561 -0.017232623 0.22506808
-0.037229322 0.041972015 0.17685542
-0.037442848 0.040432785 0.17835747
-0.037476379 0.037628401 0.18011342
-0.037577357 0.03446224 0.18203042
-0.037698083 0.03202375 0.18442072
-0.038252898 0.02803316 0.18714491
-0.038631018 0.024336882 0.18891893
-0.039053869 0.021531487 0.19038063
-0.039370179 0.018685171 0.19155766
-0.039587531 0.015514729 0.19316937
-0.039906483 0.011514091 0.19454499
-0.040552836 0.0039176242 0.19509114
-0.0382182 -0.0010354982 0.19630623
-0.037066001 -0.0048222309 0.19975547
-0.041008096 -0.0069220699 0.20632574
-0.0425134 -0.0074324138 0.21150462
-0.044130154 -0.0084868884 0.2159269
-0.045293674 -0.0098032765 0.21829678
-0.046182241 -0.011178031 0.22135633
-0.046169948 -0.014869127 0.22460793
-0.046075888 -0.019567639 0.22787417
-0.044761024 -0.022331093 0.22915903
-0.034604337 0.042965513 0.17684095
-0.034369547 0.04159211 0.17836067
-0.033885602 0.039315928 0.18009196
-0.033861496 0.036862694 0.18179539
-0.034326848 0.033042572 0.18481231
-0.03502091 0.028077006 0.18854478
-0.035567556 0.024619168 0.18982311
-0.036116168 0.021462014 0.19131112
-0.036485132 0.018358601 0.19242331
-0.036761936 0.015027885 0.19420841
-0.037001107 0.010704851 0.19519076
-0.037510224 0.0052611423 0.19523247
-0.036086999 0.00060452643 0.19782135
-0.035800062 -0.0024952372 0.20155992
-0.038045634 -0.0047493284 0.2069436
-0.039250035 -0.007855162 0.21312784
-0.041004624 -0.0090744179 0.21721998
-0.041752975 -0.010428053 0.21888313
-0.042286944 -0.01260393 0.22225539
-0.042842079 -0.016423455 0.22417408
-0.042539302 -0.02027235 0.22641857
-0.041320469 -0.022526363 0.22837919
-0.031600576 0.043338344 0.17726727
-0.031270616 0.042020198 0.17872576
-0.030920697 0.039723191 0.18075109
-0.030759182 0.037402753 0.18280958
-0.030832669 0.03356174 0.18579462
-0.031883799 0.028868221 0.18923952
-0.032429654 0.025486773 0.19070321
-0.033100132 0.021633286 0.19241895
-0.033658352 0.018015729 0.19348907
-0.033958875 0.014582196 0.19538096
-0.034448858 0.010235037 0.19606464
-0.035073888 0.0061204308 0.19629577
-0.033871002 0.0022041088 0.19936129
-0.033892941 -0.00045286785 0.20320474
-0.03551108 -0.0028329971 0.20781159
-0.036740143 -0.0062026051 0.21299706
-0.038140383 -0.0081839729 0.21835779
-0.03889624 -0.009886953 0.22003323
-0.039159372 -0.012499194 0.22265144
-0.039490081 -0.016366595 0.22358595
-0.039236892 -0.020056887 0.22502919
-0.037653379 -0.022458749 0.22694172
-0.028614869 0.04334043 0.17793159
-0.028221091 0.042070255 0.17925228
-0.028116511 0.039773084 0.18105085
-0.027748087 0.037475396 0.18354712
-0.027458603 0.033601124 0.18643491
-0.028277196 0.029943487 0.1894246
-0.029263237 0.026424019 0.1917024
-0.030077953 0.022554571 0.19326483
-0.030811615 0.017916773 0.19492827
-0.030954977 0.013688839 0.19731042
-0.031720839 0.010245958 0.19747813
-0.032259308 0.0077106799 0.1977181
-0.031516764 0.0046008569 0.20102288
-0.03108725 0.0019133668 0.20476845
-0.032654334 -0.0017941437 0.2090936
-0.033859607 -0.0048321942 0.21330376
-0.035461668 -0.0071901414 0.21994559
-0.035871301 -0.0097504938 0.22131768
-0.036412377 -0.012869584 0.22324085
-0.036290154 -0.016618604 0.22441384
-0.035619758 -0.020020861 0.22550246
-0.03415345 -0.022243949 0.22701813
-0.025594484 0.04356974 0.17854166
-0.025286388 0.042425882 0.17987055
-0.024860097 0.040019114 0.18136938
-0.024537414 0.037136488 0.18367673
-0.024291473 0.034160454 0.18632875
-0.024915062 0.031042213 0.18911864
-0.025903733 0.027502632 0.19242412
-0.027041491 0.02306396 0.19483665
-0.027499713 0.017662695 0.1971442
-0.027725697 0.013278475 0.19930732
-0.027741903 0.010808236 0.19982998
-0.028930595 0.0092614433 0.2001261
-0.028722944 0.0061063021 0.20378259
-0.02871928 0.003026271 0.20682727
-0.030072125 -0.00081147125 0.21185973
-0.0306571 -0.0036259855 0.21721129
-0.031788643 -0.0075330734 0.22025391
-0.032545 -0.010320145 0.22219433
-0.033213466 -0.013081634 0.22373284
-0.032767422 -0.01667187 0.22495411
-0.031384904 -0.019572727 0.22610708
-0.031127809 -0.021997716 0.22733545
-0.031002736 -0.024816055 0.23052511
-0.022382947 0.04438762 0.17915788
-0.021890279 0.042872526 0.18055514
-0.021727113 0.039885901 0.18213765
-0.021354146 0.036861446 0.18376771
-0.021445788 0.034330938 0.18692367
-0.021880392 0.031680591 0.18951936
-0.022319142 0.028980173 0.19232866
-0.023304928 0.025186963 0.19535889
-0.024215195 0.019137001 0.19942446
-0.024684142 0.014460249 0.20181
-0.024700424 0.011695915 0.20282309
-0.025363874 0.009312043 0.20336096
-0.025914045 0.0064635868 0.20607758
-0.026523838 0.003371276 0.20947136
-0.026786311 0.00029378358 0.21446757
-0.026619967 -0.0034547031 0.21778028
-0.027381655 -0.0075733005 0.22058605
-0.028222021 -0.010666554 0.2221456
-0.028326487 -0.013257403 0.22386152
-0.027921047 -0.016260995 0.22615971
-0.027053272 -0.018773081 0.22669454
-0.027556704 -0.022170151 0.22771071
-0.027092092 -0.025599634 0.23153679
-0.018770792 0.042592712 0.18185611
-0.018642468 0.040269755 0.18367676
-0.018476808 0.037349775 0.1849456
-0.018731346 0.034528449 0.18734343
-0.018972505 0.032036882 0.18987313
-0.019216251 0.029493542 0.19222356
-0.019859403 0.026166653 0.19628866
-0.020576091 0.021544818 0.19993636
-0.020988265 0.016666124 0.20305543
-0.021391733 0.012726014 0.20474264
-0.021879513 0.010043864 0.20598319
-0.02290255 0.0071226149 0.20813623
-0.023303367 0.0039416533 0.21215279
-0.022784552 0.00071707618 0.21609388
-0.022735965 -0.0028292155 0.2187914
-0.022987396 -0.0067161107 0.22163646
-0.023590144 -0.0099446895 0.22291583
-0.022992747 -0.013086393 0.22474103
-0.02225903 -0.015858291 0.22736548
-0.022415502 -0.018546684 0.22741026
-0.022877911 -0.022188045 0.22747682
-0.023006955 -0.026130278 0.23204468
-0.015670408 0.040418617 0.18486737
-0.015710836 0.037735827 0.18628949
-0.015873412 0.03469497 0.18831734
-0.016421819 0.031765006 0.19060153
-0.016710868 0.029309241 0.19282003
-0.01678695 0.026220815 0.19718905
-0.017636199 0.022105437 0.20087571
-0.017518753 0.018459436 0.2035087
-0.017767651 0.014300943 0.20562507
-0.018187141 0.011017113 0.20839614
-0.019360488 0.007842104 0.2108621
-0.019406481 0.004745842 0.21418768
-0.01893927 0.001430739 0.21728311
-0.018497335 -0.0021424911 0.2201231
-0.018511005 -0.0055065458 0.22347097
-0.018983839 -0.0089431461 0.22470634
-0.01846618 -0.012229168 0.22586779
-0.018436747 -0.015632866 0.22706966
-0.019440122 -0.019241927 0.2280397
-0.019468132 -0.02275962 0.22939065
-0.019309044 -0.026330076 0.23362353
-0.013293306 0.037521202 0.18759963
-0.013510698 0.034194544 0.18956934
-0.013723915 0.031467605 0.19151862
-0.013896682 0.028916599 0.19347127
-0.013626396 0.026349939 0.19681782
-0.014432547 0.02291852 0.20120467
-0.014620168 0.01921707 0.20448728
-0.014362102 0.015507872 0.2075152
-0.014349387 0.012078138 0.21001633
-0.014649745 0.0086003244 0.21255922
-0.01479518 0.0056771575 0.21528925
-0.014742969 0.0021669625 0.21819617
-0.014582499 -0.0014047364 0.22158962
-0.014841303 -0.0047306372 0.22416745
-0.014859447 -0.0082759699 0.22549787
-0.014685092 -0.012429602 0.22676471
-0.014962413 -0.016572887 0.22824301
-0.015641669 -0.02019175 0.23010467
-0.015845953 -0.023473402 0.23227486
-0.015533596 -0.026286332 0.23562972
-0.01104646 0.034258924 0.19011436
-0.010563819 0.031600516 0.19200884
-0.010557153 0.028937304 0.19413751
-0.010315681 0.02640789 0.19726557
-0.011006896 0.023562515 0.2013433
-0.011510671 0.020069469 0.2052481
-0.010940015 0.016735712 0.20800692
-0.010637426 0.012802931 0.21025555
-0.010341776 0.0093172891 0.21274777
-0.010477129 0.0060693035 0.2159505
-0.010744575 0.0027776673 0.21891688
-0.01076527 -0.0009146732 0.22230877
-0.01107672 -0.004213098 0.22426721
-0.011438793 -0.0079598464 0.22542368
-0.01121865 -0.012139717 0.22633572
-0.01129901 -0.016438732 0.22931547
-0.011423613 -0.019994205 0.2313139
-0.012048683 -0.023795059 0.23474312
-0.012661674 -0.02606333 0.23684008
-0.0071883271 0.031543002 0.19311152
-0.0069585694 0.029161913 0.19577318
-0.0070689265 0.026412757 0.1988554
-0.0076249689 0.023681721 0.20185331
-0.0079290755 0.020688947 0.2055556
-0.0074788192 0.017216729 0.20828037
-0.0069269622 0.013463789 0.21032672
-0.0065697827 0.0098921387 0.2125416
-0.0065807626 0.0062470487 0.21621728
-0.0067972285 0.0026845795 0.21948296
-0.0069771842 -0.00095105014 0.22254562
-0.0070744278 -0.0043380689 0.2237504
-0.0077021169 -0.0078365505 0.22571251
-0.0077288826 -0.012201011 0.22650193
-0.0076553118 -0.016494766 0.2300459
-0.0082335025 -0.020093102 0.23204406
-0.0089784721 -0.023017438 0.23430744
-0.0045381687 0.031177353 0.19485836
-0.0032102859 0.029368835 0.19751176
-0.0034350499 0.026488243 0.19996974
-0.0040836763 0.023815138 0.20225148
-0.0040611774 0.020798415 0.2051421
-0.0040664366 0.01730177 0.20793928
-0.0033176199 0.013550504 0.21009766
-0.0029423737 0.0102274 0.21245001
-0.0028408801 0.0066067516 0.2156965
-0.0031776903 0.0028584669 0.21874395
-0.0031056148 -0.00084299286 0.22200635
-0.0031588541 -0.0047550416 0.22328547
-0.003846888 -0.0084278472 0.22573073
-0.0044813817 -0.012425447 0.22693327
-0.0051896977 -0.01607875 0.22993569
-0.00018976619 0.02875963 0.19886585
-0.00018186752 0.026464757 0.20033604
-0.00057708228 0.023846664 0.20228058
-0.00071594107 0.02080998 0.20459686
-0.00046385353 0.017113572 0.20712087
0.00013481463 0.013592009 0.20966816
0.00057765673 0.010352159 0.21202408
0.000805819 0.0067658145 0.21450129
0.00013957206 0.0030966578 0.21729656
0.00054441701 -0.00079584803 0.22030516
0.00010315076 -0.0046300259 0.22298078
-0.001583976 -0.0080013899 0.22617753
0.0031829858 0.02630257 0.20076875
0.0034103713 0.023544526 0.20244928
0.0031180978 0.020494325 0.20423993
0.003041822 0.017038722 0.20675582
0.003808063 0.013286437 0.20896943
0.0033631513 0.010552477 0.21113059
0 0 0 1 0 0 0 1 0 0 0 1 0 0 0 0 0 346 1 0 0
