ply
format ascii 1.0
comment PCL generated
element vertex 346
property float x
property float y
property float z
element camera 1
property float view_px
property float view_py
property float view_pz
property float x_axisx
property float x_axisy
property float x_axisz
property float y_axisx
property float y_axisy
property float y_axisz
property float z_axisx
property float z_axisy
property float z_axisz
property float focal
property float scalex
property float scaley
property float centerx
property float centery
property int viewportx
property int viewporty
property float k1
property float k2
end_header
-0.058754306 0.027425557 0.18904069
-0.059390318 0.024619849 0.19017234
-0.059670243 0.02179615 0.19149278
-0.059779171 0.018799551 0.19304061
-0.060069047 0.015766548 0.19462046
-0.058648251 0.011779471 0.19754085
-0.054837428 0.030322568 0.1859359
-0.056182582 0.027835015 0.18745232
-0.055964306 0.024681618 0.18823841
-0.05616428 0.021797307 0.18993469
-0.056782357 0.018856538 0.19168971
-0.057376515 0.015318952 0.19399038
-0.056934308 0.011887116 0.19656968
-0.056506712 0.0086751571 0.19911814
-0.056261443 0.0058978605 0.20106427
-0.048463527 0.032249615 0.18206103
-0.049777854 0.030270392 0.18330677
-0.051568795 0.027757024 0.18466641
-0.052290704 0.024653135 0.18654728
-0.052323051 0.0218294 0.18878147
-0.052941538 0.0189218 0.19050813
-0.053572442 0.0155313 0.19275811
-0.053906865 0.011960554 0.19551024
-0.054112744 0.0078119258 0.19863214
-0.054775212 0.0041407277 0.20090429
-0.054676272 0.00099083048 0.20328081
-0.054709215 -0.0016817485 0.20518182
-0.045004599 0.034688305 0.17981423
-0.045562837 0.032591917 0.18107361
-0.046194185 0.030372407 0.18255001
-0.047186445 0.028044129 0.18410395
-0.04855812 0.024815954 0.18667182
-0.048940565 0.021795209 0.18890801
-0.049385205 0.018794367 0.19064638
-0.050136775 0.015647907 0.19268396
-0.050895024 0.011859285 0.19537957
-0.051241063 0.0069147698 0.19796236
-0.051811967 0.002335856 0.1985735
-0.052436166 -0.00076726126 0.20185192
-0.052274793 -0.0035242091 0.20511809
-0.052340727 -0.0056235143 0.20885225
-0.05287645 -0.0068737329 0.21254542
-0.042086169 0.03773829 0.1784492
-0.042618256 0.035635415 0.17956308
-0.042733487 0.033254385 0.1811453
-0.043175943 0.031016098 0.18288441
-0.043899637 0.028488878 0.18497935
-0.044975586 0.024885435 0.18760206
-0.045268495 0.021640975 0.18955131
-0.045522764 0.01875033 0.19096115
-0.046614174 0.015496224 0.19300322
-0.047839936 0.011953844 0.19498685
-0.047829892 0.0061961007 0.196348
-0.04758868 0.00081956451 0.1957636
-0.047336765 -0.0032679853 0.19898932
-0.048693724 -0.0043558464 0.20509885
-0.049318407 -0.0062057981 0.2095395
-0.05070914 -0.0077478667 0.21347012
-0.051695544 -0.0096490392 0.21563262
-0.0525047 -0.011679132 0.21960703
-0.040203605 0.039265629 0.17808248
-0.040052868 0.036444448 0.18000278
-0.040226299 0.033900969 0.18170786
-0.040550653 0.031495001 0.18355863
-0.040998776 0.028490236 0.18591046
-0.041855473 0.024555171 0.18842106
-0.041987427 0.021626895 0.19003054
-0.042493995 0.018937144 0.19114307
-0.042984951 0.016096046 0.19308086
-0.04392546 0.012163477 0.19474962
-0.043963294 0.0051441118 0.19445087
-0.04137044 -0.00083325 0.19318463
-0.038487736 -0.0055603599 0.19530715
-0.04483775 -0.0059630233 0.20511897
-0.046046846 -0.0067615625 0.21021761
-0.047305197 -0.0074409102 0.21444456
-0.048652932 -0.0092410203 0.2173046
-0.050277013 -0.011629682 0.2210407
-0.050202992 -0.014351944 0.22368082
-0.048959382 -0.016790517 0.22438596
-0.037324939 0.042008039 0.17686725
-0.03752264 0.040451203 0.17835665
-0.037555199 0.037621889 0.18012211
-0.037669174 0.034454323 0.18212731
-0.037776694 0.032026108 0.18455014
-0.038329899 0.027993122 0.18722288
-0.038704515 0.024330536 0.18901119
-0.039110411 0.021551741 0.19050722
-0.039429355 0.018749546 0.19168234
-0.039721213 0.015685739 0.19324091
-0.039948739 0.011671615 0.19421427
-0.04030668 0.0044805254 0.19359291
-0.037934098 -0.00054011418 0.19474284
-0.037041318 -0.0045397789 0.19819447
-0.041298319 -0.0069328402 0.20544513
-0.042732816 -0.0073454566 0.2107594
-0.044288997 -0.0081997784 0.21537754
-0.045491479 -0.0094522284 0.21789685
-0.046388466 -0.010737887 0.22100797
-0.046450522 -0.014440883 0.22397181
-0.046476264 -0.019052617 0.22707838
-0.045224864 -0.021774907 0.22844106
-0.034698423 0.043033816 0.17681016
-0.034443162 0.041645721 0.17833407
-0.033939738 0.039352592 0.18003808
-0.033905141 0.03689396 0.1817746
-0.034366496 0.033056282 0.18488817
-0.035048518 0.028034274 0.1885789
-0.035630487 0.024596075 0.1898506
-0.036167938 0.021465503 0.19134448
-0.036529936 0.018412685 0.19239691
-0.036803991 0.015138946 0.19385478
-0.036932476 0.01085376 0.19454038
-0.037182543 0.0057291049 0.19407596
-0.035933293 0.00096186175 0.19653608
-0.035871364 -0.0023216791 0.20026304
-0.03823695 -0.0046989503 0.20589378
-0.039470438 -0.0078491215 0.21237199
-0.041189678 -0.0087800473 0.21665038
-0.041939545 -0.010144142 0.21843635
-0.042530335 -0.012275124 0.22162384
-0.043156195 -0.01605748 0.22342381
-0.042957723 -0.019833423 0.22568423
-0.041772604 -0.022046395 0.22770794
-0.031683933 0.04338808 0.17721502
-0.031332474 0.042047989 0.17868465
-0.030961806 0.039739117 0.18070669
-0.030788634 0.037437655 0.18277611
-0.030811552 0.03357248 0.18587834
-0.03186902 0.028812584 0.18929972
-0.032466393 0.025440734 0.1907102
-0.033142529 0.021642404 0.19238241
-0.03372594 0.018082106 0.19337995
-0.033947099 0.014686312 0.19483466
-0.034353085 0.010391827 0.19529381
-0.034848522 0.0064617777 0.19534211
-0.033820145 0.0024269626 0.19833203
-0.033976432 -0.0003517624 0.20212758
-0.035687331 -0.0027951351 0.20679735
-0.036959503 -0.0061570141 0.21210726
-0.03830412 -0.0078745801 0.21763317
-0.039104983 -0.0097403238 0.21940818
-0.039419226 -0.012341282 0.22181079
-0.039813671 -0.016085537 0.22281247
-0.039658848 -0.01972704 0.2243558
-0.038123693 -0.022066606 0.22640708
-0.028685665 0.043336514 0.1779059
-0.028276742 0.042068798 0.17921959
-0.02814207 0.039782986 0.18100704
-0.027768277 0.037487067 0.1835247
-0.027426409 0.033605639 0.18655592
-0.028221 0.029885584 0.18951848
-0.029267285 0.026340287 0.19173382
-0.030141376 0.022525312 0.19324063
-0.03089086 0.017983217 0.19480038
-0.030915039 0.013805032 0.19665109
-0.031659361 0.010390733 0.19673558
-0.03213916 0.0079190796 0.19692314
-0.031497236 0.0047576618 0.20019804
-0.031163299 0.0020179758 0.20390022
-0.03283577 -0.0017981667 0.20815264
-0.034086723 -0.0048428816 0.21237828
-0.035646554 -0.0069245822 0.21919589
-0.036143191 -0.009780352 0.22057915
-0.036723927 -0.012783476 0.22240953
-0.036657404 -0.016395351 0.22368154
-0.036069375 -0.019754555 0.22489943
-0.034604728 -0.021942584 0.22670238
-0.025662443 0.043566942 0.17851657
-0.025345482 0.042423788 0.17983164
-0.024883233 0.040032797 0.18131383
-0.024531465 0.037133705 0.18369849
-0.024261879 0.034186799 0.18642116
-0.024886388 0.031040406 0.18918982
-0.025884289 0.027384274 0.19246186
-0.027112428 0.022978513 0.19483134
-0.027612865 0.017690893 0.19706103
-0.02773218 0.013403466 0.19875859
-0.027754942 0.010994312 0.19932176
-0.028904662 0.0094346683 0.19954018
-0.028818423 0.0062425709 0.20319793
-0.028919693 0.0031374092 0.20620371
-0.030269176 -0.00088878686 0.21098636
-0.030668462 -0.0039481865 0.21627641
-0.032003373 -0.0076963124 0.21966089
-0.032926813 -0.010460468 0.22155459
-0.033614416 -0.013069268 0.22301492
-0.03320919 -0.016524231 0.22434436
-0.031825524 -0.01935509 0.22584733
-0.031492993 -0.021867851 0.22727421
-0.031305484 -0.02475884 0.23057273
-0.022414802 0.04444189 0.17911968
-0.021872729 0.042909306 0.18054064
-0.021706302 0.039904766 0.18212983
-0.021344811 0.036862567 0.18382336
-0.021429751 0.034365669 0.18699676
-0.021845642 0.031698626 0.18956321
-0.022287928 0.028938882 0.19231121
-0.023273412 0.025061477 0.19533676
-0.024233937 0.018945074 0.19935389
-0.024651334 0.014390701 0.20174728
-0.024787873 0.011818357 0.20268376
-0.025525359 0.0094889235 0.20304868
-0.026180012 0.0065967301 0.20568287
-0.02687314 0.0034660029 0.20899412
-0.026887594 7.4854608e-05 0.21391821
-0.026649229 -0.0037399025 0.21749574
-0.027602769 -0.0077503165 0.22040217
-0.028576784 -0.010835932 0.22201777
-0.028726326 -0.013375335 0.22382116
-0.028272089 -0.01627595 0.2262488
-0.027266107 -0.018817704 0.22694363
-0.0277851 -0.022217374 0.22790121
-0.027331585 -0.025631027 0.23175047
-0.01871023 0.042625204 0.18193288
-0.018614134 0.040318765 0.18375596
-0.018481676 0.037383661 0.18501583
-0.018723782 0.034563418 0.18742298
-0.018953929 0.032067798 0.18992859
-0.019182289 0.029517965 0.19224568
-0.019798005 0.026120044 0.19631399
-0.020518953 0.021412233 0.19995043
-0.02097852 0.016503893 0.20305881
-0.021499436 0.012683839 0.20473747
-0.022081697 0.010097177 0.20591567
-0.023140261 0.0071504498 0.20798588
-0.023465302 0.003870646 0.21198231
-0.022838226 0.00054229493 0.21600792
-0.022837194 -0.0029947932 0.21875601
-0.023190046 -0.0068345051 0.22168344
-0.023848904 -0.010097141 0.2230337
-0.023206027 -0.013205879 0.22502036
-0.022399878 -0.015899407 0.2277008
-0.022527616 -0.018597724 0.22775024
-0.023012726 -0.022260983 0.22779341
-0.023185434 -0.026181595 0.23231061
-0.015635952 0.04046363 0.18498446
-0.015713235 0.037788056 0.18640985
-0.015877245 0.034749858 0.18844655
-0.016434299 0.031798549 0.19073632
-0.016701106 0.029332574 0.19292839
-0.01674076 0.026195554 0.19724959
-0.017597193 0.022002211 0.20092055
-0.017493179 0.0183677 0.2035536
-0.01777054 0.014196439 0.20569466
-0.018302957 0.011004393 0.20842454
-0.019536559 0.007832191 0.21083589
-0.019506956 0.0046972344 0.21421067
-0.019041525 0.0013588456 0.21731934
-0.018617384 -0.0021659872 0.22027819
-0.018621176 -0.0055042501 0.22362876
-0.019115094 -0.009002896 0.22482719
-0.018595235 -0.012277496 0.22609228
-0.01851978 -0.015662095 0.22735675
-0.019526707 -0.019270623 0.22838472
-0.019565318 -0.022815377 0.22971426
-0.019464673 -0.026380178 0.23390359
-0.013293327 0.037549786 0.18771788
-0.013533848 0.034242414 0.18973736
-0.013742639 0.031517588 0.19168346
-0.013902702 0.028973855 0.1936051
-0.013582111 0.026347935 0.1969101
-0.014376122 0.022857523 0.20126162
-0.014611064 0.019149775 0.20455211
-0.014367012 0.01546771 0.20763431
-0.014375583 0.012085873 0.21015422
-0.014716877 0.0086210063 0.21268015
-0.014888461 0.0056627574 0.21539323
-0.014825007 0.0021456752 0.21829623
-0.014682757 -0.0014295343 0.22171484
-0.01495302 -0.0047589368 0.22427627
-0.014942812 -0.0082990779 0.22561213
-0.014765969 -0.01245169 0.2269769
-0.015009882 -0.016583331 0.22855754
-0.015662003 -0.020192163 0.23046969
-0.015907621 -0.023474906 0.23260549
-0.015646325 -0.026276596 0.23591836
-0.011055553 0.034275915 0.19022956
-0.010567641 0.03161823 0.19213252
-0.010550263 0.028949646 0.19424431
-0.010263334 0.026399512 0.19733599
-0.010935616 0.023506032 0.20137927
-0.011494758 0.020027695 0.20530094
-0.010937911 0.016736934 0.20812102
-0.010652568 0.01284104 0.21038435
-0.010363078 0.0093599139 0.21291156
-0.010537182 0.0060912156 0.21609825
-0.010807547 0.0027527339 0.21903628
-0.010838674 -0.0009522051 0.22238405
-0.011181991 -0.0042276829 0.22433053
-0.01151509 -0.0079788752 0.22550884
-0.011310377 -0.01214692 0.22652811
-0.011357496 -0.016412925 0.22957847
-0.011463432 -0.019965637 0.23159972
-0.012103689 -0.02377052 0.23501283
-0.012740309 -0.026044726 0.23714207
-0.007179183 0.031509779 0.19318336
-0.0069471942 0.029118441 0.19583888
-0.0070295003 0.026376201 0.19889174
-0.0075858464 0.023609817 0.20183437
-0.0079213334 0.020648103 0.20555596
-0.0074649346 0.017232891 0.20833822
-0.006927053 0.013517371 0.21041541
-0.0065708249 0.0099275559 0.21265431
-0.0066109821 0.0062719043 0.21636295
-0.0068483711 0.0026571392 0.21957824
-0.0070052529 -0.00096564047 0.22256841
-0.007106503 -0.0043442557 0.22377436
-0.0077473791 -0.0078381617 0.22576994
-0.0078244051 -0.012220751 0.22667244
-0.0077272956 -0.01650374 0.23024748
-0.0082862461 -0.020078111 0.23226506
-0.0090120081 -0.022999991 0.23455167
-0.0045434707 0.031099539 0.19486783
-0.0031879398 0.029280055 0.19746447
-0.0034019768 0.026419101 0.19995746
-0.0040721321 0.023738174 0.20224911
-0.0040576225 0.020753229 0.20516521
-0.0040621012 0.017307879 0.20799926
-0.0033181377 0.013564681 0.21014911
-0.0029307019 0.010251583 0.21249767
-0.0028440058 0.0066181021 0.21577209
-0.003243244 0.0028522934 0.21882048
-0.0031434409 -0.00082649675 0.2220047
-0.0031748724 -0.0047364216 0.22327454
-0.0038866815 -0.0084234616 0.2257612
-0.0045797438 -0.012473219 0.22705214
-0.0052884831 -0.016150208 0.2301064
-0.00014633859 0.028649425 0.19877957
-0.00014630216 0.026414309 0.20032862
-0.00057321601 0.023819687 0.20233369
-0.0007226161 0.020779788 0.2046434
-0.00046195977 0.017087091 0.20717868
0.0001391415 0.013574446 0.20971173
0.00059021602 0.010361501 0.21206045
0.00082130381 0.0067847846 0.21454886
7.7764482e-05 0.0031150344 0.21734525
0.00050896051 -0.0007604392 0.2202787
0.00010206997 -0.0046053454 0.2229404
-0.0016155526 -0.0079952395 0.22617759
0.0031970993 0.026277529 0.20080382
0.0034076127 0.023537064 0.20254128
0.0030988632 0.020488862 0.20432538
0.0030349761 0.017000603 0.20680526
0.0038238785 0.013211065 0.20904179
0.0033622193 0.010520166 0.21119128
0 0 0 1 0 0 0 1 0 0 0 1 0 0 0 0 0 346 1 0 0
