ply
format ascii 1.0
comment PCL generated
element vertex 346
property float x
property float y
property float z
element camera 1
property float view_px
property float view_py
property float view_pz
property float x_axisx
property float x_axisy
property float x_axisz
property float y_axisx
property float y_axisy
property float y_axisz
property float z_axisx
property float z_axisy
property float z_axisz
property float focal
property float scalex
property float scaley
property float centerx
property float centery
property int viewportx
property int viewporty
property float k1
property float k2
end_header
-0.059217308 0.028195841 0.1902017
-0.059894998 0.02534361 0.19143379
-0.060181741 0.02240728 0.19276983
-0.060243811 0.019328229 0.19425242
-0.060367562 0.016254151 0.19540083
-0.058865327 0.012085873 0.19770417
-0.055303685 0.030983847 0.18678321
-0.056666732 0.028576808 0.18854578
-0.056499977 0.025371397 0.18945082
-0.056687798 0.022406153 0.19115511
-0.057274893 0.019344775 0.19284202
-0.057695482 0.015791059 0.19463831
-0.057197019 0.012199854 0.19667165
-0.056656837 0.0089086583 0.19891037
-0.056315027 0.0061095213 0.20083942
-0.048721679 0.032162305 0.18191448
-0.050200712 0.030508988 0.18362425
-0.052114885 0.028275926 0.18559629
-0.05288199 0.025279062 0.18770845
-0.052895121 0.02242673 0.18988965
-0.053497929 0.019429049 0.19151174
-0.053944346 0.015985524 0.19316892
-0.054235015 0.012248361 0.19538619
-0.054297809 0.0080249319 0.19822662
-0.054830424 0.0043393178 0.2006118
-0.054678876 0.0011558894 0.20309493
-0.054712322 -0.0015925576 0.2050771
-0.044997506 0.034097761 0.17928694
-0.045730624 0.03223281 0.18085614
-0.046548344 0.030323336 0.1827165
-0.047720067 0.02838012 0.18471222
-0.049154446 0.025389815 0.18772051
-0.049535457 0.022315277 0.1897465
-0.049976807 0.019206205 0.19122216
-0.050513029 0.015968449 0.19266665
-0.051251393 0.012064276 0.19486907
-0.05148308 0.0071090087 0.19723749
-0.051973056 0.0025202371 0.19801557
-0.052451137 -0.00063008594 0.20155804
-0.052264236 -0.0035089387 0.20501998
-0.052342348 -0.0055390634 0.20883606
-0.05293012 -0.0066965017 0.21262631
-0.04191542 0.037046935 0.17783369
-0.042559125 0.034994699 0.17902017
-0.042852644 0.032796793 0.18090996
-0.043526068 0.030911094 0.18305312
-0.044461511 0.028857067 0.18561697
-0.04557037 0.025444534 0.18855876
-0.04580459 0.021955626 0.1900357
-0.046060555 0.018963665 0.19116895
-0.046966791 0.015573164 0.19247834
-0.048238017 0.012047309 0.19407928
-0.048181109 0.0063623954 0.1951957
-0.047875401 0.00096737122 0.19457312
-0.047419462 -0.0032076354 0.19817857
-0.048676331 -0.0043597883 0.20505831
-0.049320489 -0.0061040856 0.20957194
-0.050772682 -0.0075669349 0.21359038
-0.0518535 -0.009428625 0.21645492
-0.052804694 -0.011161975 0.22067639
-0.040061172 0.038728926 0.17767978
-0.039978717 0.035810996 0.17950192
-0.04034574 0.03344829 0.18148738
-0.040896051 0.031407055 0.18376549
-0.041574795 0.02892275 0.18673976
-0.04233155 0.024888884 0.18922588
-0.042427868 0.021810649 0.19051518
-0.042967014 0.019062648 0.19141123
-0.043270107 0.016006051 0.19241671
-0.044293068 0.012054104 0.19360559
-0.044198975 0.0052616438 0.19297574
-0.041240782 -0.00073441124 0.19189186
-0.038388621 -0.0054540639 0.19431978
-0.044866335 -0.0060014003 0.20510767
-0.046085637 -0.0066775004 0.21030475
-0.047379944 -0.007248797 0.21459377
-0.04889581 -0.008791158 0.218321
-0.050656077 -0.010859919 0.22220816
-0.05069913 -0.013328292 0.22521688
-0.049440384 -0.015815122 0.22625619
-0.03728956 0.041758031 0.17682053
-0.037479348 0.040111605 0.17822333
-0.037463743 0.037114777 0.17976132
-0.037793357 0.034016527 0.18198703
-0.038158793 0.032036796 0.18484403
-0.038822342 0.028404625 0.18808921
-0.039091792 0.024516715 0.18957373
-0.039507907 0.021677667 0.19092755
-0.039785229 0.018822784 0.19194667
-0.039948165 0.01563124 0.19267829
-0.040222157 0.011645125 0.19329612
-0.040221006 0.0045943311 0.19234496
-0.03781841 -0.00041360129 0.19372906
-0.037138719 -0.0044166031 0.19736102
-0.041397862 -0.0069953417 0.2054138
-0.042819716 -0.0072934097 0.2108587
-0.044423211 -0.008004182 0.21572541
-0.045757502 -0.0086642252 0.21928863
-0.046786979 -0.0095016072 0.22252792
-0.046861675 -0.013577168 0.22596093
-0.046643451 -0.019106649 0.2285911
-0.045247938 -0.02218028 0.22917707
-0.034698263 0.04287659 0.17691521
-0.034485206 0.041482784 0.17843261
-0.033943884 0.039158016 0.18004209
-0.033935945 0.036740575 0.18184404
-0.034628913 0.033202481 0.18543547
-0.035320427 0.028203787 0.18940821
-0.035942372 0.024699545 0.19033024
-0.036463093 0.021505065 0.1916151
-0.03681799 0.018445456 0.19250157
-0.037033893 0.015119299 0.19332542
-0.037206128 0.01087655 0.19379768
-0.037105408 0.0058668675 0.19313847
-0.035966683 0.0011097838 0.19572741
-0.036075115 -0.0021884507 0.19957684
-0.038451675 -0.0046448773 0.20555547
-0.039575331 -0.0078370692 0.21256152
-0.041358344 -0.0085958205 0.21706356
-0.042309929 -0.0095017338 0.21990597
-0.043002285 -0.01125028 0.22366907
-0.043645699 -0.015605053 0.22513492
-0.043281231 -0.019797618 0.22658372
-0.041906994 -0.022446955 0.22798204
-0.031722397 0.043320131 0.17745829
-0.031398613 0.042000707 0.17892097
-0.031052245 0.039724942 0.18097095
-0.030905478 0.037526481 0.18315603
-0.031003229 0.033816315 0.18673126
-0.032045156 0.028886251 0.19016048
-0.032684892 0.025456257 0.19125775
-0.033381734 0.021677515 0.19261998
-0.033994582 0.018110745 0.19343273
-0.03424263 0.014650507 0.19441395
-0.034696408 0.010415324 0.19472395
-0.034924231 0.0066405064 0.19465075
-0.03400629 0.0026183496 0.19776309
-0.034215491 -0.00020104861 0.20161943
-0.035970796 -0.0026811948 0.20643617
-0.037132964 -0.006069643 0.21211141
-0.038474068 -0.0076848413 0.21798424
-0.039524838 -0.0091153076 0.22092701
-0.039912429 -0.01161337 0.22369553
-0.040353894 -0.015645474 0.22406451
-0.040121078 -0.019583691 0.22481403
-0.03832062 -0.022351608 0.22608028
-0.028718906 0.043249354 0.17812353
-0.028329901 0.042036816 0.17949776
-0.028256875 0.039845236 0.1814087
-0.027944125 0.03771469 0.18410048
-0.027639978 0.034013234 0.18764526
-0.028323859 0.029946314 0.19040073
-0.029382976 0.02622721 0.19232507
-0.030329205 0.022446655 0.19350472
-0.031175617 0.018004311 0.19487156
-0.031347338 0.013727781 0.19641174
-0.032147136 0.010424871 0.19642317
-0.032450639 0.0081232497 0.19656922
-0.031819493 0.005005152 0.19990647
-0.031489205 0.0022095777 0.20361005
-0.033151243 -0.0016473293 0.20785099
-0.034343362 -0.0047039897 0.21223207
-0.035846002 -0.006747962 0.2195013
-0.036547918 -0.0090659307 0.22222783
-0.037179071 -0.01229485 0.22388963
-0.037085347 -0.016260851 0.2243513
-0.036417905 -0.019858398 0.22477248
-0.034646243 -0.022306101 0.22582039
-0.025672106 0.043446571 0.17869107
-0.025397154 0.042374354 0.18006237
-0.024964469 0.040100679 0.18175356
-0.02475247 0.037383363 0.18444294
-0.024503792 0.034638919 0.18745935
-0.025006987 0.031333823 0.19011568
-0.025881931 0.027175507 0.19297555
-0.027228212 0.022715248 0.19507535
-0.027913202 0.017649522 0.19728702
-0.028296802 0.013351043 0.1988201
-0.028237006 0.011178829 0.19936141
-0.029347129 0.0096837385 0.19952287
-0.029176956 0.0064908345 0.20317353
-0.029288983 0.0033423854 0.20611638
-0.030605609 -0.0007145101 0.21073452
-0.030816324 -0.0039727646 0.21608831
-0.032334071 -0.0072701038 0.22075678
-0.033228222 -0.010032732 0.22268242
-0.033987749 -0.012827247 0.22392023
-0.03352851 -0.016630685 0.22442135
-0.031890467 -0.019683056 0.22505094
-0.031426754 -0.022107368 0.22626601
-0.031213054 -0.025118943 0.22947626
-0.022334768 0.044092137 0.17901173
-0.021894364 0.042793944 0.18073137
-0.021859476 0.040012382 0.18271902
-0.021588447 0.037120596 0.18462355
-0.021671169 0.034849614 0.18796675
-0.021961579 0.032119911 0.1904898
-0.022223016 0.02896378 0.19281976
-0.023161666 0.024763323 0.19559655
-0.024316393 0.018867442 0.2000256
-0.024871381 0.014370931 0.20215131
-0.025051137 0.012048671 0.20302732
-0.025859309 0.0097838147 0.20321043
-0.02653184 0.0068471385 0.20576918
-0.027266091 0.003674499 0.20900582
-0.027096856 0.0001346667 0.21397194
-0.026833875 -0.0035725143 0.21809278
-0.027683377 -0.0077360319 0.22064069
-0.028681405 -0.010764613 0.22214004
-0.028894112 -0.013364513 0.22387466
-0.028572904 -0.016319914 0.22608572
-0.027388001 -0.01873008 0.22671747
-0.027702296 -0.022182843 0.22726195
-0.027304756 -0.025775246 0.23094417
-0.018917618 0.042841181 0.18253849
-0.018889979 0.040661961 0.18453479
-0.018765865 0.037759062 0.18589662
-0.018977089 0.035040554 0.1883309
-0.019094048 0.032589208 0.19081758
-0.019197952 0.029877001 0.19289665
-0.019735124 0.026423873 0.1968452
-0.020473139 0.021574268 0.20051977
-0.020953486 0.016888354 0.20418307
-0.021595508 0.013199147 0.20600742
-0.022289837 0.010574343 0.2069122
-0.023432797 0.0075325225 0.20873119
-0.023796853 0.0042624446 0.21283861
-0.023029415 0.00081090839 0.21697935
-0.023006648 -0.00284059 0.21957602
-0.023283049 -0.0068202689 0.22223736
-0.023933155 -0.010024301 0.22343272
-0.023505077 -0.013084891 0.22565231
-0.022830632 -0.015739823 0.22879711
-0.022786969 -0.018420709 0.22867729
-0.023061065 -0.022079319 0.22812457
-0.02320748 -0.026242996 0.23207158
-0.015960936 0.040930912 0.1858343
-0.016043585 0.038313068 0.1873562
-0.016087323 0.035102352 0.18901667
-0.016548274 0.032179609 0.19129339
-0.016724745 0.029724173 0.19343309
-0.01672418 0.026594283 0.19772103
-0.017550327 0.022226699 0.20140521
-0.017434048 0.018785767 0.20440103
-0.017764911 0.01486859 0.20711254
-0.018457208 0.011732583 0.20984836
-0.019795878 0.0082667442 0.211937
-0.019696565 0.0050056544 0.21530196
-0.019198902 0.0015374214 0.21832827
-0.018783305 -0.0020380302 0.22134659
-0.018891511 -0.0053684567 0.22477485
-0.019395052 -0.0088271815 0.2260551
-0.018900247 -0.012091886 0.22768255
-0.01882275 -0.015503531 0.22915111
-0.01980363 -0.019105518 0.22985011
-0.0196945 -0.022678751 0.23052427
-0.019579846 -0.026451336 0.23408027
-0.013547605 0.037977509 0.1883584
-0.01363048 0.034393761 0.18985392
-0.013794865 0.031779908 0.19192511
-0.013936441 0.029342957 0.19396371
-0.013605972 0.026724916 0.19727208
-0.01435538 0.02317737 0.20164348
-0.014527582 0.019622268 0.2052336
-0.014293037 0.016257076 0.20878063
-0.014447919 0.01286998 0.21145736
-0.014849645 0.0089790653 0.21378286
-0.01500972 0.0057947477 0.21636496
-0.014935656 0.0021763719 0.21923153
-0.014848784 -0.001359893 0.22286989
-0.015149086 -0.0046333345 0.22558285
-0.015107516 -0.008131532 0.22719386
-0.014908226 -0.012262329 0.22879645
-0.015210203 -0.016490607 0.23035826
-0.015847197 -0.020154154 0.23209308
-0.016060216 -0.023514107 0.23368073
-0.01579549 -0.026474033 0.23652422
-0.011160486 0.034305487 0.19006979
-0.01066338 0.031723589 0.19209108
-0.010643485 0.029168747 0.19435339
-0.010326274 0.026696308 0.19753256
-0.010927123 0.023857454 0.20162843
-0.011390833 0.020444386 0.20573416
-0.010852226 0.017272824 0.20876297
-0.010703911 0.013254813 0.21109191
-0.010396843 0.0095941778 0.21366616
-0.010566714 0.0061280276 0.21691561
-0.010910622 0.002698025 0.21998663
-0.010998282 -0.00084059115 0.2236357
-0.011362308 -0.0041307868 0.22573227
-0.011658691 -0.007850782 0.22699235
-0.011450867 -0.012041788 0.22809084
-0.011440841 -0.016424654 0.23099408
-0.011520574 -0.020095527 0.23281561
-0.012171838 -0.024019754 0.23589742
-0.012824701 -0.026366154 0.23784721
-0.0072492785 0.031470798 0.19288754
-0.0070000682 0.029168662 0.19565035
-0.0070934501 0.026534198 0.19880074
-0.0076448065 0.023924407 0.20190872
-0.0079202624 0.020893591 0.20558478
-0.0074642361 0.017436752 0.2083772
-0.0069489977 0.013673421 0.21072422
-0.0066022906 0.01008381 0.21311589
-0.0065857889 0.0063308235 0.21711709
-0.0069092419 0.0026794591 0.22074623
-0.0070841755 -0.00088498706 0.22391576
-0.0071900315 -0.004279586 0.22509876
-0.0078455172 -0.0077819745 0.22702485
-0.0079236869 -0.01220548 0.22783516
-0.007726795 -0.016670477 0.23124084
-0.0082673822 -0.020336915 0.23318438
-0.0089890836 -0.023333831 0.2353245
-0.004590977 0.031010866 0.19439301
-0.003191761 0.029116571 0.19688255
-0.0034390138 0.026280539 0.19936141
-0.0041458728 0.023879861 0.20199551
-0.0041345148 0.020954102 0.20502132
-0.0041212365 0.017489607 0.20792307
-0.003362535 0.013707241 0.21034177
-0.0029793757 0.01043411 0.21287152
-0.0028290276 0.0067332992 0.21638821
-0.0032969536 0.002901308 0.22001588
-0.0032167088 -0.00076019176 0.22339357
-0.003250561 -0.0046917191 0.22455566
-0.0039633713 -0.0084112585 0.22686107
-0.0046093529 -0.012528005 0.22798276
-0.0052097468 -0.016336557 0.23088436
-0.000118182 0.028273366 0.19784342
-0.00017304228 0.026000053 0.19933705
-0.00064678851 0.023613421 0.20160532
-0.00082531443 0.020848641 0.20431128
-0.00056859397 0.017311862 0.20711909
5.6963097e-05 0.013897358 0.21000448
0.00051902316 0.01068331 0.21249162
0.00076255773 0.0070596933 0.21512108
1.5843909e-05 0.0032070191 0.21845555
0.00045791097 -0.00069324358 0.2216675
4.8933231e-05 -0.0045736912 0.2242144
-0.0016829851 -0.0080304751 0.2272919
0.0031207849 0.025792893 0.19971852
0.0032627003 0.023226826 0.20173962
0.002939593 0.020400247 0.20384718
0.0029410156 0.017276052 0.20685679
0.0037715524 0.013747672 0.20954522
0.003306814 0.011001111 0.21173039
0 0 0 1 0 0 0 1 0 0 0 1 0 0 0 0 0 346 1 0 0
