ply
format ascii 1.0
comment PCL generated
element vertex 346
property float x
property float y
property float z
element camera 1
property float view_px
property float view_py
property float view_pz
property float x_axisx
property float x_axisy
property float x_axisz
property float y_axisx
property float y_axisy
property float y_axisz
property float z_axisx
property float z_axisy
property float z_axisz
property float focal
property float scalex
property float scaley
property float centerx
property float centery
property int viewportx
property int viewporty
property float k1
property float k2
end_header
-0.059234399 0.027170667 0.18868829
-0.059916709 0.024361536 0.18983506
-0.060221352 0.021517221 0.19121286
-0.060318332 0.018580317 0.19284117
-0.060481794 0.01564334 0.19412896
-0.059156753 0.012042062 0.19730759
-0.055153754 0.030133555 0.18581279
-0.056579143 0.027654771 0.18727292
-0.056380011 0.024472432 0.18809959
-0.05661485 0.021588432 0.18986717
-0.057256177 0.018655224 0.19168739
-0.057733074 0.015323107 0.19378451
-0.057400577 0.012192565 0.19644654
-0.057083946 0.0090079987 0.19868626
-0.056870341 0.0061518797 0.20041496
-0.048225623 0.031705867 0.18168399
-0.04964637 0.029829163 0.1830593
-0.051739313 0.027586365 0.18467396
-0.052618228 0.02451482 0.18664135
-0.05270604 0.021727676 0.18899748
-0.053354017 0.018855292 0.19085245
-0.053830951 0.015694156 0.19299324
-0.054303672 0.012383001 0.19562438
-0.054709066 0.0081956824 0.19814935
-0.055412862 0.0043878458 0.20014884
-0.055265956 0.0011770222 0.20251705
-0.055234574 -0.0014800957 0.2045517
-0.044741824 0.034248408 0.17946512
-0.045254849 0.032126326 0.18074332
-0.045890227 0.029897373 0.18227722
-0.046994027 0.027681198 0.18390621
-0.048833258 0.024730749 0.18699209
-0.049292471 0.021833751 0.18945636
-0.049740627 0.018951703 0.19147117
-0.050283436 0.015955089 0.19338427
-0.051222883 0.012406974 0.19569011
-0.051824175 0.0074154641 0.19739719
-0.052509367 0.0026834426 0.19761607
-0.053113919 -0.00057960971 0.20092253
-0.052841611 -0.0033658193 0.20437472
-0.052760586 -0.0054500187 0.20814899
-0.053091601 -0.0066251275 0.21194577
-0.041938886 0.037448078 0.17815199
-0.04239722 0.035313725 0.17928764
-0.042473923 0.032946218 0.18093446
-0.042909984 0.030704163 0.18270409
-0.043656882 0.028161183 0.18480426
-0.04509465 0.024857117 0.18783785
-0.045518059 0.021800939 0.19021299
-0.045784149 0.019028202 0.19194154
-0.046669208 0.015839938 0.19382586
-0.048071317 0.012580056 0.19554058
-0.048324768 0.0069163186 0.19572677
-0.048062775 0.0015424503 0.19459206
-0.04788091 -0.0029431453 0.19774073
-0.049275775 -0.0042432388 0.20417781
-0.049712956 -0.0060859309 0.20865323
-0.050891388 -0.0075431122 0.21272278
-0.051805876 -0.0093723359 0.21560369
-0.052511945 -0.011031901 0.219859
-0.040136352 0.039107829 0.17783895
-0.039920017 0.036251821 0.17981014
-0.040049423 0.033741806 0.18160881
-0.040365338 0.031362019 0.18353653
-0.040874343 0.028318074 0.18581806
-0.041923907 0.024455966 0.18835644
-0.042105541 0.021666167 0.19028988
-0.042679943 0.0191417 0.19181751
-0.043000668 0.016319685 0.19352809
-0.044029538 0.01260105 0.19530542
-0.04419956 0.0059352671 0.19378057
-0.04136081 -0.00010356063 0.19212604
-0.038485307 -0.0050320043 0.19411044
-0.045394611 -0.005836586 0.20399758
-0.046394944 -0.0066660522 0.20914288
-0.047420979 -0.0073197777 0.21342905
-0.048707239 -0.0088160113 0.21716946
-0.05023947 -0.010781986 0.22119202
-0.05015333 -0.013230075 0.22406663
-0.048963927 -0.01574336 0.22409071
-0.037310079 0.041984983 0.176717
-0.03751605 0.04041202 0.17820358
-0.03752616 0.037563208 0.17998327
-0.037577864 0.034454849 0.18218498
-0.037721694 0.032086864 0.18472441
-0.038323887 0.027876683 0.18705969
-0.038743775 0.024122624 0.1887487
-0.039182443 0.021465484 0.19047406
-0.039525758 0.018791623 0.19197258
-0.039706755 0.015701827 0.19319017
-0.039883763 0.011737657 0.1941134
-0.040258523 0.0051411972 0.19292995
-0.037872583 2.5306696e-05 0.19384065
-0.037109826 -0.0042002313 0.19714387
-0.041756961 -0.0067855795 0.20421638
-0.043034792 -0.0073269941 0.2095184
-0.044366624 -0.0081763342 0.21404196
-0.045401737 -0.008756347 0.21764302
-0.046219345 -0.0095347706 0.22099438
-0.046420839 -0.013463005 0.22335668
-0.046449564 -0.018539634 0.22556958
-0.04513932 -0.021370558 0.22658093
-0.03470077 0.043066591 0.17670767
-0.034463186 0.041716829 0.17829512
-0.034052774 0.039613534 0.18021303
-0.034138497 0.037338939 0.1822004
-0.034549881 0.033491667 0.18536942
-0.035167761 0.028111568 0.1885909
-0.035688493 0.02447514 0.18963709
-0.036207858 0.021363193 0.19122668
-0.036610033 0.01843771 0.19254886
-0.036800407 0.015195832 0.19371477
-0.036801282 0.01100802 0.1943918
-0.03701188 0.0062445244 0.19358015
-0.035900902 0.0013688075 0.19581003
-0.035962194 -0.0021035653 0.19939704
-0.038396504 -0.004649892 0.20489432
-0.039738454 -0.0080005154 0.21084568
-0.041224841 -0.0087951971 0.21500754
-0.041950863 -0.0097269611 0.21780238
-0.04257692 -0.011548473 0.22072855
-0.043260593 -0.015460524 0.22190197
-0.042990036 -0.019330192 0.22386049
-0.041776434 -0.021596644 0.22584179
-0.031709474 0.043487806 0.17727061
-0.031386837 0.042204987 0.1788559
-0.031079711 0.039974805 0.18097791
-0.03097471 0.037776526 0.18315563
-0.03100593 0.034005035 0.18646468
-0.032095406 0.029086974 0.18971248
-0.032718074 0.02563335 0.19096804
-0.033257488 0.021712147 0.19241098
-0.033861246 0.018253954 0.19358766
-0.033967618 0.014866268 0.19484569
-0.034238372 0.010656294 0.19525318
-0.034702774 0.0068663452 0.19494821
-0.033798546 0.00268941 0.19773979
-0.034047432 -0.00022732202 0.20140277
-0.035775296 -0.0028100908 0.20595692
-0.03713664 -0.0062219244 0.21071512
-0.038259305 -0.0078342995 0.21567753
-0.039224185 -0.0094620669 0.21844256
-0.039570715 -0.011886197 0.2202957
-0.039926425 -0.015495045 0.22106737
-0.039728336 -0.019188864 0.22246456
-0.038135704 -0.021557428 0.22456649
-0.02874078 0.043459151 0.17818093
-0.028337987 0.042187151 0.17950162
-0.028226243 0.039927207 0.18128182
-0.027934786 0.037725031 0.1839097
-0.027498093 0.033845607 0.18710631
-0.028444227 0.030207328 0.19020034
-0.029685749 0.026742073 0.19243746
-0.030521449 0.022840302 0.19369058
-0.031096013 0.018381596 0.19520743
-0.031058809 0.014174197 0.19691566
-0.031650752 0.010766566 0.19689478
-0.032036196 0.0082260463 0.19670555
-0.031475242 0.0049793762 0.19981425
-0.031199072 0.0021138138 0.20342247
-0.032917049 -0.0018686961 0.20738839
-0.034224652 -0.004944474 0.21128897
-0.035590775 -0.0069305515 0.21707097
-0.036371 -0.0094748149 0.21948697
-0.036913663 -0.012331965 0.22070168
-0.03678574 -0.01583482 0.22182871
-0.036141757 -0.019234786 0.22300543
-0.034751941 -0.021379905 0.22541544
-0.025728323 0.043693855 0.17888685
-0.025430312 0.042533457 0.18017073
-0.024952678 0.040128518 0.1816137
-0.024610652 0.037214246 0.18406543
-0.02426045 0.034205694 0.18673751
-0.024968056 0.031183116 0.18963791
-0.026266072 0.027757764 0.19327594
-0.027687997 0.023471802 0.19561994
-0.027984152 0.018339403 0.19779159
-0.028061107 0.013915554 0.19934326
-0.027931027 0.01140799 0.19960311
-0.029000254 0.0097849146 0.19962178
-0.028917825 0.0063984459 0.20307679
-0.029018633 0.0031508752 0.20589809
-0.030372081 -0.0010458977 0.21027718
-0.030492488 -0.0043855743 0.21492426
-0.032194629 -0.0074768648 0.21864489
-0.033271488 -0.010233379 0.22026078
-0.033936035 -0.012658618 0.22133264
-0.033404373 -0.016032085 0.22254798
-0.031980574 -0.018829238 0.2245367
-0.031948678 -0.02129017 0.22709312
-0.032126933 -0.024008146 0.23117937
-0.022523755 0.044733137 0.17967577
-0.021930136 0.043044951 0.18087849
-0.021748716 0.039952166 0.18237011
-0.021408126 0.036804952 0.18399639
-0.021407289 0.0342553 0.18712911
-0.021824464 0.031667773 0.1897756
-0.022325585 0.028947985 0.19258696
-0.023719463 0.02547821 0.19618987
-0.024679914 0.019322285 0.20084979
-0.02486431 0.014433185 0.20233181
-0.024908157 0.011926914 0.2029514
-0.025662148 0.009648215 0.20309348
-0.026315352 0.0065959468 0.2055276
-0.026940288 0.0033186022 0.20864454
-0.026744379 -0.00031010952 0.21321636
-0.026548717 -0.003999027 0.21702674
-0.02760875 -0.0080233905 0.21966539
-0.028788699 -0.010942252 0.22121349
-0.029189747 -0.013262272 0.22330545
-0.029010192 -0.015754119 0.22626592
-0.027941413 -0.018363049 0.22780435
-0.028508842 -0.021822911 0.22884324
-0.0283552 -0.025075529 0.233013
-0.018632503 0.042529501 0.18194298
-0.018524298 0.040177703 0.18372349
-0.018455338 0.037181534 0.18496184
-0.01868012 0.034289289 0.18740273
-0.018906273 0.031884365 0.1899627
-0.019192599 0.029415442 0.19233602
-0.019955002 0.026291192 0.19680455
-0.020834168 0.021643303 0.20130526
-0.021116108 0.016692774 0.20455351
-0.021487435 0.012822407 0.20581178
-0.022035146 0.010197953 0.20654736
-0.023085132 0.0071436479 0.20830248
-0.023409065 0.0038093205 0.21224141
-0.022805866 0.00041374165 0.21625122
-0.022847312 -0.0032377378 0.21877635
-0.023253867 -0.0072009922 0.22156216
-0.024037372 -0.010328853 0.223134
-0.023788698 -0.013076631 0.22586368
-0.023099849 -0.01560705 0.22922459
-0.023107255 -0.018456737 0.22937305
-0.02370033 -0.022197604 0.22936228
-0.024118705 -0.025950661 0.23382983
-0.01546689 0.040195871 0.18475147
-0.015584667 0.037476756 0.1861295
-0.015764903 0.034270961 0.18820603
-0.01639005 0.031369034 0.19065572
-0.016749058 0.029029012 0.19300023
-0.016895829 0.026132537 0.19771406
-0.017884489 0.022241401 0.20219171
-0.017663376 0.018659336 0.20498708
-0.017783837 0.014415428 0.20709379
-0.018216891 0.011195061 0.20943759
-0.019474775 0.0078544477 0.21139638
-0.019532319 0.0047387332 0.2148623
-0.019118641 0.0013026069 0.21791148
-0.018728184 -0.0023852328 0.22080588
-0.018897381 -0.0057064411 0.2242543
-0.019427441 -0.009158873 0.22554736
-0.019002622 -0.012375119 0.22745745
-0.018846158 -0.015815191 0.22908156
-0.019912006 -0.019399565 0.23016055
-0.020059139 -0.02297755 0.23132494
-0.020227652 -0.026424069 0.23540439
-0.013101264 0.037056036 0.18723987
-0.013383284 0.033587463 0.18941976
-0.013690828 0.030890873 0.19152969
-0.013971995 0.028470453 0.19359487
-0.013705863 0.02609388 0.19739552
-0.014625428 0.023110395 0.20238079
-0.014739189 0.019501582 0.20589727
-0.01431297 0.015837165 0.20904087
-0.014318569 0.012651742 0.21163712
-0.014790053 0.0090139229 0.21387444
-0.015024276 0.0058315671 0.21642399
-0.014979367 0.0021329648 0.21919911
-0.014849207 -0.0016971492 0.22247252
-0.015191913 -0.0050013671 0.22511534
-0.015184119 -0.0085166628 0.22670168
-0.014951202 -0.012687378 0.22838911
-0.015119432 -0.016894892 0.23008844
-0.015732115 -0.020549761 0.23195401
-0.016137136 -0.02385363 0.23391594
-0.016067466 -0.026647869 0.23711096
-0.010926784 0.033600159 0.18991281
-0.010484805 0.031031355 0.19204505
-0.010458844 0.028516889 0.194417
-0.010317203 0.026206626 0.19797188
-0.011113336 0.02378138 0.20245031
-0.011614529 0.020477384 0.20660499
-0.010901574 0.017252633 0.20953001
-0.010637444 0.013508014 0.21183215
-0.010402928 0.0098983962 0.21425584
-0.010643883 0.0063123284 0.21730474
-0.01099002 0.0026574794 0.22007452
-0.011007732 -0.0012479764 0.22322218
-0.011390851 -0.0044778315 0.22531089
-0.011762025 -0.0081495102 0.22674748
-0.011509627 -0.012312352 0.22789244
-0.011490068 -0.016710218 0.23078912
-0.011551939 -0.020361781 0.23263994
-0.012254927 -0.024298178 0.23590067
-0.012987177 -0.026600808 0.23805661
-0.0070378128 0.031104071 0.19333841
-0.0068406346 0.028937062 0.1963544
-0.0071004769 0.026435407 0.19976957
-0.0077099875 0.024049465 0.20314904
-0.0080647552 0.021283325 0.20708714
-0.0074736909 0.017872954 0.20987497
-0.0068895044 0.014002672 0.21160185
-0.0066112247 0.010248383 0.21356784
-0.006630599 0.006329223 0.2173295
-0.006955028 0.00242736 0.22054759
-0.0071270028 -0.0012580615 0.22348087
-0.0072848918 -0.0045609218 0.22486995
-0.0079893814 -0.0079163555 0.22712319
-0.0080159167 -0.012323268 0.22802871
-0.0079028346 -0.016836962 0.23122653
-0.0084028635 -0.020488329 0.23309559
-0.0091082966 -0.0235493 0.23526092
-0.004430186 0.031001061 0.19546159
-0.0031753404 0.029551541 0.1986021
-0.0034867038 0.026995262 0.20147438
-0.004191787 0.024478497 0.20396538
-0.0041816519 0.021500027 0.20689192
-0.0040530036 0.017876389 0.20947017
-0.003299498 0.013740433 0.21086821
-0.0029640435 0.010148107 0.2127407
-0.0028527933 0.0063652173 0.21609506
-0.0033242183 0.0025330388 0.21965961
-0.0032652495 -0.0011244832 0.22301379
-0.0033310363 -0.0049524661 0.22447935
-0.0041326955 -0.0084849847 0.22719084
-0.0048042806 -0.012583358 0.22832648
-0.0055212867 -0.016555918 0.23105915
-0.00025083695 0.029326931 0.2004384
-0.0002705415 0.027345208 0.202278
-0.00070288818 0.02487273 0.20441152
-0.00081522949 0.021660617 0.20648579
-0.00044290899 0.017627416 0.20843937
0.00013067106 0.013459501 0.20981148
0.00055620848 0.0098962942 0.21160169
0.00075132755 0.0060772249 0.21376722
-8.2044116e-06 0.0025515503 0.21768646
0.0004300065 -0.001135317 0.22133146
-3.3249104e-05 -0.004856532 0.22420721
-0.0018699733 -0.0080532199 0.22762585
0.0030436986 0.027416168 0.20298806
0.0032915 0.02465337 0.20467918
0.0030473003 0.021474876 0.20621355
0.0030354145 0.017442636 0.20770361
0.0038330292 0.012936244 0.20851246
0.0033558602 0.0099535687 0.21028629
0 0 0 1 0 0 0 1 0 0 0 1 0 0 0 0 0 346 1 0 0
