ply
format ascii 1.0
comment PCL generated
element vertex 346
property float x
property float y
property float z
element camera 1
property float view_px
property float view_py
property float view_pz
property float x_axisx
property float x_axisy
property float x_axisz
property float y_axisx
property float y_axisy
property float y_axisz
property float z_axisx
property float z_axisy
property float z_axisz
property float focal
property float scalex
property float scaley
property float centerx
property float centery
property int viewportx
property int viewporty
property float k1
property float k2
end_header
-0.058985155 0.027499953 0.18953262
-0.059500109 0.024689812 0.19061798
-0.059766851 0.021924701 0.19182687
-0.059926145 0.018918166 0.19323029
-0.060202621 0.016099665 0.19383053
-0.058858078 0.01251155 0.19628236
-0.055266865 0.030368844 0.18636216
-0.056521155 0.027906345 0.18789916
-0.056224201 0.024808886 0.18869719
-0.056356438 0.021960819 0.19030973
-0.05696737 0.019034181 0.19190423
-0.05747528 0.015708309 0.19324921
-0.057149857 0.012627465 0.19533131
-0.056856651 0.0095777195 0.19737197
-0.056696765 0.0067754947 0.19910491
-0.048794974 0.032211423 0.18230671
-0.050150909 0.03028978 0.1835781
-0.052022599 0.027844874 0.1850035
-0.052604284 0.024790466 0.18696234
-0.052499697 0.021996673 0.18918809
-0.053086109 0.019104725 0.19081849
-0.053540368 0.015931217 0.1921573
-0.05408239 0.012717071 0.19428791
-0.05458767 0.0087401038 0.19664383
-0.055365574 0.0049508098 0.19874099
-0.055254757 0.0016472788 0.20128465
-0.055266228 -0.0010558486 0.20349459
-0.045274734 0.034553703 0.18000038
-0.045874692 0.032519165 0.18129787
-0.046550311 0.030342627 0.18282107
-0.047571406 0.028088428 0.18438183
-0.048836403 0.024946829 0.18707864
-0.049019329 0.021969004 0.18940467
-0.049401805 0.018934514 0.19111183
-0.049939048 0.015871789 0.19221684
-0.051007573 0.012591178 0.19400975
-0.051852964 0.0079574874 0.19556157
-0.052763235 0.003263009 0.19584863
-0.053242419 -0.00016355867 0.19953728
-0.052848913 -0.0029751442 0.20329796
-0.052787852 -0.005021519 0.20714314
-0.053181354 -0.0063209604 0.21097927
-0.042283595 0.037544873 0.17856212
-0.042873226 0.035453446 0.17970912
-0.043031953 0.033168983 0.18133119
-0.043492302 0.030960422 0.18312913
-0.044209573 0.028453605 0.18524644
-0.045123652 0.024896117 0.18801831
-0.045320634 0.021729106 0.19002686
-0.045517083 0.018815704 0.1913483
-0.046313588 0.015487851 0.1923631
-0.047840446 0.01253965 0.1935287
-0.048549358 0.0074689309 0.19340084
-0.048612483 0.0021801044 0.19205214
-0.048247162 -0.0025019727 0.19571568
-0.049249437 -0.0037905653 0.20322146
-0.049749542 -0.0056261355 0.20774376
-0.051001389 -0.0072602471 0.21180072
-0.052022398 -0.0092919348 0.21480206
-0.052872963 -0.011406664 0.21867909
-0.040359341 0.0391066 0.17812572
-0.040276472 0.036294144 0.18008499
-0.040508576 0.033801481 0.18184683
-0.040859707 0.031435516 0.18374416
-0.04128278 0.028402707 0.18611473
-0.041985236 0.024480512 0.1887344
-0.042087939 0.021608582 0.19036318
-0.042597558 0.018960537 0.19145508
-0.042772409 0.016001401 0.19226691
-0.043824829 0.012295263 0.19316448
-0.044452813 0.0063551208 0.19108556
-0.041614536 3.6882331e-05 0.18977056
-0.038989808 -0.0050299168 0.19224043
-0.045428596 -0.0053411061 0.20315585
-0.046472609 -0.0062279436 0.20836124
-0.047544025 -0.0070991549 0.21261168
-0.048991147 -0.0089601781 0.21643753
-0.05070563 -0.011456282 0.2201207
-0.050597508 -0.014172823 0.22259529
-0.049363025 -0.016488541 0.2228733
-0.03749723 0.041901913 0.17678969
-0.037651282 0.040318165 0.17825286
-0.037693534 0.037467584 0.18008184
-0.03797444 0.034344498 0.18223222
-0.038075067 0.031931959 0.18469551
-0.038527597 0.027790308 0.18735845
-0.0388516 0.024206555 0.18923424
-0.039245784 0.021479452 0.19076848
-0.039605848 0.018763114 0.19192013
-0.039648466 0.015670115 0.19226371
-0.039836496 0.011705229 0.19233778
-0.040282909 0.0052559129 0.19052234
-0.038147707 1.3737511e-05 0.19178064
-0.037729852 -0.0042066318 0.19538307
-0.041867502 -0.0063427906 0.2034401
-0.04314531 -0.0068032308 0.20883694
-0.04452185 -0.0078486754 0.21332493
-0.045890294 -0.0090849781 0.21694411
-0.046749488 -0.010566411 0.2200101
-0.046790246 -0.01414442 0.22252141
-0.046994131 -0.018316565 0.22563715
-0.045860048 -0.020890316 0.22728194
-0.034891266 0.04301532 0.1766787
-0.034587692 0.041591365 0.17818536
-0.034033082 0.039283697 0.17984162
-0.033970464 0.036846094 0.1816528
-0.034519508 0.032954268 0.18495335
-0.03515004 0.027786374 0.18861596
-0.035770431 0.024408026 0.18992792
-0.036329828 0.021372521 0.19149165
-0.036737513 0.018447647 0.19250566
-0.036756735 0.015187516 0.19277999
-0.036765702 0.010935008 0.19254245
-0.037007146 0.0062054335 0.19139266
-0.036234219 0.0012857976 0.19387265
-0.036504101 -0.0021714249 0.19773455
-0.038771629 -0.004498289 0.20373321
-0.039909691 -0.0073595927 0.21037027
-0.041441839 -0.0084832171 0.21453397
-0.042319175 -0.009802537 0.21747571
-0.042848092 -0.012152549 0.22016302
-0.043490078 -0.015729494 0.22195326
-0.043491982 -0.019281516 0.22444539
-0.042349264 -0.021334279 0.22663638
-0.031878032 0.043378964 0.17706171
-0.031474788 0.041991521 0.17851546
-0.031034866 0.03964838 0.18050437
-0.030832307 0.037386235 0.18258502
-0.030845059 0.03353877 0.1859751
-0.031927928 0.028594377 0.18936363
-0.0325558 0.025214424 0.19067031
-0.03326549 0.021545585 0.1923743
-0.034004517 0.018131314 0.19344153
-0.033934511 0.014682014 0.19377527
-0.034218889 0.010407996 0.1933154
-0.034725476 0.006653124 0.19289756
-0.034082241 0.0024777944 0.19592175
-0.034394164 -0.00041630975 0.19982639
-0.036133971 -0.002844034 0.2045939
-0.0374799 -0.0059407153 0.20990524
-0.038457524 -0.007852627 0.21509507
-0.039508428 -0.0096061938 0.21823147
-0.039731499 -0.012390614 0.2200965
-0.040180795 -0.015907999 0.2213431
-0.040183771 -0.019384913 0.22323398
-0.038758781 -0.021537492 0.22557554
-0.028853495 0.043237682 0.17774397
-0.028401645 0.041958854 0.17902519
-0.028193541 0.039673224 0.18077037
-0.027787205 0.037383702 0.18332335
-0.027440595 0.033615205 0.18665782
-0.02823985 0.02979649 0.1896987
-0.029314348 0.026101438 0.19172241
-0.03028062 0.022351751 0.19318958
-0.031221859 0.018030373 0.1948857
-0.031044755 0.013685226 0.19555333
-0.031609453 0.010297594 0.19494627
-0.031997763 0.0078457249 0.19474159
-0.031509195 0.0047428124 0.19805212
-0.031215329 0.0019030095 0.20173684
-0.033205543 -0.0020297768 0.20596994
-0.034621883 -0.0049227583 0.21022369
-0.035620388 -0.0075175981 0.21626556
-0.03658222 -0.010022773 0.21910082
-0.03709748 -0.012903051 0.22073796
-0.037095472 -0.016244078 0.22232166
-0.036661346 -0.019477854 0.22389704
-0.035179559 -0.021560233 0.22616912
-0.025821539 0.043462262 0.17832096
-0.025463598 0.04231311 0.17959887
-0.024934072 0.039924406 0.18101904
-0.024532471 0.037042391 0.1835338
-0.024281621 0.034229085 0.18646221
-0.024931628 0.031107685 0.18934192
-0.025930153 0.027237143 0.19254965
-0.027250899 0.022738935 0.1947872
-0.028012944 0.01766281 0.19722216
-0.028097136 0.013253307 0.19784126
-0.02804805 0.011081419 0.19816788
-0.029017482 0.0095132571 0.19806483
-0.028998841 0.0062377504 0.20166649
-0.029085862 0.0028996938 0.20443548
-0.030582488 -0.0012830459 0.20886935
-0.030632915 -0.004846503 0.21425506
-0.032393798 -0.008089425 0.21858531
-0.033522718 -0.01090346 0.22028531
-0.034124557 -0.013271051 0.22161674
-0.033800941 -0.016452182 0.2232105
-0.032389991 -0.019142926 0.22533396
-0.031780642 -0.021716567 0.22704367
-0.03133573 -0.024652209 0.23049314
-0.022505846 0.044454947 0.17890534
-0.02185867 0.042878155 0.18034299
-0.021660887 0.039822713 0.18189698
-0.021345437 0.036784764 0.18373333
-0.021463376 0.034405403 0.18701707
-0.02187806 0.031785533 0.18964401
-0.022332085 0.029016374 0.19241217
-0.023261722 0.02488625 0.19530702
-0.024371427 0.018497888 0.19930258
-0.024929477 0.013932724 0.20077786
-0.025340531 0.011833564 0.20181723
-0.026058732 0.009644866 0.20207301
-0.026666388 0.0065040882 0.2044384
-0.027209623 0.0030708276 0.20742156
-0.026832363 -0.00078102906 0.21222322
-0.026874518 -0.0040378822 0.21731463
-0.02809787 -0.0080485987 0.22019129
-0.029170554 -0.011244517 0.22175699
-0.029308768 -0.013712923 0.22358181
-0.028660309 -0.016488191 0.22611566
-0.027296867 -0.018986698 0.22700424
-0.027752012 -0.02228824 0.22794624
-0.027203159 -0.025608627 0.23183152
-0.018605882 0.042582151 0.1818817
-0.018558938 0.040301338 0.18368992
-0.018490976 0.03736553 0.18494715
-0.018772902 0.034591045 0.18743178
-0.019004606 0.032133114 0.19000198
-0.01920001 0.02961584 0.19232912
-0.019724881 0.026055552 0.19633776
-0.020440113 0.021145942 0.19988772
-0.021019567 0.016195741 0.2030635
-0.021829367 0.012627846 0.20487882
-0.022582421 0.01026893 0.20605271
-0.023726286 0.0073187887 0.20806049
-0.023864342 0.0038450838 0.21193041
-0.02302953 0.00034385861 0.21596666
-0.023120999 -0.0031905246 0.21882668
-0.023622286 -0.0070098666 0.22181651
-0.024299257 -0.010405454 0.22312699
-0.023487052 -0.013514241 0.22521845
-0.02248871 -0.016071443 0.2278451
-0.022528831 -0.018703301 0.22785465
-0.022920895 -0.022327729 0.22788996
-0.023033973 -0.026120162 0.23234677
-0.015575486 0.040456224 0.18502201
-0.015715981 0.037786197 0.18644002
-0.01592483 0.034748442 0.18850437
-0.016525624 0.031859525 0.19094779
-0.016765174 0.029408544 0.193152
-0.016699651 0.026193911 0.19733076
-0.017557207 0.021840129 0.20091675
-0.01747309 0.018247284 0.20359154
-0.01780325 0.014012852 0.20580049
-0.018547501 0.010992417 0.20851959
-0.019906197 0.0078445356 0.21087942
-0.01969661 0.0046060919 0.2142193
-0.019240992 0.0012331075 0.21732028
-0.018852608 -0.0021972216 0.22047231
-0.018789411 -0.0055076857 0.22378835
-0.019324083 -0.0091091041 0.22484116
-0.01877491 -0.012384471 0.22610207
-0.018621819 -0.015733115 0.22737369
-0.0195575 -0.019308021 0.22844185
-0.019489275 -0.022811109 0.22976488
-0.019325847 -0.026313214 0.23394935
-0.013306868 0.037498645 0.18776649
-0.013629947 0.034257319 0.18990526
-0.013860857 0.031625308 0.19195634
-0.013987639 0.029130496 0.19388884
-0.013539939 0.026442498 0.19708794
-0.014317027 0.022826534 0.20134211
-0.014632658 0.019094966 0.20464006
-0.014411455 0.015438476 0.20781118
-0.014417001 0.012012 0.21029156
-0.014770287 0.0084990766 0.21271004
-0.014970114 0.0055047432 0.21536717
-0.014905246 0.002033256 0.2182662
-0.01483043 -0.0014757453 0.22175263
-0.015124281 -0.0048291567 0.22422098
-0.015082417 -0.0083740493 0.22547537
-0.014922866 -0.012546781 0.22688437
-0.015099477 -0.01665956 0.22856182
-0.015672341 -0.020261874 0.23049831
-0.01586614 -0.023474602 0.23260127
-0.015596714 -0.02620393 0.23586342
-0.011125377 0.034250412 0.19032867
-0.010663958 0.031670995 0.19236498
-0.010663778 0.029053193 0.19452405
-0.010240315 0.026531696 0.19755594
-0.010887126 0.023566836 0.20153406
-0.011537235 0.020096088 0.20540968
-0.010997674 0.016829949 0.20831983
-0.010709003 0.012827762 0.21058975
-0.010372104 0.0092653614 0.21310207
-0.010558511 0.0059810029 0.21616223
-0.010818353 0.0026504141 0.21905044
-0.010931115 -0.00099793193 0.22235563
-0.011349212 -0.0042591835 0.22417103
-0.011642246 -0.0080534304 0.22530332
-0.011493331 -0.012236658 0.22641592
-0.011454609 -0.016462479 0.22951744
-0.011515822 -0.020028383 0.23152706
-0.012095418 -0.023816057 0.23490137
-0.012706005 -0.026061736 0.2370844
-0.0072847027 0.031505689 0.19336891
-0.0070495801 0.029144432 0.19602948
-0.0070316563 0.026440607 0.19906262
-0.0076326947 0.023633705 0.20190085
-0.0080227172 0.02074158 0.20565301
-0.0075539937 0.017320387 0.20848928
-0.0069876057 0.013551352 0.21060304
-0.0065690074 0.0098999776 0.21288058
-0.0066107302 0.0062451409 0.21655257
-0.0068944767 0.002631715 0.21963336
-0.0070387116 -0.00093506265 0.22251163
-0.0071362187 -0.0043187207 0.22365715
-0.0078026652 -0.0078883441 0.22557716
-0.0080124401 -0.012353989 0.22655188
-0.0078373421 -0.016624015 0.23014306
-0.0083577754 -0.020160029 0.23212911
-0.009024472 -0.023095528 0.23442988
-0.0046472638 0.031015404 0.19492315
-0.0032290122 0.0291532 0.19735891
-0.0034345586 0.026259096 0.19983698
-0.0041717542 0.023570113 0.20214459
-0.0041581485 0.020670587 0.20515278
-0.0041957921 0.017324828 0.20809726
-0.0034130211 0.013560583 0.21029037
-0.0029538258 0.010259037 0.21266714
-0.0028345247 0.006630701 0.21596679
-0.0033002379 0.0029115449 0.21891244
-0.0031811104 -0.0007131786 0.22194114
-0.0031711748 -0.0046400409 0.22313842
-0.0039249067 -0.008433966 0.22558607
-0.0047448543 -0.012623725 0.22688767
-0.0054365676 -0.016342271 0.22998455
-0.00014749273 0.028381119 0.19849871
-0.00019910486 0.026156373 0.20006059
-0.00068309426 0.023565225 0.20212197
-0.00086453982 0.02059854 0.20455237
-0.00063215033 0.016984023 0.20723011
1.8919292e-05 0.013504388 0.20984729
0.00051433512 0.010352087 0.21221937
0.00078620698 0.0068210131 0.21476014
1.3463668e-05 0.0032399308 0.21744919
0.0004844715 -0.00057222613 0.22019802
0.00013451377 -0.004465689 0.22279365
-0.0016410607 -0.0079783564 0.22599593
0.0031228282 0.025980545 0.20050445
0.0032952488 0.023264723 0.20234086
0.0029210821 0.020264944 0.20421304
0.0028624018 0.016809314 0.20681833
0.0037038694 0.013006073 0.2092029
0.0032262926 0.010423908 0.21137741
0 0 0 1 0 0 0 1 0 0 0 1 0 0 0 0 0 346 1 0 0
