ply
format ascii 1.0
comment PCL generated
element vertex 346
property float x
property float y
property float z
element camera 1
property float view_px
property float view_py
property float view_pz
property float x_axisx
property float x_axisy
property float x_axisz
property float y_axisx
property float y_axisy
property float y_axisz
property float z_axisx
property float z_axisy
property float z_axisz
property float focal
property float scalex
property float scaley
property float centerx
property float centery
property int viewportx
property int viewporty
property float k1
property float k2
end_header
-0.057164464 0.031080166 0.18752019
-0.057843909 0.028220246 0.18830599
-0.058110181 0.025469163 0.18973264
-0.058338355 0.022599796 0.19129299
-0.058510195 0.01944628 0.19249634
-0.05787155 0.016568307 0.19391437
-0.053131156 0.033271577 0.18374793
-0.054167904 0.03087168 0.1854241
-0.053955268 0.027976792 0.18596081
-0.054223605 0.025278663 0.18764873
-0.054649156 0.022549914 0.18948509
-0.055140484 0.019508949 0.19137283
-0.055235852 0.016502919 0.19278201
-0.055587657 0.013327537 0.1942544
-0.05530249 0.010096595 0.1956456
-0.048215393 0.035808045 0.17979375
-0.049235608 0.033399355 0.18108912
-0.049906101 0.030490344 0.18257478
-0.050231647 0.027639858 0.18425025
-0.050571039 0.025178395 0.18676056
-0.051031508 0.022445647 0.18861689
-0.051506009 0.019697236 0.19074082
-0.051902734 0.016895657 0.1925519
-0.05235713 0.013251431 0.1937767
-0.053034004 0.0091670956 0.195591
-0.053698096 0.005452137 0.19943056
-0.053420275 0.0021560113 0.2023783
-0.044658899 0.03830494 0.17769012
-0.045342281 0.035943095 0.17859451
-0.045832571 0.033360716 0.18006286
-0.046380304 0.030697348 0.181906
-0.046976011 0.02787577 0.18438758
-0.04717584 0.025272228 0.1871191
-0.04756321 0.022624752 0.18925276
-0.04822766 0.019845551 0.19127904
-0.048798077 0.017050123 0.1934949
-0.049216501 0.013159269 0.19440256
-0.049500875 0.0085804285 0.19490884
-0.050352216 0.0044120071 0.19861519
-0.050647311 0.0010183948 0.203925
-0.051564787 -0.0019263178 0.20778795
-0.05198257 -0.0038313477 0.21178332
-0.041239578 0.040766411 0.17697649
-0.042101745 0.038789313 0.1777215
-0.042348135 0.036141034 0.17894655
-0.042753424 0.033648755 0.18055841
-0.043431152 0.031079821 0.18275094
-0.043608647 0.027968904 0.18530676
-0.043751981 0.025187345 0.18788877
-0.044185515 0.022489658 0.18988824
-0.04485786 0.019665396 0.19185831
-0.045710564 0.017078113 0.19416039
-0.0459642 0.013021004 0.1954882
-0.045734338 0.0082457745 0.19553299
-0.045960248 0.0035688058 0.19882378
-0.047289971 0.00080694712 0.20497692
-0.048309058 -0.0019797576 0.20903035
-0.049429059 -0.0041361144 0.21277069
-0.050229087 -0.006476705 0.2156101
-0.050903995 -0.0088304225 0.21884854
-0.03882676 0.041490033 0.17672758
-0.039194953 0.039037142 0.17843251
-0.039511461 0.036347188 0.17973202
-0.039975561 0.033749782 0.18144174
-0.0401938 0.030904781 0.18365119
-0.040419973 0.027530584 0.18619511
-0.040822871 0.025028037 0.18861349
-0.041268047 0.02250131 0.19040874
-0.041662689 0.019740911 0.1924375
-0.0424877 0.01702776 0.19496349
-0.042543732 0.012970622 0.19673708
-0.041690715 0.0082157236 0.19728248
-0.040984899 0.003113331 0.19977458
-0.043822605 0.00022388689 0.20613502
-0.045007642 -0.0020156915 0.21032837
-0.045830745 -0.003753992 0.21397124
-0.046964236 -0.0063048783 0.21701536
-0.048305802 -0.0093950098 0.22004221
-0.04875467 -0.012753244 0.22304395
-0.048071075 -0.016325824 0.22430348
-0.035677511 0.043360196 0.17558624
-0.036106609 0.04197694 0.17714347
-0.03630567 0.039425086 0.17885998
-0.036707982 0.036542483 0.180223
-0.037040032 0.034012474 0.1823439
-0.037166357 0.030639643 0.18487319
-0.037352774 0.027518112 0.18712641
-0.037958819 0.025220729 0.18945159
-0.038529124 0.022682821 0.19176167
-0.038993958 0.019947262 0.19377068
-0.039645381 0.016984275 0.19679347
-0.039463907 0.013267035 0.19859169
-0.038881667 0.0082217045 0.20016506
-0.038635276 0.0033229247 0.20240836
-0.040413577 0.00018815391 0.2076222
-0.041649822 -0.0015953301 0.21183881
-0.042477429 -0.0037166257 0.21506453
-0.04283794 -0.0069551822 0.21693373
-0.043578483 -0.010115554 0.21920289
-0.044231586 -0.014274129 0.22145648
-0.044653956 -0.018415626 0.22452974
-0.043441188 -0.021072719 0.22657464
-0.032969948 0.043774113 0.17600779
-0.033100151 0.042385802 0.17743005
-0.032968741 0.039797939 0.17940809
-0.033061262 0.036999486 0.18075603
-0.033495676 0.034328435 0.18311262
-0.033951588 0.031031402 0.1866041
-0.034341015 0.02795257 0.18816568
-0.034977745 0.025296949 0.19051461
-0.035511602 0.02267633 0.19307908
-0.036140162 0.019957842 0.19592725
-0.036694627 0.016855594 0.19886744
-0.036507908 0.013805596 0.20004836
-0.036227584 0.0089802053 0.20198086
-0.036258988 0.0046954667 0.20487806
-0.037602663 0.0016659416 0.20928891
-0.038428362 -0.0010113148 0.21321853
-0.03899011 -0.0037082627 0.2159711
-0.03915618 -0.0070662019 0.21725813
-0.039463811 -0.011054831 0.21898481
-0.039964188 -0.015177273 0.22063963
-0.040259734 -0.019009061 0.22344567
-0.040102314 -0.021556431 0.22623619
-0.029977368 0.043888278 0.17666997
-0.02988519 0.042429615 0.17792161
-0.029994063 0.039977238 0.17983142
-0.030201677 0.03734282 0.18185636
-0.030393004 0.034553315 0.18433949
-0.030901084 0.031414807 0.18762217
-0.031316187 0.028455459 0.18932018
-0.03191527 0.025470581 0.19161607
-0.032348707 0.022443134 0.1946148
-0.033129759 0.019783178 0.19754097
-0.033742148 0.0167292 0.20023625
-0.033634733 0.013941884 0.20143618
-0.033258196 0.0095224055 0.20364036
-0.033486936 0.0058218469 0.20665528
-0.034613878 0.0028970535 0.21064211
-0.035355929 -0.00027402295 0.21418297
-0.035545621 -0.00367179 0.21638253
-0.035721768 -0.0071675018 0.21772075
-0.036170434 -0.011193662 0.21954416
-0.036448844 -0.015140635 0.22136596
-0.036500338 -0.01884643 0.22303422
-0.036188766 -0.021623397 0.22561336
-0.026883828 0.044198859 0.17709626
-0.026894612 0.042673144 0.1783483
-0.027156048 0.040044188 0.18005361
-0.027180878 0.037541587 0.1824909
-0.02736927 0.034661304 0.18516734
-0.027766956 0.031780977 0.18804838
-0.028229894 0.028758261 0.19029993
-0.028767329 0.02578143 0.19268021
-0.029309534 0.02247097 0.19615401
-0.030040037 0.019472862 0.19981197
-0.030681673 0.016757583 0.20167677
-0.030337289 0.014269262 0.20305462
-0.030453114 0.010564663 0.205942
-0.030506032 0.0069501647 0.20839246
-0.031306639 0.003199076 0.21174046
-0.032010879 6.7625857e-05 0.2146517
-0.032129385 -0.0038099959 0.21733192
-0.032471459 -0.0074891779 0.21815594
-0.032904699 -0.011313323 0.22027658
-0.033153363 -0.015130732 0.22296309
-0.032919507 -0.018685337 0.22471802
-0.033006754 -0.021846706 0.22703238
-0.024022125 0.044460628 0.17798154
-0.023928452 0.043024942 0.17925763
-0.023979643 0.040230762 0.18054606
-0.024137739 0.037510853 0.18277197
-0.024367062 0.034922615 0.18558767
-0.024678595 0.032150213 0.18824248
-0.025160285 0.029096451 0.19128264
-0.025662886 0.025775917 0.19423293
-0.026101731 0.022253394 0.19804397
-0.026730912 0.019011626 0.20126198
-0.026356207 0.016757177 0.20332193
-0.026921611 0.014680817 0.20505409
-0.027628023 0.010990971 0.20876376
-0.027820827 0.0073812134 0.21083197
-0.028187526 0.0035857286 0.21378425
-0.028387949 -0.00022745905 0.21584462
-0.028812012 -0.0045747459 0.21812589
-0.029007992 -0.0079356646 0.21942578
-0.02946646 -0.011470806 0.22131374
-0.029623846 -0.014933701 0.22407611
-0.029359605 -0.018467626 0.22591333
-0.029881772 -0.021922318 0.2278758
-0.030455628 -0.024866346 0.23172225
-0.020972103 0.04481367 0.17901796
-0.020767637 0.043328445 0.18036778
-0.020972896 0.040414523 0.18194841
-0.021032501 0.037555713 0.18338613
-0.021302031 0.034911197 0.18643032
-0.02171118 0.032249719 0.18879725
-0.022083465 0.029521475 0.19179839
-0.022520388 0.026215153 0.19502066
-0.02291175 0.022079764 0.19947182
-0.023335293 0.018752022 0.20261498
-0.022874547 0.016103884 0.20512168
-0.023307713 0.013672618 0.20681442
-0.024099516 0.010606281 0.20980379
-0.024921061 0.0072921761 0.21280302
-0.024833631 0.0034302904 0.21459427
-0.024682349 -0.00086812704 0.21594992
-0.025239931 -0.0045658546 0.21912128
-0.025488043 -0.0081445146 0.22087441
-0.02553975 -0.011432248 0.22237329
-0.025884423 -0.014788299 0.22533563
-0.025936846 -0.018366609 0.22683549
-0.026547603 -0.022346288 0.22821432
-0.026608648 -0.025948441 0.23219043
-0.01809209 0.043258108 0.18183632
-0.018094381 0.041033778 0.18378828
-0.018141 0.038023908 0.18501377
-0.018380536 0.035108045 0.18685932
-0.01854275 0.032273013 0.18923207
-0.018794334 0.029610278 0.19189595
-0.019088242 0.026357234 0.19628906
-0.019492066 0.022721393 0.19950806
-0.019780014 0.019065499 0.20285419
-0.019821767 0.015800841 0.20536982
-0.019862827 0.012864022 0.2074082
-0.020646088 0.0098861214 0.20994769
-0.021351106 0.0064321398 0.21277359
-0.02118412 0.0031121403 0.21484439
-0.02117303 -0.00052687112 0.21727376
-0.0217128 -0.0042588436 0.22080085
-0.022055447 -0.0079650087 0.22274794
-0.021846021 -0.011522259 0.22370237
-0.021727594 -0.014979112 0.2263651
-0.021867117 -0.01838929 0.22707073
-0.022278616 -0.022347491 0.22765654
-0.022786474 -0.026394149 0.23278861
-0.01521406 0.041101813 0.18505944
-0.015289403 0.038425617 0.18657716
-0.015372455 0.035396982 0.18794321
-0.015550707 0.032383077 0.19019921
-0.015847752 0.029677046 0.19248118
-0.015787343 0.026574707 0.19679768
-0.016273955 0.022851955 0.20032755
-0.016406825 0.019536924 0.20277503
-0.016659785 0.016080331 0.20488606
-0.016435422 0.012898469 0.20815852
-0.016984615 0.010052218 0.2107964
-0.017458577 0.0068376577 0.21332493
-0.017562617 0.0036046545 0.21611598
-0.017710507 -0.00014296589 0.21938962
-0.018114507 -0.0037674219 0.22258419
-0.018318914 -0.0075754286 0.22451429
-0.017827516 -0.01132766 0.22550412
-0.017874558 -0.01509096 0.22663173
-0.018506873 -0.018831648 0.22786754
-0.018698057 -0.022778882 0.22967829
-0.019193977 -0.026581135 0.23455684
-0.01264461 0.038166948 0.18796201
-0.012409512 0.035320867 0.18910001
-0.012580209 0.032365777 0.19110672
-0.012770289 0.029535897 0.19292736
-0.012571136 0.026731957 0.1962156
-0.012967231 0.023215532 0.200386
-0.013307499 0.019874847 0.20372888
-0.013400598 0.016526038 0.20663452
-0.013312337 0.013477203 0.20945486
-0.013389394 0.010562357 0.21177499
-0.013434104 0.0075292182 0.21430638
-0.01380454 0.0039450852 0.21752682
-0.014166465 0.00015455774 0.22106414
-0.014351608 -0.0034896652 0.22354154
-0.014351067 -0.0072914883 0.22501183
-0.014179463 -0.011769669 0.22650309
-0.01434333 -0.015739249 0.22786017
-0.014865394 -0.019462086 0.22960207
-0.015258927 -0.023426032 0.23261021
-0.015416994 -0.026576338 0.23653936
-0.0097219897 0.03512438 0.18992107
-0.0092270942 0.032536771 0.19166069
-0.0094496543 0.02967569 0.19360523
-0.0093413619 0.026953664 0.19674215
-0.0098083019 0.023752889 0.20077749
-0.01014056 0.020476412 0.20474678
-0.010014468 0.017335895 0.20777273
-0.0099888844 0.014054833 0.21043287
-0.0098631838 0.010843118 0.21238412
-0.0097787073 0.0076655066 0.2155574
-0.010194064 0.004104434 0.21857174
-0.010309503 0.0002683957 0.22167487
-0.010555136 -0.0033600971 0.22386073
-0.01089071 -0.0074141687 0.22553223
-0.010594898 -0.011697367 0.22603695
-0.010823022 -0.015851101 0.22915128
-0.011092667 -0.019589135 0.23096587
-0.011618271 -0.023804223 0.23483887
-0.01239357 -0.026266027 0.23728074
-0.0061562266 0.032232676 0.19247888
-0.0060579097 0.029728746 0.19488625
-0.006270668 0.026903225 0.19826725
-0.0065637459 0.023997176 0.20106544
-0.006863276 0.021066179 0.20504466
-0.0065768729 0.017880445 0.20827299
-0.006370164 0.014493437 0.21070927
-0.0063381544 0.011113432 0.21259104
-0.0062245806 0.0075917011 0.21588346
-0.0064518214 0.0038269118 0.21900462
-0.0065649529 -1.9037647e-05 0.22213337
-0.006701984 -0.0035749897 0.2235176
-0.0071315956 -0.0074468423 0.2260159
-0.0070919367 -0.011972068 0.22650924
-0.0072773267 -0.016070461 0.22987206
-0.0079561193 -0.019827662 0.23202597
-0.0086938711 -0.022862229 0.2339038
-0.0035127818 0.031674482 0.19404453
-0.0026150532 0.029764751 0.19661479
-0.0028343971 0.026894921 0.19887654
-0.0029938407 0.023991322 0.20134737
-0.0030341377 0.021129521 0.20442502
-0.0031079119 0.01793677 0.20759155
-0.0027454335 0.01445156 0.21049042
-0.0028227908 0.011090481 0.21283862
-0.0026441563 0.0076176282 0.21575074
-0.0027896366 0.0036668421 0.2182602
-0.002770246 -2.8349694e-05 0.22141407
-0.0029912742 -0.0039221225 0.22302893
-0.003314778 -0.007934832 0.22588383
-0.003855607 -0.012181317 0.22700472
-0.0047302763 -0.015593609 0.22945404
0.00035118553 0.029279657 0.19812049
0.00055277027 0.027181981 0.19953483
0.00045531831 0.024323793 0.20148519
0.00046659572 0.021246186 0.2038358
0.00058396277 0.018038746 0.20656714
0.0008499283 0.014548888 0.20953938
0.00093343458 0.011115863 0.21221921
0.0010400923 0.0075943694 0.21452427
0.00064327294 0.0037383502 0.21688408
0.000861409 -0.00014741725 0.21963167
0.00028561364 -0.0038306047 0.22255829
-0.00096932461 -0.0073371017 0.22620647
0.0037838288 0.027366018 0.2001617
0.0041398373 0.024541013 0.2017789
0.0041493424 0.021301357 0.20340127
0.0039909109 0.018092895 0.20624843
0.0043031671 0.014685486 0.20843515
0.0038465438 0.011536594 0.21087988
0 0 0 1 0 0 0 1 0 0 0 1 0 0 0 0 0 346 1 0 0
