ply
format ascii 1.0
comment PCL generated
element vertex 346
property float x
property float y
property float z
element camera 1
property float view_px
property float view_py
property float view_pz
property float x_axisx
property float x_axisy
property float x_axisz
property float y_axisx
property float y_axisy
property float y_axisz
property float z_axisx
property float z_axisy
property float z_axisz
property float focal
property float scalex
property float scaley
property float centerx
property float centery
property int viewportx
property int viewporty
property float k1
property float k2
end_header
-0.058787148 0.027628837 0.189527
-0.059253685 0.024798598 0.19052891
-0.059561312 0.022066453 0.19160794
-0.059795026 0.019037193 0.19284289
-0.060197085 0.016232377 0.19361328
-0.05881111 0.012728559 0.19593661
-0.055148013 0.030487576 0.18641967
-0.056364443 0.028016785 0.1878632
-0.056065228 0.024956543 0.18860666
-0.056209024 0.022118062 0.19009431
-0.056864902 0.019183531 0.19150937
-0.057464167 0.015829898 0.19300869
-0.057118922 0.012821754 0.19497558
-0.056834266 0.00983568 0.19695461
-0.056706913 0.0070817536 0.19868517
-0.048760854 0.032501958 0.18271002
-0.050106052 0.030491406 0.18375804
-0.051948089 0.027966427 0.18494341
-0.052487858 0.024937173 0.18685563
-0.052351676 0.022158919 0.18899575
-0.052965727 0.019259054 0.19044809
-0.053483553 0.016037878 0.19193125
-0.05404624 0.012892772 0.19391024
-0.054604698 0.0089802928 0.19619229
-0.055436831 0.0052281213 0.19830659
-0.055351011 0.0019200988 0.2008936
-0.055395123 -0.00076460076 0.20318007
-0.045266181 0.034923278 0.18047057
-0.045892082 0.032820214 0.18163687
-0.046557475 0.030526722 0.18295822
-0.047549933 0.028166894 0.18430761
-0.048685852 0.025067814 0.18694428
-0.048832573 0.0221678 0.18924724
-0.049214203 0.019070555 0.19077611
-0.04978805 0.015918216 0.19201498
-0.050941084 0.012700747 0.19359347
-0.051921256 0.0081827678 0.1950575
-0.05294624 0.0035084558 0.19536147
-0.053419158 7.0967137e-05 0.19911113
-0.053005319 -0.0026925385 0.20297116
-0.052918293 -0.0046971277 0.20686921
-0.053279612 -0.006037639 0.21073331
-0.04221702 0.037857931 0.17893872
-0.042849846 0.035739232 0.18006556
-0.043016821 0.033379611 0.18151331
-0.043440074 0.031015022 0.18311471
-0.044097073 0.028295789 0.18495452
-0.04495132 0.02485602 0.18771237
-0.045129303 0.021848056 0.18980928
-0.045301061 0.01887618 0.19098932
-0.04613547 0.015468025 0.19211018
-0.047732916 0.012586828 0.19305958
-0.048655134 0.0076629971 0.19280945
-0.04891751 0.0024058411 0.19157889
-0.048607249 -0.0022905136 0.19542871
-0.049403563 -0.0034854147 0.2029013
-0.049882233 -0.0052962527 0.2074701
-0.051100321 -0.0069974666 0.21154715
-0.052092243 -0.0090563968 0.21419466
-0.052940719 -0.01121462 0.21805745
-0.040259924 0.039337683 0.17829117
-0.04017473 0.036478683 0.18025328
-0.040425874 0.033877313 0.18188483
-0.040749628 0.031338092 0.18355882
-0.041113261 0.028037962 0.18550481
-0.041806072 0.02432292 0.18821962
-0.041896738 0.021562822 0.18998381
-0.042434998 0.018966265 0.19111897
-0.042721272 0.015956562 0.19206741
-0.043759428 0.012254508 0.19269623
-0.044704244 0.0065272581 0.19072619
-0.042203546 0.00014558378 0.1899043
-0.039652865 -0.0049714725 0.1925116
-0.045588527 -0.0049970555 0.20290498
-0.046610225 -0.0059013432 0.20810266
-0.047636099 -0.0068848901 0.21233214
-0.049022868 -0.0088465186 0.21576902
-0.050773852 -0.011356479 0.21947742
-0.050677624 -0.01408645 0.22188617
-0.049531873 -0.016307667 0.22211236
-0.037410185 0.0421132 0.1767274
-0.037496705 0.040449373 0.17812286
-0.037507974 0.0375099 0.17994022
-0.037858583 0.034302793 0.18211384
-0.037882283 0.031638227 0.18429424
-0.038291097 0.027296189 0.1864327
-0.038654238 0.023934007 0.18849668
-0.039027531 0.02131089 0.19022726
-0.039449461 0.01869892 0.19149745
-0.0397509 0.015618797 0.19222286
-0.040098466 0.011713533 0.19238044
-0.040774643 0.0053533441 0.19063768
-0.038720649 5.2457217e-05 0.19197297
-0.038320791 -0.0041323709 0.1956231
-0.042014111 -0.0059729982 0.20329031
-0.043289259 -0.0064137406 0.20862371
-0.044640038 -0.0075554433 0.21301839
-0.04597133 -0.0087900553 0.21633178
-0.046751883 -0.010262102 0.21946642
-0.046892595 -0.01385708 0.22193563
-0.047260836 -0.017558418 0.22543626
-0.046256877 -0.019915853 0.22743396
-0.034807634 0.043248225 0.17649601
-0.034444589 0.041725192 0.17792547
-0.033824641 0.039294325 0.17937094
-0.033722728 0.03667812 0.18096466
-0.034252562 0.032548834 0.18411204
-0.034858231 0.027360989 0.18746339
-0.035513327 0.024012094 0.18890026
-0.036091421 0.021100329 0.19068967
-0.036551151 0.018284887 0.19185701
-0.036856018 0.01507337 0.19265087
-0.037051182 0.01087907 0.19259526
-0.03743111 0.0061763623 0.19147602
-0.036742046 0.0012892181 0.19402783
-0.036977146 -0.0020959598 0.1979066
-0.03905138 -0.0043110149 0.20370604
-0.040064838 -0.0069087767 0.21018033
-0.04157399 -0.0082579479 0.21423955
-0.04234558 -0.0097254654 0.21671821
-0.042898372 -0.012097543 0.2194038
-0.043625262 -0.015506337 0.22156456
-0.04381508 -0.01874556 0.22443779
-0.042695314 -0.020586256 0.22684546
-0.031761527 0.043622348 0.17687283
-0.031310815 0.04214365 0.17829311
-0.030824881 0.039643738 0.18012309
-0.030620564 0.037225105 0.182023
-0.030572027 0.033191402 0.18516029
-0.031648558 0.028250732 0.1883373
-0.032274164 0.024814511 0.18953642
-0.032954693 0.021172453 0.19130592
-0.033816446 0.017937437 0.19268347
-0.034040771 0.014503224 0.19362751
-0.034500331 0.010282191 0.19332264
-0.035083439 0.0065423748 0.1929103
-0.034467127 0.0024288252 0.19599026
-0.034724396 -0.00038941074 0.19989593
-0.036411338 -0.0027637633 0.20455675
-0.037692148 -0.0056423019 0.20978387
-0.038568228 -0.0077676699 0.21477413
-0.039495934 -0.0098240031 0.21720484
-0.039767794 -0.012636114 0.21914074
-0.04033972 -0.015878389 0.22095309
-0.040514 -0.01913259 0.22328331
-0.039202109 -0.021022553 0.22594601
-0.028668117 0.043392565 0.17765638
-0.028211426 0.042058788 0.1788836
-0.027985046 0.039669201 0.18047705
-0.027578246 0.037151765 0.18280062
-0.027143439 0.033283763 0.18596251
-0.028010739 0.029597396 0.1890156
-0.029110299 0.025796557 0.19081023
-0.030031286 0.022002749 0.19215387
-0.031027423 0.017813614 0.19409856
-0.031213764 0.013534424 0.19546917
-0.031861842 0.010145493 0.19492356
-0.032241564 0.0076771067 0.19463992
-0.031701759 0.0047284807 0.19798413
-0.031298939 0.0018833302 0.20163099
-0.033436976 -0.0020133108 0.20589632
-0.034867566 -0.004810235 0.21015824
-0.035656389 -0.0077561252 0.21583931
-0.036587279 -0.010559875 0.21792354
-0.037175704 -0.013210396 0.21991409
-0.037305366 -0.016255876 0.22201031
-0.037021972 -0.019290837 0.22400708
-0.035569068 -0.021331374 0.22659124
-0.025632462 0.043566719 0.17831038
-0.02528383 0.042368777 0.17954442
-0.0247389 0.039906546 0.18084113
-0.024222501 0.036689125 0.18290989
-0.023952844 0.033875339 0.18581298
-0.024732156 0.030983152 0.1888468
-0.025855413 0.02708962 0.19200623
-0.027117904 0.022430122 0.1939452
-0.027857199 0.017404793 0.19648027
-0.028372673 0.013185465 0.19791096
-0.028365187 0.011144571 0.19831739
-0.029270848 0.0095711639 0.19810662
-0.029128142 0.006271203 0.20169994
-0.029089807 0.0028049531 0.20433141
-0.030752223 -0.0013545397 0.20876332
-0.030738095 -0.0051266011 0.21405581
-0.032321528 -0.0088671409 0.21755327
-0.033653613 -0.011561813 0.21940234
-0.034294669 -0.013648614 0.22095303
-0.034101158 -0.016505459 0.22299092
-0.032745119 -0.019027893 0.22567573
-0.032066442 -0.021978172 0.2275475
-0.031716142 -0.024912521 0.23120882
-0.022254232 0.04452147 0.17891212
-0.021561751 0.042866312 0.18023849
-0.021352841 0.039656416 0.18151645
-0.020985827 0.036418755 0.1830864
-0.021162435 0.034100402 0.18644664
-0.021684019 0.031694777 0.18923143
-0.022290191 0.029122638 0.19215438
-0.023262003 0.024796896 0.1949641
-0.024248222 0.018004728 0.1990111
-0.025237909 0.013933532 0.20132114
-0.025707603 0.011965284 0.20229985
-0.026363816 0.0097777722 0.20237286
-0.026850589 0.0064923689 0.20458214
-0.027268205 0.0028670032 0.20738688
-0.026856186 -0.0011131085 0.21199779
-0.026753351 -0.0047703707 0.21653701
-0.028188672 -0.008641853 0.21971333
-0.029387951 -0.01189903 0.22149895
-0.029598014 -0.014158174 0.22365178
-0.029032148 -0.016616218 0.22664008
-0.027579946 -0.019259138 0.22793287
-0.027946563 -0.022681048 0.22892113
-0.02761017 -0.025729474 0.23306881
-0.018192984 0.042422224 0.18163651
-0.018199487 0.040100627 0.183355
-0.018173547 0.037074994 0.18444286
-0.018480951 0.034343321 0.18697055
-0.018827273 0.032080803 0.18973528
-0.019072888 0.029578628 0.19210123
-0.019566268 0.025826355 0.19599366
-0.020266652 0.020638267 0.199597
-0.021062503 0.015959352 0.20327193
-0.02198749 0.012605366 0.20514864
-0.022778291 0.010216099 0.20600381
-0.023831408 0.0070434571 0.20763086
-0.023833662 0.0033213366 0.21127269
-0.022912698 -0.00027931837 0.21523017
-0.023064855 -0.003758658 0.21823466
-0.023697371 -0.0075331391 0.22141376
-0.024472525 -0.011019605 0.22306563
-0.02372958 -0.013805979 0.22576591
-0.022789471 -0.015886888 0.22891645
-0.022831511 -0.018596372 0.22925746
-0.023179999 -0.022371355 0.22955522
-0.023422649 -0.025901243 0.23417889
-0.015195331 0.040206157 0.18478253
-0.015401035 0.03752546 0.1861425
-0.015640782 0.034602161 0.18823715
-0.01631999 0.031722557 0.19070534
-0.016572488 0.029229695 0.19288525
-0.016461218 0.02579809 0.19689454
-0.017380426 0.021350155 0.20063134
-0.017438868 0.018002989 0.2036657
-0.017974127 0.014024547 0.20635961
-0.018810758 0.011062838 0.20882046
-0.020060008 0.0076136128 0.21055813
-0.019731414 0.0042561572 0.21373296
-0.019240584 0.00082819484 0.21677157
-0.018852167 -0.0025647513 0.21997824
-0.018749192 -0.0059360513 0.2231333
-0.019341139 -0.0095764548 0.22429574
-0.018978752 -0.012548594 0.22632878
-0.018856872 -0.015617836 0.22824058
-0.019866208 -0.019026801 0.22997105
-0.019810019 -0.022527145 0.23168291
-0.019775609 -0.025794216 0.23602279
-0.012991915 0.037214462 0.18756473
-0.013336313 0.034011167 0.18965852
-0.013596301 0.031361476 0.19165853
-0.013771553 0.028868258 0.19357072
-0.013256334 0.025966991 0.19665401
-0.014091484 0.022296818 0.20099497
-0.014615689 0.018856796 0.20470856
-0.014585344 0.015565994 0.20830163
-0.014601124 0.012117267 0.21064736
-0.014859561 0.0083638569 0.21249738
-0.015019693 0.0052989032 0.21498148
-0.014894203 0.0018162321 0.21782346
-0.014865931 -0.0016932788 0.22123064
-0.015177492 -0.005155717 0.223516
-0.015154656 -0.008658452 0.22473833
-0.015097541 -0.012694938 0.22676018
-0.015264736 -0.016530501 0.22929293
-0.015824486 -0.019875294 0.23179276
-0.016090214 -0.022950329 0.23426077
-0.015957845 -0.025503591 0.23766375
-0.010856404 0.034011085 0.19021536
-0.010416915 0.031430762 0.1922418
-0.010432556 0.028752433 0.19430915
-0.009938132 0.026046026 0.19720387
-0.010669374 0.023006953 0.20119648
-0.011517147 0.019753013 0.20534943
-0.011099858 0.016752223 0.20856598
-0.010759617 0.01271958 0.21069394
-0.010375297 0.0090926709 0.21296275
-0.010571006 0.0058419025 0.21584836
-0.010800671 0.0025592453 0.21865505
-0.010979504 -0.0010472151 0.22194694
-0.011452654 -0.0043637748 0.22359979
-0.011736459 -0.0082252976 0.22473089
-0.011640714 -0.012399532 0.22621264
-0.01158502 -0.01641815 0.2298096
-0.011639205 -0.019863894 0.232116
-0.012238669 -0.02340894 0.23591673
-0.012922911 -0.025459806 0.23846495
-0.0071170488 0.031402558 0.19351409
-0.0069108005 0.028958159 0.1961402
-0.0068804934 0.026088065 0.1989868
-0.0075184647 0.023115208 0.20167105
-0.0080628255 0.020263292 0.20549576
-0.0075965663 0.017024331 0.20850471
-0.0069929943 0.013396316 0.21061681
-0.0065357708 0.0097322799 0.21282843
-0.0066159405 0.0061271135 0.21635978
-0.0069234041 0.0026583625 0.21931189
-0.0071190908 -0.00078359363 0.22223432
-0.007197611 -0.004149897 0.2234481
-0.0079150051 -0.0078170057 0.22533485
-0.0081758825 -0.012459785 0.22650953
-0.0079898266 -0.016683884 0.2303146
-0.0084865279 -0.020114878 0.23250562
-0.0091395052 -0.022887548 0.23504683
-0.0045815492 0.031106016 0.1954287
-0.003290737 0.029372472 0.19812351
-0.0034518084 0.026262229 0.20033167
-0.0041259495 0.023235453 0.20220639
-0.0041696383 0.020320248 0.20520785
-0.0042256098 0.01707994 0.20821163
-0.0033957448 0.013444859 0.21038063
-0.0029124282 0.010151924 0.21270622
-0.0028022411 0.0065162741 0.21590532
-0.0033539215 0.0029821517 0.21871376
-0.0032667718 -0.00042148953 0.22178735
-0.0031957142 -0.0043062675 0.22311753
-0.0040063453 -0.00814055 0.22567789
-0.0049094157 -0.012683272 0.22698162
-0.0056156269 -0.016477536 0.23012751
-0.00030214668 0.028884493 0.19969246
-0.00024081636 0.026471077 0.20098345
-0.00065746775 0.023584753 0.20264742
-0.00084827701 0.020454586 0.20485233
-0.0006077229 0.016859846 0.20752774
7.1526134e-05 0.013451727 0.21012831
0.00060234737 0.010303754 0.21243848
0.00089063187 0.0067658522 0.21490543
5.8821456e-06 0.0033261196 0.21738443
0.00046179627 -0.00022951548 0.22015645
0.00012970899 -0.0040158131 0.22290568
-0.0017410526 -0.007563422 0.22619374
0.003117749 0.026486246 0.2016809
0.0033715635 0.023573255 0.20324638
0.0030107885 0.020399883 0.20483285
0.0029223887 0.016828772 0.20727666
0.0038270373 0.013031673 0.20969303
0.0033243494 0.010426629 0.21175839
0 0 0 1 0 0 0 1 0 0 0 1 0 0 0 0 0 346 1 0 0
