ply
format ascii 1.0
comment PCL generated
element vertex 346
property float x
property float y
property float z
element camera 1
property float view_px
property float view_py
property float view_pz
property float x_axisx
property float x_axisy
property float x_axisz
property float y_axisx
property float y_axisy
property float y_axisz
property float z_axisx
property float z_axisy
property float z_axisz
property float focal
property float scalex
property float scaley
property float centerx
property float centery
property int viewportx
property int viewporty
property float k1
property float k2
end_header
-0.059120435 0.027433353 0.18980338
-0.059585877 0.024626864 0.19088402
-0.059835281 0.02188981 0.19207248
-0.059998669 0.018899495 0.19345543
-0.060461264 0.016279096 0.19430271
-0.059050571 0.012752219 0.19653432
-0.055506732 0.030283462 0.1865705
-0.056725044 0.027847605 0.18815623
-0.056379113 0.024760287 0.18896168
-0.056462564 0.021927539 0.19055419
-0.057054095 0.01901998 0.1921235
-0.057714287 0.015896078 0.19371857
-0.057343576 0.012861408 0.19560567
-0.057067987 0.0098610539 0.19749498
-0.056943137 0.007081666 0.19913037
-0.048902955 0.031960547 0.18225449
-0.050295632 0.030112842 0.18360074
-0.052274849 0.027777867 0.18518242
-0.05278765 0.024744801 0.18719231
-0.052597158 0.021955259 0.18941306
-0.05315686 0.019080024 0.19104701
-0.053723864 0.016115535 0.19269976
-0.054253642 0.012947502 0.19460545
-0.054823369 0.0090220449 0.19674376
-0.055650465 0.0052457419 0.19873716
-0.055536229 0.0019334486 0.20126164
-0.055530302 -0.00077039277 0.2034781
-0.045344111 0.034255419 0.17989446
-0.045941543 0.032249466 0.18121518
-0.046653178 0.03011558 0.18279317
-0.04770707 0.027933275 0.18442486
-0.048985746 0.024894232 0.18726844
-0.049062081 0.021923941 0.18963268
-0.049424034 0.018907381 0.19139597
-0.050032299 0.016003789 0.19285484
-0.051144417 0.012782733 0.19434018
-0.052111145 0.0082285497 0.19563925
-0.053102009 0.0035575468 0.19581938
-0.053574059 0.00012776036 0.19946694
-0.053104214 -0.0026535385 0.20322612
-0.053011429 -0.0046985117 0.20706524
-0.053375725 -0.0060682897 0.21087703
-0.042338718 0.037260104 0.17845979
-0.042941265 0.035162076 0.17960157
-0.043108679 0.032912504 0.18124261
-0.043575168 0.030738473 0.18309315
-0.044295207 0.028281486 0.18527095
-0.045179065 0.024779402 0.18817981
-0.0453665 0.021672403 0.19028372
-0.045554888 0.018787596 0.19165412
-0.046394557 0.015548204 0.19289099
-0.047943447 0.012684191 0.19387119
-0.048808634 0.007732451 0.19346777
-0.04898553 0.0024862303 0.19208778
-0.048659388 -0.0021798597 0.19582336
-0.049494524 -0.0033933313 0.20315407
-0.049978383 -0.0052559027 0.20767362
-0.051190358 -0.0069847372 0.21169873
-0.052191716 -0.0091605196 0.21465392
-0.053070799 -0.011307867 0.21848221
-0.040401544 0.038863994 0.17802922
-0.040340893 0.03603106 0.17996292
-0.040589496 0.033561852 0.18175003
-0.040951554 0.031245107 0.18370365
-0.041371521 0.028259756 0.18617786
-0.042054415 0.024349123 0.18892509
-0.042173747 0.021526434 0.19060944
-0.04270374 0.018922597 0.19174966
-0.042939447 0.016002961 0.19255371
-0.043946587 0.012365585 0.19341555
-0.04477616 0.0065971175 0.19130294
-0.042136729 0.00017369755 0.19028959
-0.039578013 -0.0048720515 0.19293782
-0.045669496 -0.0048534288 0.20315674
-0.04672296 -0.0058033215 0.20830469
-0.047744129 -0.0068056327 0.21251407
-0.049183939 -0.0088226944 0.21630098
-0.050947592 -0.011370706 0.21995249
-0.050807942 -0.014080001 0.22237247
-0.049537841 -0.016385546 0.22252999
-0.03757894 0.041720215 0.17672175
-0.037710406 0.04011108 0.17814817
-0.037731521 0.037228059 0.17994659
-0.038077705 0.034128308 0.1821443
-0.038188323 0.03177413 0.18467712
-0.038630314 0.0276397 0.18749562
-0.038949434 0.024074657 0.18946029
-0.039367612 0.021392968 0.19103548
-0.039778668 0.018747788 0.19225018
-0.039913017 0.015652655 0.19247675
-0.040208068 0.011768331 0.19265223
-0.040749934 0.0053807115 0.19094503
-0.038681496 0.00013293633 0.19235055
-0.03830513 -0.00395894 0.19600929
-0.042095959 -0.0057545081 0.2035533
-0.043419249 -0.0062078186 0.20886214
-0.044748452 -0.0073846974 0.2131706
-0.046104785 -0.0089504663 0.21676175
-0.046964243 -0.010524564 0.21980307
-0.046971127 -0.014042543 0.22217345
-0.047243938 -0.018113067 0.22524831
-0.046148289 -0.020678597 0.22692817
-0.034991521 0.042884775 0.17660448
-0.03466022 0.041454196 0.17809172
-0.034065772 0.039142732 0.17969428
-0.033990547 0.036740359 0.18156287
-0.034608532 0.032853995 0.18498923
-0.035263095 0.027633274 0.18878862
-0.035891827 0.02427849 0.19014569
-0.03649151 0.021304155 0.19178714
-0.036976062 0.018484738 0.19289193
-0.037062623 0.01517272 0.19300391
-0.03717595 0.010980261 0.19290431
-0.037411254 0.0062566996 0.19177212
-0.036738407 0.0014241263 0.19439875
-0.037029546 -0.0018921091 0.19827029
-0.039166544 -0.0041171699 0.20401457
-0.040191378 -0.0065366826 0.21047056
-0.041705243 -0.0079982821 0.21439695
-0.042553775 -0.0096497294 0.21733171
-0.043049064 -0.012119368 0.21982422
-0.04368414 -0.015643246 0.22157058
-0.043756407 -0.019154046 0.22408938
-0.042632181 -0.02118686 0.22628951
-0.031982146 0.043280609 0.17696504
-0.031553276 0.041890409 0.17841169
-0.031076459 0.039541267 0.18039057
-0.030860197 0.037310239 0.18249345
-0.030906068 0.033506237 0.18605855
-0.03203214 0.028486598 0.18952373
-0.032662239 0.025105715 0.19083019
-0.033422589 0.021497203 0.19263755
-0.034305193 0.018174954 0.19389169
-0.034271725 0.014659868 0.19403227
-0.034640171 0.010420561 0.19370052
-0.03509552 0.0066755838 0.19324401
-0.034518458 0.0026275576 0.19637716
-0.034855422 -0.00013502092 0.20028953
-0.036585253 -0.0025269825 0.20492449
-0.037912242 -0.0053326827 0.21012612
-0.038740855 -0.0074716941 0.21502766
-0.039792113 -0.0094633754 0.21811059
-0.039935701 -0.012382535 0.21969977
-0.0403971 -0.01586714 0.2209443
-0.040445749 -0.019306399 0.22289696
-0.039056234 -0.021443734 0.22527328
-0.02895995 0.043152191 0.17766233
-0.028484626 0.041867424 0.17893271
-0.028232213 0.039582264 0.18066263
-0.027812134 0.03731877 0.18326105
-0.027505126 0.033671107 0.18678598
-0.028323956 0.029788136 0.1898786
-0.029400822 0.026020186 0.19185914
-0.030429671 0.022281447 0.1934029
-0.031577431 0.018076856 0.19539608
-0.031456698 0.013710259 0.1959286
-0.032029267 0.010323569 0.19535096
-0.032330614 0.0078749172 0.19504216
-0.031863697 0.0049588205 0.19841315
-0.031528227 0.0021611436 0.20208991
-0.033689659 -0.0016697646 0.20635688
-0.03517 -0.0044606053 0.21058188
-0.035830062 -0.0074220127 0.21608187
-0.03687473 -0.0099658249 0.21892025
-0.037317891 -0.012911287 0.22033565
-0.037326977 -0.016217053 0.22193679
-0.036945682 -0.019438747 0.22357598
-0.035423912 -0.021503935 0.22594677
-0.025926661 0.043396134 0.17823701
-0.025543053 0.042244457 0.17950067
-0.024979865 0.039858025 0.18090013
-0.024579406 0.037038591 0.1835309
-0.024354907 0.034301508 0.18656769
-0.02501167 0.031181592 0.18950962
-0.026002903 0.027226122 0.1926818
-0.027383542 0.022676041 0.1949738
-0.028410502 0.017698307 0.19779848
-0.028588537 0.013368467 0.19833472
-0.028502492 0.01129084 0.19867429
-0.029406985 0.0097311651 0.19847174
-0.029306244 0.0065024802 0.20207736
-0.029355843 0.0031357217 0.20481099
-0.031161359 -0.00086076034 0.20933305
-0.031019252 -0.0045680706 0.21457742
-0.032699313 -0.0080494024 0.2185894
-0.03384649 -0.010941711 0.22012694
-0.034378394 -0.013311193 0.22131342
-0.03408682 -0.016462168 0.2228879
-0.03263459 -0.019143747 0.22513168
-0.031797156 -0.021643765 0.22692563
-0.031118611 -0.024541369 0.23043427
-0.022592746 0.044446871 0.17883317
-0.02190323 0.042850714 0.18028587
-0.02168932 0.039799873 0.18185996
-0.021405879 0.036797285 0.18377157
-0.021538846 0.034454484 0.18709822
-0.021943878 0.031844694 0.1897634
-0.022381505 0.029045297 0.19253172
-0.023294084 0.024869394 0.19541305
-0.024537636 0.018403929 0.19970959
-0.025282133 0.014060842 0.20134148
-0.025761286 0.012111595 0.20239811
-0.026465712 0.0099645229 0.20262063
-0.027038852 0.0067898505 0.20494524
-0.027582083 0.0033274968 0.20790055
-0.0271965 -0.00050517765 0.21271722
-0.02707565 -0.0040269434 0.21755122
-0.028354755 -0.0081234062 0.220295
-0.029446501 -0.011352471 0.22180444
-0.029547004 -0.01381792 0.22357003
-0.028767884 -0.016568027 0.22605594
-0.027186655 -0.018989749 0.22694579
-0.027567882 -0.02221233 0.22788158
-0.026878821 -0.025490401 0.2317328
-0.018627757 0.042565789 0.18190649
-0.018595794 0.040301621 0.18371655
-0.018547196 0.037388995 0.18498129
-0.018855983 0.03461292 0.18748346
-0.019076562 0.03216232 0.19008803
-0.019241547 0.029653167 0.19242777
-0.019716324 0.026051931 0.1964462
-0.020394217 0.021098988 0.20006016
-0.021033509 0.016209522 0.20341481
-0.022055782 0.012741608 0.20538668
-0.022906415 0.010465959 0.20657688
-0.024094908 0.0074971165 0.20856038
-0.024098082 0.0039093448 0.21225105
-0.023149667 0.00031944958 0.21613717
-0.02326443 -0.0032448319 0.21899366
-0.023780826 -0.0071221129 0.22189175
-0.024451504 -0.010530801 0.2231494
-0.02357192 -0.013637177 0.22523437
-0.022446709 -0.016155733 0.22773312
-0.022439638 -0.018717714 0.22768061
-0.022738827 -0.022271836 0.22770193
-0.022721609 -0.025997598 0.23209803
-0.015612013 0.040468384 0.18508026
-0.015772277 0.037798248 0.18649313
-0.015992366 0.034720603 0.18854207
-0.016606301 0.031862065 0.19107087
-0.016831912 0.029418496 0.19329453
-0.016709408 0.026182396 0.19743283
-0.017515499 0.021818455 0.20104675
-0.017412733 0.018297844 0.20380764
-0.017768234 0.014088166 0.20614508
-0.018646192 0.011098819 0.20887034
-0.020089133 0.0078853378 0.21115589
-0.019777616 0.004561319 0.21435782
-0.019306032 0.0011462049 0.21739417
-0.018920235 -0.0022733249 0.22056153
-0.018832637 -0.0055855643 0.22384019
-0.019384595 -0.0091879247 0.22481623
-0.018815603 -0.012435703 0.22600117
-0.018622573 -0.015778016 0.22719635
-0.019482672 -0.019322328 0.2281954
-0.019309448 -0.022752633 0.22946857
-0.019021532 -0.02621812 0.23363893
-0.013362294 0.037472203 0.18779522
-0.01370736 0.034221303 0.18996821
-0.013951665 0.031617802 0.19207051
-0.014058883 0.029141916 0.19403216
-0.013559666 0.026445879 0.19719723
-0.014290421 0.022827035 0.20145519
-0.014575238 0.019155432 0.20480846
-0.014332044 0.01555049 0.20805968
-0.01438116 0.012056848 0.21049657
-0.014774597 0.0084318006 0.21281409
-0.014973553 0.0053844466 0.21541786
-0.014908373 0.0019186632 0.21828745
-0.014866612 -0.0015625946 0.22179346
-0.015173492 -0.0049043605 0.22420914
-0.015127555 -0.0084369676 0.22542638
-0.014983387 -0.012592933 0.22677381
-0.015119683 -0.016705759 0.22837928
-0.015637586 -0.020325793 0.23023744
-0.015746232 -0.02347892 0.2322824
-0.015421776 -0.026164616 0.23550357
-0.011180923 0.034201 0.19034679
-0.010731146 0.031635776 0.192442
-0.010733573 0.029035976 0.19464055
-0.010267477 0.026546262 0.19767787
-0.010895063 0.023607992 0.20166802
-0.01151543 0.020189712 0.20552804
-0.010958216 0.016936323 0.2084754
-0.010710403 0.012841857 0.21074581
-0.010360506 0.0092018982 0.21324462
-0.010536701 0.005881412 0.21624665
-0.010799909 0.002538916 0.21911854
-0.010956468 -0.0010737299 0.22240633
-0.011398974 -0.0043200115 0.22414993
-0.011689357 -0.0081060268 0.22525361
-0.011569681 -0.012275861 0.22635274
-0.011490734 -0.01648799 0.22939651
-0.011527251 -0.020069242 0.23135331
-0.012046871 -0.023850735 0.23463753
-0.012605379 -0.02608669 0.23678868
-0.0073440396 0.031461842 0.19344753
-0.007109208 0.029139327 0.19615108
-0.0070524067 0.026467158 0.19920705
-0.0076843775 0.023704559 0.20203494
-0.0080927256 0.020848079 0.20580132
-0.0076063173 0.017378807 0.20862326
-0.0070100217 0.01355647 0.21074492
-0.006557195 0.0098746689 0.21304052
-0.0065855035 0.0062043457 0.21670996
-0.0069012637 0.0025777826 0.21976168
-0.0070524821 -0.00096817449 0.22260053
-0.007147775 -0.0043472643 0.2237148
-0.0078275008 -0.0079377675 0.22557858
-0.0080905231 -0.012398846 0.22652549
-0.0078769661 -0.016660269 0.23006672
-0.0083822627 -0.020185221 0.23198873
-0.0090145767 -0.023144869 0.23424919
-0.0046958644 0.030969001 0.19500515
-0.0032465155 0.029111972 0.19741938
-0.0034588915 0.026216779 0.19989009
-0.0042438111 0.023564378 0.20221499
-0.0042275134 0.020685798 0.20525552
-0.0042798435 0.017357726 0.20822303
-0.0034609002 0.013561269 0.21042639
-0.0029588728 0.010253979 0.21282522
-0.0028150573 0.0066284365 0.21614189
-0.0032958474 0.0029171712 0.21906821
-0.003190553 -0.00070805819 0.22205663
-0.0031697419 -0.004639897 0.22321859
-0.0039444598 -0.0084693516 0.2256251
-0.0048056017 -0.01266724 0.2268683
-0.0054825675 -0.016379906 0.22993107
-0.00014900409 0.028263832 0.19847237
-0.00024251742 0.026036447 0.20000404
-0.00075627555 0.023468953 0.20209025
-0.00094956503 0.020553814 0.20460512
-0.00073439191 0.016974062 0.20735826
-3.9557326e-05 0.01348712 0.21000515
0.00047673221 0.010345798 0.21237829
0.00076203659 0.0068235612 0.21494006
9.6043077e-06 0.0032756156 0.21762107
0.00048751876 -0.00052589277 0.22032376
0.00014937887 -0.0044476301 0.22289117
-0.0016567011 -0.0080070617 0.22604802
0.0030654189 0.025820861 0.2004132
0.0032163444 0.023133971 0.20230274
0.0028167719 0.020180114 0.20424873
0.0027731371 0.016755408 0.20694648
0.0036480378 0.012938667 0.20937029
0.0031646565 0.010388316 0.21154356
0 0 0 1 0 0 0 1 0 0 0 1 0 0 0 0 0 346 1 0 0
