ply
format ascii 1.0
comment PCL generated
element vertex 346
property float x
property float y
property float z
element camera 1
property float view_px
property float view_py
property float view_pz
property float x_axisx
property float x_axisy
property float x_axisz
property float y_axisx
property float y_axisy
property float y_axisz
property float z_axisx
property float z_axisy
property float z_axisz
property float focal
property float scalex
property float scaley
property float centerx
property float centery
property int viewportx
property int viewporty
property float k1
property float k2
end_header
-0.059313435 0.027189674 0.19014554
-0.059727408 0.024391012 0.19119263
-0.059946295 0.0216846 0.19235037
-0.060098764 0.018728698 0.19373837
-0.060353544 0.016049068 0.1944993
-0.058918465 0.01277105 0.1969438
-0.055827547 0.030026598 0.18685801
-0.057009716 0.027629133 0.18850364
-0.0565992 0.024540985 0.18927559
-0.056613971 0.021724319 0.19082804
-0.057169903 0.01885101 0.19237323
-0.057601146 0.015654504 0.19391312
-0.05722364 0.012833576 0.19600192
-0.056963824 0.010002355 0.19802836
-0.056864858 0.00728575 0.19968824
-0.049002901 0.031419538 0.18211199
-0.050440703 0.029692914 0.18357821
-0.052610755 0.027545979 0.18541574
-0.053045526 0.024537744 0.18745427
-0.052734312 0.02174405 0.18961252
-0.053256754 0.01889875 0.19125091
-0.053584818 0.015826358 0.19288142
-0.054149371 0.012886238 0.19501604
-0.054744359 0.009158358 0.19733033
-0.055598076 0.0054419762 0.19930248
-0.055535499 0.0021174164 0.20172238
-0.055586301 -0.00063686969 0.20382233
-0.04540005 0.033687633 0.17966457
-0.045966312 0.031705085 0.18101506
-0.046720307 0.029618016 0.18267389
-0.047832377 0.027542757 0.18442464
-0.049183033 0.024667025 0.187433
-0.049137175 0.0217064 0.18975964
-0.049496271 0.018741621 0.19159184
-0.049906526 0.015766665 0.19315314
-0.051057283 0.012727639 0.19481286
-0.052055597 0.0083249705 0.19627358
-0.053066939 0.0036897964 0.19647296
-0.053576995 0.0003248734 0.19994593
-0.053149413 -0.0024982044 0.2035253
-0.05312499 -0.0046071038 0.20726582
-0.053591002 -0.0060521513 0.21097668
-0.042415608 0.036774132 0.17825677
-0.043005835 0.034641106 0.17937693
-0.043160699 0.032405589 0.18103448
-0.043616559 0.030277513 0.1829588
-0.044337392 0.027900992 0.18523356
-0.045239579 0.02448344 0.18828417
-0.045454621 0.021477751 0.19049892
-0.045652326 0.018654926 0.19196707
-0.046336625 0.015416373 0.19347785
-0.047867846 0.012647331 0.19450136
-0.048781872 0.0077312961 0.19413976
-0.049104571 0.0025038689 0.19287179
-0.048792321 -0.001995059 0.19660708
-0.049531247 -0.0031815569 0.20351805
-0.050113805 -0.0051119225 0.20795982
-0.051424325 -0.0069208485 0.21186106
-0.052402757 -0.009000794 0.21466245
-0.053321984 -0.011103642 0.21847862
-0.040482722 0.038472068 0.17787138
-0.040419463 0.035561554 0.17973247
-0.040658116 0.033100698 0.18153855
-0.041018382 0.030855644 0.18357977
-0.041437384 0.027986232 0.18624693
-0.042154774 0.024097258 0.18915612
-0.042309716 0.021344403 0.19091719
-0.042876434 0.018802546 0.19212709
-0.043072678 0.015975229 0.19336577
-0.043968569 0.012455909 0.19442749
-0.045020293 0.0066104936 0.1922262
-0.042696018 0.00040113946 0.19153824
-0.04012192 -0.0044965125 0.19432649
-0.045742042 -0.0045498372 0.20368588
-0.046939183 -0.0055597723 0.20871778
-0.048052486 -0.0066366093 0.21283099
-0.049419425 -0.0086319484 0.21631885
-0.05125102 -0.011143991 0.21998802
-0.051079683 -0.013811118 0.22240129
-0.049732354 -0.016268212 0.22240065
-0.037723947 0.0414504 0.17670132
-0.037830759 0.039794464 0.17805736
-0.037810158 0.036837373 0.17974271
-0.038182776 0.033731759 0.18196382
-0.038307261 0.031478237 0.18461041
-0.038773853 0.027440673 0.18775898
-0.039102089 0.023885615 0.18984635
-0.039562389 0.021255914 0.19146851
-0.040062256 0.018712016 0.19278391
-0.04037755 0.015823586 0.19374041
-0.040925268 0.012067517 0.19428383
-0.041526426 0.0056435699 0.19221865
-0.039373536 0.00050373661 0.19374847
-0.038992774 -0.0035269407 0.19739096
-0.042290159 -0.0052756923 0.20432761
-0.043731961 -0.0057928371 0.20945628
-0.045100741 -0.0070995581 0.21350829
-0.046335977 -0.0088237552 0.21670008
-0.047210798 -0.010405155 0.2197551
-0.047193829 -0.013934031 0.22196932
-0.047549333 -0.018010659 0.22491522
-0.046474352 -0.020646667 0.22654697
-0.035157379 0.042684499 0.17657857
-0.034781415 0.041259579 0.17803948
-0.034105036 0.038935792 0.17953938
-0.033988737 0.036543567 0.18144195
-0.034700572 0.032661624 0.18501666
-0.035450198 0.027444402 0.18913922
-0.036095105 0.024133351 0.1906019
-0.036766626 0.021233138 0.19235934
-0.037388615 0.018570535 0.19364057
-0.037749715 0.015414245 0.19452283
-0.038205564 0.011285194 0.19481456
-0.038309395 0.0066387807 0.19330129
-0.037541132 0.0018611363 0.19586436
-0.037813943 -0.0014418038 0.19966502
-0.039793182 -0.003667552 0.20519075
-0.040527694 -0.0059020636 0.21122433
-0.042130824 -0.0075862161 0.21486542
-0.042813886 -0.0095511088 0.21723755
-0.043300293 -0.012130181 0.21957132
-0.0439348 -0.015630027 0.22126292
-0.044069827 -0.019149831 0.22372983
-0.042964451 -0.021214722 0.22588508
-0.032134961 0.04314683 0.17688969
-0.031655125 0.041767787 0.17834659
-0.031124949 0.039402284 0.18029843
-0.030878572 0.037180915 0.18241011
-0.030959757 0.033367477 0.18610014
-0.032184198 0.028331326 0.18978074
-0.032828301 0.024988238 0.19117866
-0.033706013 0.021449918 0.19320159
-0.034826037 0.018256988 0.19479634
-0.035104774 0.014901668 0.19569191
-0.035804596 0.010728513 0.19573258
-0.036098968 0.0071311118 0.19490361
-0.035420183 0.0031274657 0.19794199
-0.035677843 0.00033691642 0.20171538
-0.037356637 -0.0020791886 0.20621717
-0.038517855 -0.0047636707 0.2112197
-0.039316844 -0.0068633645 0.21582179
-0.040157903 -0.0093430448 0.21810205
-0.040205166 -0.012410462 0.2194031
-0.040674079 -0.015875578 0.22060961
-0.040760603 -0.01931583 0.22254707
-0.039393608 -0.021501455 0.22488825
-0.029104453 0.043076165 0.17763363
-0.02860379 0.041780762 0.17889582
-0.028277507 0.039486524 0.18060088
-0.027833616 0.03722813 0.18323475
-0.027563719 0.033658113 0.18688461
-0.028425192 0.029720509 0.19004889
-0.029520962 0.025918329 0.19209066
-0.030656476 0.022192778 0.1938529
-0.032181732 0.018111091 0.19639684
-0.032492839 0.013993499 0.19783823
-0.033287816 0.010660385 0.19746141
-0.033507619 0.0084082233 0.19693029
-0.032933395 0.0055349814 0.20006464
-0.03244976 0.0026900007 0.20357874
-0.034516525 -0.0011586725 0.20773034
-0.035972174 -0.0039270045 0.21191354
-0.036544055 -0.0067412248 0.21712629
-0.037266515 -0.00986028 0.21895403
-0.037601821 -0.012929891 0.22005835
-0.037618298 -0.016252423 0.22159663
-0.037276305 -0.019500356 0.2232226
-0.035692323 -0.021588918 0.22563775
-0.026066808 0.043356776 0.17821902
-0.025649197 0.042198367 0.17947043
-0.025044935 0.039815944 0.18084784
-0.024636587 0.037052017 0.18358627
-0.024427643 0.034348626 0.18668821
-0.025100091 0.031211672 0.18968
-0.026081916 0.027192738 0.19282117
-0.027557991 0.022603922 0.19534071
-0.029050525 0.017653404 0.19887023
-0.029768463 0.013753424 0.20032649
-0.029723471 0.011802767 0.20059702
-0.030662695 0.010294556 0.20032394
-0.030316204 0.0070629637 0.20365855
-0.03021175 0.0036509337 0.20627387
-0.032085814 -0.00028731252 0.21079649
-0.031800281 -0.00398036 0.21580105
-0.033124208 -0.0078992862 0.2189156
-0.034234185 -0.010918303 0.22019148
-0.034691412 -0.01336208 0.22114296
-0.034421243 -0.016543781 0.22259752
-0.032915298 -0.019257765 0.22488233
-0.031778608 -0.02163806 0.22679241
-0.030820576 -0.024469862 0.23039792
-0.022708911 0.044452254 0.17882195
-0.021973483 0.042831652 0.18028955
-0.021744065 0.039809834 0.18191256
-0.021488655 0.036849871 0.18388432
-0.021626867 0.034494393 0.18721692
-0.022011446 0.031878147 0.1899209
-0.022422785 0.029042225 0.1926965
-0.023311246 0.024874119 0.19562826
-0.024738422 0.018257705 0.20055601
-0.026039232 0.014435296 0.20276029
-0.026618129 0.012608347 0.20390128
-0.027405476 0.010509905 0.20415033
-0.027856383 0.0072892616 0.20638765
-0.028293084 0.0037959921 0.20928256
-0.027818438 -2.9360659e-05 0.21389222
-0.027343052 -0.0040460201 0.21801439
-0.028655471 -0.0082246689 0.22058377
-0.029755255 -0.011467884 0.22199999
-0.029808486 -0.013944148 0.22368842
-0.028887255 -0.01666861 0.22610876
-0.027050624 -0.018982088 0.22701651
-0.027310042 -0.022121726 0.2279097
-0.02646051 -0.025349479 0.23169738
-0.018676529 0.042557966 0.1819828
-0.018661985 0.040319059 0.18381168
-0.018632984 0.037451949 0.18509308
-0.018961398 0.034642916 0.1876004
-0.019160362 0.032183278 0.19023086
-0.01926961 0.029664515 0.19260277
-0.019659929 0.026079644 0.19670828
-0.020267732 0.021081092 0.20052102
-0.020941215 0.01626532 0.20415296
-0.022286819 0.012868681 0.20636418
-0.023321813 0.010667475 0.20757173
-0.02461173 0.0076735746 0.2095166
-0.024425574 0.0038909509 0.21285273
-0.023285452 0.00016083263 0.21639934
-0.023434533 -0.0033948147 0.21929365
-0.023948222 -0.0073086396 0.22209802
-0.024599582 -0.010680009 0.22333373
-0.023672732 -0.013753715 0.22545622
-0.022400495 -0.016216708 0.22782189
-0.022343652 -0.018693233 0.22768976
-0.022502108 -0.022158692 0.22767662
-0.022308033 -0.02582209 0.23193608
-0.015677927 0.040501539 0.18520094
-0.015859209 0.037839931 0.18661903
-0.01608818 0.034727041 0.18869437
-0.01669248 0.031848457 0.19125868
-0.016873652 0.029398374 0.19350243
-0.016661609 0.026171088 0.19766484
-0.017382139 0.021816308 0.20140465
-0.017212557 0.018370721 0.20427521
-0.01756563 0.014207606 0.20679896
-0.018699974 0.011177178 0.20952114
-0.020344187 0.0078196321 0.21166709
-0.019898959 0.0043749632 0.2145863
-0.019378966 0.00090983784 0.21752468
-0.018998185 -0.0024714933 0.22075619
-0.018906925 -0.0057211234 0.22406684
-0.019471163 -0.0092809116 0.225017
-0.018883767 -0.012464169 0.22615369
-0.018657546 -0.015801856 0.2272791
-0.019409439 -0.019298736 0.22816706
-0.019090056 -0.022627605 0.22932704
-0.018623363 -0.026049506 0.23342381
-0.013452932 0.037487369 0.1879186
-0.013794841 0.034195617 0.19012488
-0.014025077 0.031564265 0.19221063
-0.014092603 0.029091034 0.19420633
-0.013533226 0.026407501 0.19738264
-0.014177428 0.02283616 0.20172451
-0.014367199 0.019233931 0.20515475
-0.014049142 0.015689177 0.20848416
-0.014233693 0.012104096 0.21081276
-0.01482173 0.0083071925 0.21300159
-0.015032772 0.0051770899 0.21556599
-0.014958372 0.0017156079 0.21841687
-0.014940393 -0.0017363715 0.22197446
-0.015257044 -0.0050162221 0.22436883
-0.015200505 -0.0085031474 0.22558215
-0.015087303 -0.012615389 0.2269067
-0.015177686 -0.016726244 0.2284413
-0.015618782 -0.020363189 0.23019181
-0.015601578 -0.023425987 0.23212667
-0.015199612 -0.026051022 0.23524527
-0.011221078 0.03416973 0.19044957
-0.010746671 0.031538203 0.19251752
-0.010720088 0.028921856 0.19473055
-0.010237985 0.026481839 0.19784361
-0.010833828 0.023637366 0.20189914
-0.011376231 0.020285733 0.20574147
-0.010790745 0.017029025 0.20869596
-0.010666471 0.012850856 0.21092014
-0.010377141 0.0091261202 0.21342362
-0.01057374 0.0057444335 0.21642399
-0.010848849 0.002371741 0.2193034
-0.01102786 -0.0012218821 0.22255586
-0.01147403 -0.004431786 0.22424863
-0.011766288 -0.0081836935 0.22535376
-0.011693229 -0.012314538 0.22650661
-0.011552763 -0.016487904 0.22949627
-0.011549158 -0.020084297 0.23138158
-0.011989119 -0.023838175 0.23453662
-0.012476221 -0.026061181 0.23663403
-0.0073091895 0.031335581 0.19351967
-0.0070695067 0.029056568 0.19630627
-0.0070054838 0.026438173 0.19943351
-0.0076663508 0.023769833 0.20227908
-0.0081309387 0.02094548 0.20605358
-0.0076445057 0.017400645 0.20880772
-0.0070276996 0.013547148 0.21090277
-0.0065593445 0.0098393606 0.21322051
-0.0066111628 0.0061395946 0.21692745
-0.0069654868 0.0024757597 0.21997556
-0.0071145939 -0.0010586972 0.22275777
-0.0072032609 -0.0044257925 0.22384195
-0.0078928228 -0.0080200443 0.22567362
-0.0082143899 -0.012448953 0.22668134
-0.0079278769 -0.016679276 0.23016986
-0.0084093893 -0.020193063 0.23201837
-0.0089913923 -0.023161165 0.23423246
-0.0046344246 0.030876298 0.19519673
-0.0031870271 0.029075118 0.19774488
-0.0034354664 0.026204765 0.20022491
-0.0042707701 0.023589952 0.20249453
-0.0042773806 0.020690259 0.20551609
-0.0043590525 0.017353648 0.20844099
-0.0035098693 0.013543167 0.21062674
-0.0029730536 0.010230723 0.21304898
-0.0028289736 0.0066086981 0.21637164
-0.0033396208 0.0028907484 0.21928385
-0.0032483973 -0.00075187063 0.22223715
-0.0032134382 -0.0046824282 0.22337519
-0.0040081353 -0.0085320687 0.22576183
-0.0048947735 -0.012710587 0.22700094
-0.0055258283 -0.016386081 0.23002259
-0.00010336438 0.028215645 0.19887178
-0.00024052266 0.026000919 0.2003358
-0.00078253954 0.023449289 0.20237035
-0.0010029076 0.020528201 0.20487721
-0.00081626663 0.016939165 0.20764071
-7.6813027e-05 0.013448046 0.2102983
0.00044836558 0.010310992 0.21265168
0.00072555797 0.0067886338 0.21520929
-3.385056e-05 0.0032751502 0.21786597
0.00044843048 -0.00051554374 0.22052024
0.00012333215 -0.0044664685 0.22307917
-0.0017152535 -0.0080636274 0.2261961
0.0030722967 0.025755947 0.20075829
0.0032050151 0.023070978 0.2026269
0.0027675165 0.020131346 0.20457792
0.0027244317 0.016695758 0.20730029
0.0036347387 0.012844942 0.20972084
0.003128652 0.010318276 0.21185359
0 0 0 1 0 0 0 1 0 0 0 1 0 0 0 0 0 346 1 0 0
