ply
format ascii 1.0
comment PCL generated
element vertex 346
property float x
property float y
property float z
element camera 1
property float view_px
property float view_py
property float view_pz
property float x_axisx
property float x_axisy
property float x_axisz
property float y_axisx
property float y_axisy
property float y_axisz
property float z_axisx
property float z_axisy
property float z_axisz
property float focal
property float scalex
property float scaley
property float centerx
property float centery
property int viewportx
property int viewporty
property float k1
property float k2
end_header
-0.059700053 0.027259903 0.19106187
-0.060047321 0.024475951 0.19213042
-0.060214661 0.02180166 0.19329792
-0.0603224 0.018877013 0.19472297
-0.06063325 0.016135897 0.19575727
-0.059113711 0.012810694 0.19777748
-0.056377437 0.030041985 0.18744218
-0.057532072 0.02771656 0.18929565
-0.05705699 0.024638889 0.1900823
-0.056979157 0.021843897 0.19167604
-0.057459846 0.019017858 0.19323115
-0.057926245 0.01572473 0.19496427
-0.057491653 0.012867569 0.19679025
-0.057143085 0.010051819 0.19864313
-0.056974817 0.0073739784 0.20023434
-0.048961625 0.030733885 0.18160203
-0.050586645 0.029336253 0.18340367
-0.053193003 0.027573986 0.18582976
-0.053593282 0.024653833 0.18807688
-0.053116463 0.021898791 0.19029595
-0.053575028 0.019098978 0.19201563
-0.053990062 0.01593831 0.19367038
-0.054517355 0.012937212 0.19567603
-0.054997023 0.0091891875 0.19787039
-0.055755392 0.0055106347 0.19983788
-0.055661585 0.0022495913 0.20226116
-0.055748075 -0.00044604533 0.20434727
-0.045120399 0.032756977 0.17883585
-0.045711257 0.030884029 0.1803553
-0.046642207 0.02900297 0.18230662
-0.047961049 0.027264951 0.18437797
-0.049645834 0.024817802 0.18794096
-0.049467247 0.021972913 0.1904331
-0.049797997 0.019070538 0.19239275
-0.050348591 0.01602279 0.19390021
-0.0514948 0.012864982 0.19534013
-0.052406341 0.0083409939 0.19671325
-0.053379003 0.0036557987 0.19699132
-0.053828143 0.00037972711 0.20044523
-0.053437252 -0.0023967903 0.20389877
-0.053341184 -0.0043927184 0.20763512
-0.053696129 -0.0056342641 0.21140699
-0.042099867 0.035945117 0.17745195
-0.042723503 0.033755112 0.17855088
-0.042909119 0.031577714 0.18034704
-0.043460112 0.029700357 0.18259384
-0.044344526 0.027709221 0.18525313
-0.045514252 0.024674544 0.18881261
-0.04573166 0.021703565 0.19114065
-0.045919087 0.01892524 0.19269031
-0.046784732 0.015722534 0.19426122
-0.048333418 0.012847312 0.19505897
-0.049258355 0.0077541322 0.19447845
-0.049644805 0.0023944103 0.19332965
-0.049287502 -0.002093368 0.19706576
-0.049873423 -0.0032304958 0.2036888
-0.050332163 -0.0050073466 0.20817432
-0.051526874 -0.0065549803 0.21219425
-0.05247556 -0.0084362198 0.21490791
-0.053306695 -0.010075313 0.21898073
-0.040199697 0.037836224 0.17735125
-0.040120944 0.034708723 0.17890324
-0.040428657 0.032329939 0.18088277
-0.040908705 0.030401666 0.18329488
-0.04157687 0.028110629 0.18660572
-0.042391039 0.024170402 0.18963498
-0.042541523 0.021414213 0.19137193
-0.04315367 0.018947119 0.19266154
-0.043521259 0.016219035 0.19406669
-0.044512246 0.012825844 0.19520606
-0.045812588 0.0066369022 0.19265439
-0.043573774 0.00059078139 0.19222376
-0.040804841 -0.0040979227 0.19506301
-0.046121739 -0.0046490286 0.20379367
-0.047174118 -0.0054893359 0.20882009
-0.048105493 -0.0063692192 0.21293813
-0.049421184 -0.0079680299 0.21641813
-0.051218342 -0.0099615119 0.22045965
-0.05094856 -0.012323196 0.22313458
-0.049522173 -0.015314888 0.22300538
-0.037622508 0.041113373 0.17677642
-0.037677605 0.039310839 0.17790718
-0.037517846 0.036102436 0.17908397
-0.038012609 0.033073332 0.18140967
-0.038337138 0.031273834 0.18452924
-0.039093811 0.027722267 0.18845959
-0.03935191 0.023951141 0.19037804
-0.039802764 0.021281665 0.19188336
-0.040355697 0.018806854 0.19322814
-0.040977612 0.01617085 0.1945765
-0.041892953 0.012653517 0.19541065
-0.042768098 0.0058774059 0.19292088
-0.040360615 0.00092617114 0.19456846
-0.039800841 -0.0030544114 0.1981613
-0.04267706 -0.0051858653 0.20455682
-0.043983508 -0.0057311435 0.20951098
-0.045200448 -0.0070494083 0.21332526
-0.046332445 -0.0084468601 0.21647529
-0.047102764 -0.0096451538 0.21978852
-0.047003455 -0.013171484 0.22200318
-0.0473512 -0.017414477 0.22475104
-0.046252526 -0.020307014 0.22612144
-0.035080403 0.042393029 0.17667913
-0.034665626 0.040929921 0.17803623
-0.0338872 0.038507804 0.17925031
-0.033744313 0.036128413 0.18119353
-0.034730103 0.032551777 0.18510725
-0.03577679 0.027507987 0.1897686
-0.03639596 0.024213484 0.19120504
-0.037055269 0.021261193 0.19282968
-0.037762869 0.018717213 0.19415748
-0.03854645 0.015827829 0.19562189
-0.039547145 0.011849866 0.19624458
-0.039771076 0.0071400232 0.19434658
-0.038670752 0.0024131055 0.19678311
-0.038726028 -0.00093616691 0.20050947
-0.040388163 -0.0033560086 0.20578705
-0.040699724 -0.0058681918 0.21107993
-0.042168614 -0.0076017929 0.21441628
-0.042854257 -0.0094529968 0.21660586
-0.043290101 -0.012021708 0.21890362
-0.043878891 -0.015389918 0.22069994
-0.044009987 -0.01893355 0.22309558
-0.042828325 -0.021110125 0.22509012
-0.032021988 0.042816255 0.1767744
-0.031542085 0.041474558 0.17819986
-0.030992229 0.039147876 0.1802015
-0.030766027 0.036985137 0.18239154
-0.030954037 0.033180639 0.18611407
-0.032443125 0.028355489 0.19019395
-0.033136614 0.025076373 0.19173191
-0.034011729 0.021485437 0.19369198
-0.035275463 0.018356372 0.19542304
-0.036056645 0.015204962 0.1969589
-0.037377328 0.011282448 0.1973587
-0.037697531 0.0078177508 0.19614805
-0.036669064 0.0038228184 0.19904275
-0.036573034 0.00086060585 0.20261975
-0.037995342 -0.0016877605 0.20694236
-0.038823646 -0.0044253822 0.21149895
-0.039489295 -0.0065844785 0.21559109
-0.040302165 -0.0092383595 0.21741824
-0.040213816 -0.012437677 0.21838169
-0.04070814 -0.01577268 0.21972823
-0.040795971 -0.019227978 0.22163936
-0.039351456 -0.021539988 0.22381774
-0.029045369 0.042858772 0.17759582
-0.028553959 0.041609723 0.17891416
-0.028182268 0.03938311 0.1806822
-0.02776368 0.037215587 0.18343294
-0.027655773 0.033773873 0.1872206
-0.028569264 0.029691847 0.19022673
-0.029767148 0.026016325 0.19253463
-0.030966088 0.022258623 0.19438702
-0.032741185 0.018158337 0.19714464
-0.033710647 0.01432842 0.19939537
-0.034995154 0.011186713 0.19920807
-0.03521952 0.0092283804 0.19853063
-0.034191586 0.0062752282 0.2013396
-0.033352979 0.0032416738 0.20459215
-0.035126183 -0.00075698947 0.20844455
-0.036429308 -0.0034938769 0.21253304
-0.036927432 -0.00626203 0.21730316
-0.037449934 -0.0097142532 0.21829103
-0.03760663 -0.012929427 0.2189752
-0.037606034 -0.016280297 0.22048013
-0.037288234 -0.019585744 0.22204255
-0.035553806 -0.021778978 0.22432154
-0.026042836 0.043258522 0.17829238
-0.025623485 0.04215375 0.17959194
-0.024993869 0.039873593 0.18109584
-0.024753075 0.037507828 0.18426375
-0.024631791 0.034829337 0.18742721
-0.025238797 0.03134105 0.19006459
-0.026249524 0.027242826 0.19304416
-0.027857089 0.022707412 0.19590183
-0.029742317 0.017746441 0.19986793
-0.03109614 0.014139586 0.20205908
-0.031064034 0.01241677 0.20230305
-0.032008346 0.01097691 0.20197593
-0.031297032 0.0077094468 0.20494473
-0.030991627 0.0041738651 0.2073203
-0.03263846 6.9814698e-05 0.21150802
-0.03215022 -0.0035799264 0.21634153
-0.033468667 -0.0075230165 0.21885748
-0.034454238 -0.010760367 0.21970581
-0.034716886 -0.013405083 0.22015145
-0.034416925 -0.016690683 0.22135398
-0.032808654 -0.01950353 0.22351754
-0.031542458 -0.021775903 0.22538438
-0.030512394 -0.024521362 0.2290732
-0.022659997 0.044398956 0.17890851
-0.021932283 0.042845763 0.18054175
-0.021831786 0.040179692 0.1826122
-0.021702731 0.037596315 0.18491943
-0.02190024 0.0351266 0.18815516
-0.022216005 0.032237269 0.19063444
-0.022542454 0.029095268 0.19312704
-0.023422953 0.025026608 0.19615529
-0.025072707 0.018471513 0.20212531
-0.026656952 0.014890607 0.2044953
-0.027346822 0.01320169 0.20546548
-0.028236423 0.011153903 0.20557214
-0.028540149 0.0077991579 0.20758493
-0.028820243 0.0041312939 0.21021499
-0.02808452 0.00019930709 0.214324
-0.027444858 -0.0038423922 0.21800821
-0.028809518 -0.0081409197 0.22039758
-0.029994041 -0.01132357 0.22182034
-0.029935267 -0.013860021 0.22324874
-0.028860878 -0.016673855 0.22533262
-0.026873294 -0.01894764 0.22603096
-0.02703155 -0.022059318 0.22678161
-0.026083566 -0.025252441 0.23049453
-0.018745312 0.042779073 0.18256363
-0.018867562 0.040787317 0.18464106
-0.01892205 0.038232286 0.18623108
-0.019282492 0.035384152 0.18868798
-0.019425362 0.032751452 0.19118822
-0.019415831 0.030056445 0.19346479
-0.0196294 0.026310364 0.19759968
-0.02017498 0.021394923 0.20187908
-0.020863304 0.016587064 0.20568255
-0.022501556 0.013224477 0.20759352
-0.023673564 0.011042023 0.20842759
-0.024972269 0.0079474216 0.21007213
-0.024513956 0.003963083 0.21296823
-0.023231616 0.0002419926 0.21620429
-0.023338245 -0.0034391624 0.21889025
-0.023833726 -0.0074904133 0.22141638
-0.024561789 -0.010709918 0.22269958
-0.023590723 -0.013827152 0.22466378
-0.022190789 -0.016321748 0.22669229
-0.022159336 -0.018670924 0.22649318
-0.022190809 -0.022011675 0.22648136
-0.021935822 -0.025607072 0.23073894
-0.015901918 0.040999975 0.18605602
-0.01616977 0.038482442 0.18767332
-0.016355278 0.035341557 0.18971327
-0.016917769 0.032361157 0.19229147
-0.016993931 0.02971982 0.19441429
-0.016600527 0.026361514 0.19853665
-0.01722143 0.022055004 0.202545
-0.016981596 0.018600905 0.20545748
-0.017302036 0.014483782 0.20814754
-0.018588774 0.011332968 0.21021782
-0.020306943 0.007749327 0.21161379
-0.019758344 0.0042462894 0.21428661
-0.019217696 0.00079107587 0.21712497
-0.018722229 -0.0026255439 0.22010578
-0.018725829 -0.0058515575 0.22333799
-0.019304195 -0.0094189383 0.22411577
-0.018748343 -0.012500744 0.22508749
-0.018514762 -0.015757354 0.22621295
-0.019203132 -0.019224528 0.22702545
-0.01877947 -0.022390809 0.22824332
-0.018335762 -0.025716553 0.23240244
-0.013700715 0.038016193 0.18882981
-0.013965428 0.034661967 0.19107097
-0.014181376 0.031943843 0.19312978
-0.014166409 0.029339416 0.19500586
-0.0135014 0.02648877 0.19808143
-0.013989389 0.022900304 0.20253912
-0.01407047 0.01932455 0.20607094
-0.013635663 0.01584358 0.20945802
-0.013930416 0.012159837 0.21133818
-0.01463171 0.0082196556 0.2129036
-0.014876353 0.0051056868 0.21541068
-0.014819143 0.0016507012 0.2182288
-0.014775968 -0.0018412387 0.22160192
-0.015169463 -0.0050356304 0.22382665
-0.015137927 -0.0084831929 0.22489753
-0.015119621 -0.012472906 0.22620246
-0.01517863 -0.016495237 0.22777778
-0.01560419 -0.020146146 0.22947361
-0.015551419 -0.023098957 0.23139648
-0.015195855 -0.025636511 0.2345587
-0.011212182 0.034381565 0.19106928
-0.01072707 0.031614888 0.19304582
-0.01066651 0.028870959 0.19516221
-0.010150398 0.026318502 0.19825971
-0.010657928 0.023455495 0.20235498
-0.011131065 0.020184243 0.20623083
-0.010476786 0.016956506 0.20921834
-0.010467887 0.012759367 0.21121389
-0.010253506 0.0090034101 0.21352817
-0.01047539 0.0057500866 0.21653669
-0.010756908 0.0023722264 0.21936934
-0.010933243 -0.001326861 0.22240205
-0.011400239 -0.0044106254 0.22397426
-0.011718679 -0.0081169475 0.22489865
-0.011741622 -0.012155448 0.22612981
-0.011699745 -0.016199363 0.22925587
-0.011746454 -0.019769812 0.23120876
-0.012258155 -0.023439426 0.23426224
-0.012740975 -0.025628373 0.2362746
-0.0071420749 0.03101705 0.19366984
-0.0068620085 0.028777333 0.19654605
-0.0068046148 0.026152268 0.19976833
-0.0075347438 0.023421908 0.20248257
-0.0080668498 0.020616328 0.20631409
-0.0075337566 0.017215749 0.20921557
-0.0068607116 0.013425969 0.21123485
-0.0064289989 0.0096592307 0.21343067
-0.0065495013 0.0060744486 0.2171459
-0.0068855654 0.0024738698 0.22011831
-0.0070470492 -0.0011044366 0.22279052
-0.0071405973 -0.0044275005 0.22388504
-0.007884887 -0.0079546385 0.22564217
-0.0082894713 -0.012290441 0.22666715
-0.008123639 -0.016402254 0.23026942
-0.0086771557 -0.019846018 0.23210976
-0.009309628 -0.022774221 0.23430249
-0.004363107 0.030516459 0.19545574
-0.0029401234 0.028893039 0.1983455
-0.0032939492 0.026017219 0.20080414
-0.0041876775 0.023275495 0.2028245
-0.0042103268 0.020431099 0.20595719
-0.0042687384 0.017298779 0.20906758
-0.0033483356 0.013512607 0.21117234
-0.0028225882 0.010105636 0.21348521
-0.0027438083 0.0064665582 0.21665896
-0.0032293582 0.0028930181 0.21946673
-0.0031660153 -0.00074956991 0.22241108
-0.0031353359 -0.0046656881 0.223608
-0.004013347 -0.0084747747 0.22605073
-0.0049618836 -0.012613213 0.22721455
-0.0056844731 -0.016091747 0.23021679
8.8699759e-05 0.028111475 0.19970626
-0.00011741667 0.02592846 0.20108609
-0.0006746102 0.023349904 0.20297617
-0.00089180405 0.020471381 0.20556693
-0.00067109865 0.017134756 0.20870592
0.00010427977 0.013525601 0.21120287
0.00059962313 0.010278081 0.21337907
0.00081307511 0.0066252481 0.21572986
8.0538361e-05 0.0032277307 0.21818289
0.00058179168 -0.00048323136 0.22078659
0.00021453109 -0.004435916 0.2234347
-0.0017310098 -0.0080064451 0.22655813
0.0031836613 0.025870057 0.2018107
0.0033190991 0.023259424 0.20371404
0.0028958528 0.020346131 0.20569099
0.0029090149 0.016970735 0.20858161
0.0038615793 0.012973672 0.21088693
0.0033019474 0.010352376 0.21280265
0 0 0 1 0 0 0 1 0 0 0 1 0 0 0 0 0 346 1 0 0
