ply
format ascii 1.0
comment PCL generated
element vertex 346
property float x
property float y
property float z
element camera 1
property float view_px
property float view_py
property float view_pz
property float x_axisx
property float x_axisy
property float x_axisz
property float y_axisx
property float y_axisy
property float y_axisz
property float z_axisx
property float z_axisy
property float z_axisz
property float focal
property float scalex
property float scaley
property float centerx
property float centery
property int viewportx
property int viewporty
property float k1
property float k2
end_header
-0.057188924 0.030889124 0.1871386
-0.057927664 0.028022476 0.18790914
-0.058395665 0.025261845 0.18946116
-0.058866244 0.022390749 0.1912038
-0.059058782 0.019317217 0.19250469
-0.05868936 0.016584193 0.19434752
-0.052735794 0.032902602 0.18345267
-0.053928345 0.03057342 0.18516627
-0.053856708 0.027643854 0.18578967
-0.054330364 0.025002358 0.18756336
-0.054967925 0.022353437 0.18953235
-0.055680871 0.019501306 0.19170073
-0.056019373 0.016626222 0.1934402
-0.056502674 0.013469037 0.19503301
-0.056197878 0.010162733 0.19635874
-0.048042845 0.035344157 0.17949814
-0.048923973 0.032944858 0.18091497
-0.049505048 0.030022822 0.18246792
-0.04997569 0.027200693 0.18425584
-0.050606124 0.024860263 0.18685922
-0.051311705 0.022243498 0.18892248
-0.052085321 0.019834163 0.19144125
-0.052741591 0.017225325 0.19357944
-0.053326715 0.013567207 0.19485436
-0.053938679 0.0093263965 0.19641252
-0.054368667 0.0054316092 0.19997625
-0.053813603 0.0020742703 0.20278598
-0.044597425 0.037802719 0.17732319
-0.045223683 0.035456397 0.178351
-0.045631826 0.032928597 0.17998432
-0.046068311 0.030237783 0.18194656
-0.046705052 0.027347032 0.18449433
-0.047328424 0.024961645 0.18746382
-0.0480006 0.022646654 0.18988462
-0.048921164 0.020271307 0.19236043
-0.049807847 0.017623462 0.19493951
-0.050288755 0.013627634 0.19584674
-0.05041267 0.0088890744 0.19596508
-0.051005892 0.0044985297 0.1992157
-0.050890096 0.00093877007 0.20433372
-0.051688399 -0.0019380172 0.20824639
-0.05211772 -0.003770303 0.21226977
-0.041194543 0.040389493 0.17661016
-0.042013425 0.038356382 0.17742629
-0.04224043 0.035757057 0.17881516
-0.042641286 0.033310466 0.1805609
-0.043270953 0.030758914 0.18286282
-0.043555498 0.027616551 0.18569525
-0.04405079 0.025106538 0.1886224
-0.044750113 0.022707449 0.19096164
-0.045621071 0.020265887 0.19329913
-0.046806909 0.017853247 0.19593281
-0.04709208 0.013633241 0.19722623
-0.046635378 0.0087510729 0.19684267
-0.046526521 0.0037947309 0.19950528
-0.047445465 0.00073926861 0.20538922
-0.048401371 -0.0019663561 0.20951
-0.04955285 -0.0040475684 0.21328346
-0.0503361 -0.0060783965 0.21629712
-0.051040385 -0.0083289118 0.21956657
-0.038792107 0.041199427 0.17644922
-0.039157901 0.038766496 0.17824759
-0.039421432 0.036034565 0.17970091
-0.039877616 0.033489596 0.18149416
-0.040118858 0.030673509 0.18388373
-0.04058177 0.027380845 0.18693089
-0.041117582 0.025036605 0.1895517
-0.041685756 0.022703851 0.19158638
-0.042313274 0.020262845 0.19396111
-0.043533884 0.017926067 0.19691153
-0.043552324 0.013621408 0.19856341
-0.042259376 0.0086599216 0.19822012
-0.041194461 0.0032745267 0.19983192
-0.043845993 0.00010711667 0.2065247
-0.045028269 -0.0020436873 0.21081862
-0.045962788 -0.0036784748 0.21455257
-0.047055297 -0.0058870721 0.21774824
-0.048435785 -0.0089114774 0.22078872
-0.04898522 -0.01224767 0.22381786
-0.048214767 -0.016213117 0.22436416
-0.035626326 0.043067385 0.17530684
-0.036106277 0.041741595 0.17693143
-0.036318135 0.039276257 0.17880493
-0.036608037 0.036283523 0.18020488
-0.036914729 0.033771809 0.18238585
-0.037233274 0.030458398 0.18534625
-0.037545487 0.027383978 0.18790828
-0.038189366 0.025212931 0.19031736
-0.038888272 0.022862159 0.19286557
-0.039487313 0.02034856 0.19507371
-0.040131088 0.017707629 0.19847207
-0.039804626 0.013627415 0.19966914
-0.038845744 0.0081349034 0.20027684
-0.038458947 0.0030507408 0.20218995
-0.04032531 -6.1006351e-05 0.20790318
-0.041643262 -0.0016455987 0.21233505
-0.042569593 -0.0037098608 0.21576907
-0.042915594 -0.0070366762 0.21729586
-0.043625638 -0.010311741 0.21928515
-0.044035401 -0.014655949 0.22085823
-0.044614032 -0.018831197 0.2239777
-0.043513533 -0.021361887 0.22642824
-0.032960739 0.043593481 0.17586677
-0.033120845 0.042259265 0.17734089
-0.032998413 0.0397585 0.17949177
-0.033055436 0.036868446 0.18073946
-0.033498533 0.034109984 0.183193
-0.034122229 0.030922109 0.18718036
-0.034512542 0.027821029 0.18885571
-0.035190068 0.025215289 0.19131611
-0.035834532 0.022822622 0.19415298
-0.036454353 0.020235378 0.1970115
-0.036845613 0.017198846 0.20001334
-0.036424201 0.013745648 0.20041662
-0.035952222 0.0086066779 0.20177566
-0.035890434 0.0042123627 0.20460992
-0.037465524 0.0014437689 0.2094125
-0.038434304 -0.00106845 0.21390219
-0.039125845 -0.0038386348 0.216813
-0.039255563 -0.0073004975 0.21771105
-0.039199237 -0.011540804 0.21870901
-0.039511688 -0.01562182 0.22032169
-0.040012069 -0.019325973 0.22346853
-0.040154833 -0.021737788 0.22666378
-0.030013409 0.04380386 0.17666124
-0.029918514 0.042370282 0.17793289
-0.030019496 0.039890211 0.17983918
-0.030207852 0.037207045 0.18180504
-0.030470544 0.034332063 0.18440638
-0.031044088 0.031288061 0.18804768
-0.031462513 0.028299855 0.18984449
-0.032049779 0.025317388 0.19224271
-0.032580301 0.022435501 0.19545406
-0.033278126 0.019803213 0.19826093
-0.033644728 0.01667374 0.20076896
-0.033250973 0.01349477 0.20123923
-0.032775089 0.0088989576 0.20321506
-0.033125479 0.0053435154 0.2064362
-0.034516476 0.0027588042 0.21078336
-0.03545377 -0.00033460162 0.21483356
-0.035783865 -0.0038168428 0.21741317
-0.035881765 -0.0072969496 0.21865667
-0.036028855 -0.011495532 0.22004418
-0.036156386 -0.015375027 0.2216173
-0.036259677 -0.019002454 0.22352502
-0.036182109 -0.021684039 0.22653539
-0.026910953 0.044097051 0.17702496
-0.026933609 0.042580675 0.17827891
-0.027178712 0.039919354 0.18001057
-0.027159726 0.037355088 0.18233496
-0.027339026 0.03412969 0.18485288
-0.027824808 0.031529307 0.18818705
-0.028292771 0.028608408 0.19060363
-0.028837098 0.025556823 0.1930643
-0.029362876 0.022204388 0.19657746
-0.029854035 0.019134814 0.20004889
-0.03034107 0.016336584 0.20163754
-0.02974879 0.013511876 0.20240006
-0.029996952 0.0099664079 0.20542382
-0.030270256 0.006626464 0.20826845
-0.031253986 0.0030996928 0.21199691
-0.032106075 6.4243744e-05 0.21516654
-0.032393809 -0.0038629121 0.21850699
-0.032647185 -0.0074340669 0.21953017
-0.032869209 -0.01135192 0.2212555
-0.033054378 -0.015105461 0.22372921
-0.032863166 -0.018603874 0.22568262
-0.033077594 -0.02180415 0.22844496
-0.024022609 0.044311617 0.17781344
-0.023908295 0.042891178 0.17911763
-0.023983046 0.040109523 0.18041086
-0.024052765 0.037089612 0.18241952
-0.024238927 0.034383543 0.18519585
-0.024635501 0.031846032 0.1881772
-0.025173856 0.028909197 0.1914262
-0.025615957 0.025472684 0.19438782
-0.025935084 0.021713858 0.19792493
-0.026410287 0.018333359 0.200803
-0.025786515 0.015863033 0.20258839
-0.026332477 0.013858136 0.20422123
-0.027263176 0.010583502 0.20827128
-0.027647857 0.0072371718 0.21076664
-0.028215693 0.0035592527 0.21415676
-0.028482493 -0.00035579473 0.2164088
-0.028965093 -0.0044811936 0.21941014
-0.029124254 -0.0079029249 0.22074482
-0.029498281 -0.011429907 0.22248317
-0.029646711 -0.014762288 0.22522467
-0.02940277 -0.018254269 0.22730313
-0.029879106 -0.02189672 0.22959949
-0.030385116 -0.024798801 0.23371138
-0.020960329 0.044604741 0.17871532
-0.020803681 0.043211542 0.18018669
-0.021027502 0.04027589 0.18184276
-0.020987798 0.037277941 0.18315633
-0.021248164 0.034652546 0.1863555
-0.021673067 0.032168332 0.18892191
-0.022068003 0.029552097 0.19201666
-0.022458145 0.026231792 0.19523931
-0.022663374 0.02173201 0.198732
-0.023171047 0.01809961 0.20151031
-0.022569152 0.015321549 0.20405175
-0.022933345 0.012970507 0.20620263
-0.023907777 0.010283803 0.20958541
-0.024916999 0.0073385029 0.2129823
-0.024971794 0.0034687847 0.21506877
-0.024806622 -0.00079957524 0.21673863
-0.025286507 -0.0045735072 0.2199885
-0.025490694 -0.0082576293 0.22176076
-0.025467724 -0.011528437 0.2234408
-0.025677908 -0.014563853 0.22664723
-0.025838124 -0.018371509 0.22843063
-0.026508918 -0.022482838 0.2299812
-0.026449718 -0.025970513 0.23417893
-0.018182892 0.043221552 0.18178503
-0.018180763 0.041003827 0.18373609
-0.018224109 0.037947182 0.18500319
-0.018402763 0.035113461 0.18700801
-0.018539649 0.032477047 0.189603
-0.018766064 0.029826986 0.19231714
-0.018971588 0.026510296 0.19652231
-0.019226031 0.022722026 0.19910069
-0.019552533 0.018850198 0.2020579
-0.019491216 0.015349543 0.20440631
-0.019573284 0.012313042 0.20703287
-0.020478508 0.0096977502 0.21025001
-0.021359203 0.0066522434 0.21346182
-0.021266967 0.0032346847 0.21544576
-0.021241613 -0.00055845384 0.21773459
-0.02161991 -0.0043372037 0.22117087
-0.021851502 -0.0081600174 0.22301835
-0.021636764 -0.011671146 0.22424257
-0.021421125 -0.014910485 0.22717288
-0.021687623 -0.018465627 0.22829133
-0.022209585 -0.022554796 0.22927032
-0.022572573 -0.026430089 0.23467484
-0.015262829 0.041117288 0.18494174
-0.015287457 0.038448062 0.1864869
-0.015401253 0.035663601 0.18823731
-0.015563576 0.032721672 0.19065291
-0.015771378 0.029975306 0.19294226
-0.015623825 0.026826214 0.19697139
-0.016055642 0.022950981 0.20002997
-0.016199544 0.019538671 0.20226409
-0.01639835 0.015833195 0.20405337
-0.016214119 0.012419132 0.20751877
-0.016856177 0.0096820304 0.21062668
-0.01744942 0.0067150858 0.21337722
-0.017525326 0.0035963447 0.21624482
-0.017629128 -0.00025994354 0.21948829
-0.017898936 -0.003878854 0.22256239
-0.017994925 -0.0077377004 0.22427224
-0.017596535 -0.011500084 0.22551346
-0.017756592 -0.015270722 0.22697765
-0.018394861 -0.019002691 0.22861165
-0.01858812 -0.022953598 0.23095547
-0.018891949 -0.026528986 0.23612526
-0.012584395 0.03825986 0.1878901
-0.012363113 0.035672761 0.18944228
-0.012497938 0.032741461 0.19159868
-0.012637898 0.029948335 0.19341239
-0.012332481 0.027028894 0.19651225
-0.012727724 0.023417385 0.20032935
-0.013152606 0.019973155 0.20345847
-0.013260324 0.016494114 0.2061324
-0.013126606 0.013388298 0.20882326
-0.013255405 0.010365799 0.21115196
-0.013389145 0.0072648986 0.2138947
-0.013748471 0.003842063 0.21730243
-0.013981367 -8.2437746e-06 0.22067766
-0.014103292 -0.0036690824 0.22289863
-0.014096959 -0.0074966862 0.22448242
-0.014046402 -0.012031333 0.22629884
-0.014188185 -0.016036075 0.22799554
-0.014731964 -0.019667923 0.22997004
-0.015038174 -0.023586903 0.23348492
-0.015047213 -0.026584165 0.23762812
-0.009504254 0.035250653 0.19000871
-0.0089558 0.03270036 0.19177638
-0.009145814 0.029884569 0.19382183
-0.0089976536 0.02724221 0.19702192
-0.0095722526 0.02406292 0.20099202
-0.0099978698 0.020832969 0.2048813
-0.009835192 0.017790761 0.20791717
-0.009774467 0.014471669 0.2102661
-0.0096550807 0.010920342 0.211758
-0.0097323488 0.0074273148 0.2147816
-0.01009314 0.0038120712 0.21783897
-0.010090715 -4.2189517e-05 0.22079772
-0.01031754 -0.003610204 0.22291304
-0.010612211 -0.007694962 0.22485425
-0.010490886 -0.012084481 0.22563149
-0.010693308 -0.016228516 0.22907427
-0.010963788 -0.019920411 0.23106532
-0.011395268 -0.024057155 0.23526029
-0.012067286 -0.026367163 0.23784885
-0.0057491059 0.03206487 0.19224373
-0.0056028878 0.029669967 0.19474384
-0.0058360049 0.027124362 0.1984642
-0.0061978749 0.024451116 0.20141897
-0.0065261368 0.021852339 0.2056317
-0.0062798625 0.018910734 0.20905551
-0.0060965181 0.01513707 0.21104328
-0.0061344863 0.011400158 0.21227045
-0.0061333268 0.0073747151 0.2149404
-0.0063476828 0.0033617404 0.21780613
-0.0063933562 -0.00038626028 0.22112927
-0.0065319017 -0.00380155 0.22279961
-0.0069211442 -0.0076650637 0.22542433
-0.0070243529 -0.012503012 0.22604935
-0.0071844123 -0.016557399 0.22956808
-0.0078269076 -0.020277457 0.23191884
-0.0085246414 -0.023249218 0.23398159
-0.0029836677 0.031360716 0.19364534
-0.0020722933 0.02958506 0.19644673
-0.0023954434 0.027038479 0.19908381
-0.0025852586 0.02447978 0.20183572
-0.0026281641 0.021814618 0.20507818
-0.002730116 0.019033864 0.20860434
-0.0024280299 0.015214405 0.2110676
-0.0025887378 0.01148213 0.21286039
-0.0025173584 0.0074971612 0.21499193
-0.0027064073 0.0030927449 0.21697225
-0.0026066652 -0.00046095205 0.22035258
-0.0028453625 -0.0042048106 0.22238795
-0.0032005135 -0.0080978656 0.22559758
-0.0038307398 -0.012820125 0.22655086
-0.0046539232 -0.016228426 0.22900061
0.00087177538 0.029219884 0.19812162
0.00096350035 0.027457163 0.19991222
0.0008707071 0.024884108 0.20209663
0.00090016576 0.021814946 0.20449424
0.0009918235 0.018953836 0.20749283
0.0012833285 0.015353047 0.21025288
0.0013146282 0.011693303 0.21255429
0.0013609814 0.0078262705 0.2142016
0.00079403835 0.0032798604 0.21570075
0.0009954964 -0.00070941338 0.21857086
0.00041484137 -0.004145286 0.22196418
-0.00084749813 -0.0074467338 0.22593524
0.0042729843 0.027646923 0.20039105
0.0046394528 0.024893709 0.20201556
0.0046243835 0.021680474 0.2037597
0.0044632535 0.018762501 0.20689034
0.0048347977 0.015365728 0.20898496
0.0043256874 0.012184153 0.21133229
0 0 0 1 0 0 0 1 0 0 0 1 0 0 0 0 0 346 1 0 0
