ply
format ascii 1.0
comment PCL generated
element vertex 346
property float x
property float y
property float z
element camera 1
property float view_px
property float view_py
property float view_pz
property float x_axisx
property float x_axisy
property float x_axisz
property float y_axisx
property float y_axisy
property float y_axisz
property float z_axisx
property float z_axisy
property float z_axisz
property float focal
property float scalex
property float scaley
property float centerx
property float centery
property int viewportx
property int viewporty
property float k1
property float k2
end_header
-0.059897449 0.027201917 0.19118384
-0.060270112 0.024348335 0.19206432
-0.060473964 0.02160215 0.19305706
-0.060638279 0.018607048 0.19431609
-0.061005168 0.015792184 0.1951793
-0.059684675 0.012271631 0.19717419
-0.056534015 0.030169958 0.18801761
-0.057710446 0.02774366 0.18961455
-0.057242308 0.024580039 0.19020826
-0.057193272 0.021670705 0.19156663
-0.057725243 0.0187604 0.19293913
-0.058276195 0.015380614 0.19450071
-0.058002211 0.012383268 0.19630431
-0.057764996 0.0094823027 0.19821072
-0.057621859 0.0067574447 0.19988671
-0.049108438 0.030805647 0.18242884
-0.050663698 0.029421724 0.18419915
-0.053340081 0.02772768 0.18644708
-0.053753003 0.024652651 0.18836333
-0.053287465 0.02171208 0.19027719
-0.05378915 0.018812202 0.191815
-0.054286174 0.015592204 0.19340801
-0.054963563 0.012518994 0.19541261
-0.055572938 0.0086717671 0.19762756
-0.056313004 0.0049349526 0.19965565
-0.05612161 0.0017416611 0.202255
-0.056078225 -0.00087176956 0.20451786
-0.045477353 0.032827619 0.1794858
-0.045996211 0.030884303 0.18090981
-0.046795506 0.028907042 0.18276596
-0.047981407 0.027116051 0.18481296
-0.04975792 0.024704793 0.18818368
-0.049602393 0.021598203 0.19025448
-0.049994502 0.018657263 0.19214147
-0.050635245 0.015652392 0.19375847
-0.051920485 0.012496001 0.19530682
-0.052914035 0.0078956867 0.19673575
-0.05374752 0.0031292688 0.19706476
-0.054120492 -9.0188863e-05 0.20064287
-0.053579517 -0.0026918484 0.20432396
-0.05351967 -0.0045348946 0.20814259
-0.054062374 -0.0056648911 0.21192777
-0.042479251 0.035978023 0.17801532
-0.043082245 0.033756204 0.17903623
-0.043181419 0.031474635 0.18065572
-0.043555409 0.029398095 0.18267831
-0.044189051 0.027139759 0.18512541
-0.045442071 0.024076687 0.18854223
-0.045856915 0.021267768 0.1909457
-0.04612213 0.018523276 0.19257329
-0.047074035 0.015367125 0.1942528
-0.048727006 0.012511851 0.19522257
-0.049606301 0.0073652626 0.19482799
-0.049842522 0.0019409328 0.19382872
-0.049434006 -0.0024383564 0.19774173
-0.049913317 -0.0033273504 0.20440853
-0.0504977 -0.0049923491 0.20893177
-0.051915109 -0.0064715724 0.21291302
-0.053017378 -0.0083782179 0.21552402
-0.054132715 -0.010162525 0.21943755
-0.040513322 0.037811529 0.17774981
-0.040422983 0.034621309 0.17920053
-0.040614579 0.0320994 0.18092526
-0.040895466 0.029905744 0.18307242
-0.041248053 0.027209559 0.18602286
-0.042416058 0.023691136 0.18947658
-0.042683624 0.021073803 0.19138688
-0.043366168 0.018621678 0.19274171
-0.043823492 0.015936235 0.19423068
-0.044894658 0.01254834 0.19549066
-0.046171151 0.0062673977 0.19336377
-0.043985158 0.00030465677 0.19324407
-0.041202474 -0.0042210962 0.19624485
-0.046120029 -0.0046458873 0.20491149
-0.047400665 -0.005378624 0.2099307
-0.048575513 -0.0061735981 0.21398585
-0.050115779 -0.0078763794 0.21729246
-0.052190527 -0.010050867 0.22108661
-0.052084345 -0.012512333 0.22371016
-0.050390594 -0.015620479 0.22378099
-0.03783692 0.040975932 0.17678858
-0.037859481 0.039165627 0.17795169
-0.037742924 0.035939019 0.17916453
-0.038123794 0.0326741 0.18119584
-0.038142122 0.030507529 0.18392996
-0.038782388 0.026787674 0.1877629
-0.039400689 0.023469083 0.19030559
-0.039967149 0.020971503 0.19203974
-0.040629759 0.018602703 0.19354564
-0.04137456 0.01604549 0.19501878
-0.042360123 0.012569713 0.19597848
-0.043328363 0.0056039398 0.19382799
-0.040911637 0.00079837331 0.19565436
-0.040318996 -0.003077091 0.19934297
-0.042833451 -0.0051332847 0.20597394
-0.044325989 -0.0055324938 0.21091382
-0.045688029 -0.0067416467 0.21478134
-0.0470482 -0.0080205612 0.21792197
-0.048056461 -0.009266926 0.22109322
-0.047794923 -0.013299597 0.22319704
-0.047854885 -0.017977213 0.22581653
-0.046679154 -0.02092259 0.22709772
-0.035250228 0.042192671 0.17638212
-0.034757737 0.040701546 0.17769267
-0.033906478 0.038232505 0.17873242
-0.033707537 0.035823062 0.18065538
-0.034506958 0.031901572 0.18445924
-0.035642743 0.026907541 0.18936606
-0.036409564 0.023702417 0.19104996
-0.037257411 0.020996267 0.19306545
-0.038119532 0.018599616 0.19465195
-0.039032061 0.015793776 0.19626205
-0.04018572 0.011840541 0.19704568
-0.040530849 0.0070349383 0.19534346
-0.039334331 0.0023988602 0.19789179
-0.039333507 -0.0008934589 0.2016957
-0.040861845 -0.003242489 0.20713267
-0.04116654 -0.0056066234 0.21278194
-0.042769711 -0.0072169648 0.21631153
-0.04357598 -0.0089070788 0.21868704
-0.043979309 -0.011648539 0.22090971
-0.044353142 -0.015620803 0.2220666
-0.044441905 -0.019331079 0.22419839
-0.043236725 -0.021608157 0.22606665
-0.032165434 0.042649988 0.1763335
-0.031599469 0.041254111 0.17772952
-0.030943397 0.038821734 0.17957237
-0.030625822 0.036613747 0.18170455
-0.03083081 0.032882649 0.18578407
-0.032316383 0.027844751 0.18993139
-0.03301008 0.024556749 0.19145034
-0.034174141 0.021155357 0.19382749
-0.035698548 0.018278483 0.19601817
-0.036598738 0.015202795 0.19770785
-0.038114902 0.011302506 0.19828352
-0.038560376 0.0078448588 0.19723788
-0.037449431 0.0039212182 0.2002198
-0.037209939 0.00095784239 0.20380488
-0.038562957 -0.0015743648 0.2081904
-0.039357886 -0.0043020207 0.21301791
-0.040076304 -0.0062927417 0.21752447
-0.040975876 -0.0087901046 0.21960558
-0.040850405 -0.012261736 0.22035988
-0.041178942 -0.015916713 0.22108407
-0.041226566 -0.019497393 0.22275826
-0.039752834 -0.02193068 0.22477588
-0.029121015 0.042679615 0.17707562
-0.028578747 0.041339733 0.17829058
-0.028087528 0.038999956 0.1799195
-0.027581001 0.036745034 0.18259889
-0.027394634 0.033160247 0.18639356
-0.028457856 0.029358501 0.19005732
-0.029635826 0.025531309 0.19228686
-0.030974042 0.021841064 0.19433977
-0.033210989 0.018113883 0.19780065
-0.034321781 0.014347531 0.20019861
-0.035744242 0.011194053 0.20015009
-0.036102321 0.0093123671 0.19964726
-0.034906011 0.0063318182 0.20242986
-0.033952508 0.0033113183 0.20569079
-0.035681196 -0.00066254573 0.20963489
-0.036911581 -0.0034708192 0.21383093
-0.037352122 -0.0061488883 0.21906912
-0.038015749 -0.0095541161 0.22030163
-0.038153727 -0.012950794 0.22065981
-0.038066778 -0.016470971 0.22178847
-0.037716646 -0.019849326 0.22313564
-0.035886321 -0.022167653 0.22531097
-0.026076131 0.0430221 0.1776277
-0.025589656 0.041837141 0.17882903
-0.02489103 0.039425109 0.18013479
-0.024385123 0.036552895 0.18289658
-0.024223924 0.033767715 0.18603432
-0.024988381 0.030791167 0.18935491
-0.026109852 0.02690107 0.19285545
-0.027817696 0.022321925 0.19579442
-0.030229423 0.017696006 0.20052093
-0.031657144 0.014163997 0.20288272
-0.03166325 0.012438294 0.20325178
-0.032580022 0.010955071 0.20286453
-0.031841867 0.0077607497 0.20597459
-0.031516381 0.004240125 0.20839745
-0.033091087 6.0684873e-05 0.21260004
-0.03240509 -0.0038329144 0.2174817
-0.033699084 -0.007780259 0.22015423
-0.034734696 -0.011030445 0.22094603
-0.035153084 -0.013599602 0.22150365
-0.034856357 -0.01692356 0.22255865
-0.033138212 -0.019848434 0.22457641
-0.031575698 -0.022056824 0.22681467
-0.030410836 -0.02462149 0.23087308
-0.022653762 0.044148162 0.17814569
-0.02179965 0.042452544 0.17964552
-0.021528989 0.039465539 0.18140714
-0.021261148 0.036433186 0.18333964
-0.021436235 0.033895038 0.18657111
-0.021795237 0.031298064 0.18936782
-0.022202838 0.028506601 0.19228913
-0.023222091 0.024588706 0.19568385
-0.024968289 0.018059762 0.20179725
-0.02710256 0.014882322 0.20522681
-0.027955115 0.013306403 0.20663573
-0.028875703 0.011287043 0.20684972
-0.029150994 0.0079024332 0.20886439
-0.02934375 0.0041064732 0.21136947
-0.028319322 -0.00023267516 0.21516933
-0.027598808 -0.0042657848 0.21905088
-0.028889686 -0.0085382713 0.22140661
-0.029926676 -0.011921867 0.22242555
-0.029903868 -0.014481093 0.22381498
-0.028885087 -0.017185466 0.2261333
-0.026730642 -0.019237513 0.22745548
-0.026868923 -0.022223357 0.22856753
-0.02598829 -0.025200661 0.23259014
-0.018472787 0.042201862 0.18161876
-0.018525546 0.039986838 0.18348108
-0.018509852 0.037125479 0.18472442
-0.018782444 0.03403141 0.18698536
-0.018925434 0.031509783 0.18959229
-0.019012395 0.029099356 0.19220397
-0.019408869 0.025862409 0.1967466
-0.019831128 0.020963602 0.20109265
-0.020648265 0.016403338 0.2053173
-0.022767816 0.013241342 0.20822537
-0.024194522 0.011154921 0.2095993
-0.02561588 0.0080276048 0.21148695
-0.024876889 0.0036957373 0.21398488
-0.023295464 -0.00038022111 0.21688749
-0.02349039 -0.0038653752 0.21995287
-0.023955451 -0.007735753 0.22276451
-0.024534937 -0.011024094 0.22395185
-0.023682205 -0.014042562 0.22621192
-0.022424731 -0.016327791 0.22891952
-0.02224645 -0.018678518 0.22885592
-0.02216462 -0.022046432 0.22891793
-0.021869877 -0.025478417 0.23309468
-0.015613676 0.040290911 0.18506227
-0.015814556 0.037609562 0.18645926
-0.015921954 0.034213409 0.18831268
-0.01653916 0.031321868 0.19091468
-0.016702242 0.029004596 0.19334687
-0.016425161 0.026098415 0.19786273
-0.016967028 0.021861127 0.20196052
-0.016748471 0.018608831 0.20510463
-0.017107628 0.014514556 0.20794623
-0.018760527 0.011418608 0.21085639
-0.020707263 0.0076973382 0.21277298
-0.019939631 0.0039293487 0.21512379
-0.019314535 0.00033074291 0.21790281
-0.01892788 -0.0030437643 0.22129527
-0.01891502 -0.0061192848 0.22478965
-0.019553529 -0.0095049255 0.22601077
-0.019002242 -0.012466584 0.22751306
-0.018785404 -0.015741533 0.22895525
-0.019405859 -0.019153457 0.2298266
-0.018889353 -0.022301063 0.23091936
-0.018246247 -0.025508065 0.23488289
-0.013467121 0.037328936 0.18789411
-0.013714991 0.033870857 0.18997064
-0.01390624 0.03123443 0.19205746
-0.013942641 0.02883058 0.19420868
-0.013319235 0.026500413 0.1977164
-0.013820136 0.023137541 0.2023475
-0.013923408 0.019610733 0.20593914
-0.013541875 0.016159348 0.2094278
-0.013933951 0.012403657 0.21172945
-0.014801892 0.0081370473 0.21367037
-0.015016873 0.0047805654 0.21610455
-0.014912382 0.0013122378 0.21896152
-0.014913505 -0.002115665 0.2226719
-0.015318744 -0.0052908664 0.22513048
-0.015268735 -0.0086390944 0.22656447
-0.015257624 -0.012593633 0.2283342
-0.015306165 -0.016584113 0.23026982
-0.015662832 -0.020125806 0.23212931
-0.015477913 -0.023008436 0.23388113
-0.015027831 -0.025428763 0.23671579
-0.011100559 0.034052514 0.19037536
-0.010539816 0.03136811 0.1924566
-0.010512669 0.028907666 0.19489561
-0.010017889 0.026824659 0.19835654
-0.010597834 0.024221789 0.20268621
-0.01105048 0.020943301 0.20656754
-0.010455449 0.017597344 0.2095366
-0.010524289 0.013148588 0.21168686
-0.010319665 0.0091329264 0.21411222
-0.010526316 0.0055089961 0.21702978
-0.010810689 0.002067449 0.21993105
-0.011012804 -0.00144881 0.22330104
-0.01151586 -0.0046181125 0.22508502
-0.011843346 -0.0083003109 0.22637664
-0.011853846 -0.012380756 0.22791895
-0.011622794 -0.016382545 0.23103839
-0.011562129 -0.019938735 0.23296627
-0.01191644 -0.023489881 0.2360854
-0.012334636 -0.025594151 0.23821409
-0.0070095668 0.031162217 0.193454
-0.006790915 0.029132593 0.19653618
-0.0067906352 0.02690929 0.20007434
-0.0074784737 0.024487806 0.20320618
-0.0079915915 0.02175195 0.20708641
-0.0075744195 0.017879194 0.20958991
-0.0069808816 0.013718177 0.21153867
-0.0064849351 0.0098964339 0.21383393
-0.0065431893 0.0060192146 0.21754102
-0.0069336379 0.0022520239 0.22063096
-0.0070587723 -0.0012312956 0.22344615
-0.0071566859 -0.0045898021 0.22458701
-0.0079072593 -0.0081400368 0.22664995
-0.0083430661 -0.012588617 0.22798756
-0.0079175672 -0.016767709 0.2313583
-0.0083840424 -0.020177523 0.23329026
-0.008908364 -0.023012683 0.23564103
-0.0042701019 0.030738192 0.19528207
-0.002832324 0.029097008 0.19813363
-0.0032287233 0.026525678 0.20097342
-0.0041720234 0.024066171 0.2033356
-0.0042283209 0.021036251 0.20623501
-0.0043633836 0.017566023 0.20900702
-0.003514783 0.013596837 0.21115884
-0.0029167165 0.010247627 0.21363299
-0.0027428051 0.0065587438 0.21693045
-0.0032860602 0.0027238948 0.21982051
-0.003186113 -0.00096294662 0.22277357
-0.0031612893 -0.0049067074 0.22392491
-0.0039538229 -0.0087619964 0.22646677
-0.0049130367 -0.013038144 0.22788794
-0.0054513253 -0.016575662 0.23089713
0.00021079957 0.028203823 0.1994589
-6.1405459e-05 0.026178336 0.20105004
-0.00068456063 0.023696033 0.20304638
-0.00098569901 0.020615656 0.20537205
-0.00087720196 0.01683766 0.20798594
-6.8641493e-05 0.01341444 0.21085399
0.00047243145 0.010294237 0.21323077
0.00074714277 0.0067424588 0.2157954
-2.7091168e-05 0.0031198887 0.21834145
0.00046132394 -0.00075804611 0.22084966
0.00018494924 -0.0047488362 0.22342488
-0.0016122988 -0.0083528487 0.2267127
0.0032465698 0.025694184 0.20134626
0.0033105733 0.022959819 0.20308909
0.0027700854 0.019958641 0.20492801
0.0027243956 0.016496209 0.20774613
0.0036895508 0.012745101 0.2104224
0.0031380896 0.010243776 0.21249247
0 0 0 1 0 0 0 1 0 0 0 1 0 0 0 0 0 346 1 0 0
