-3.987429699999999605e-03 5.109354899999999852e-03 9.103579800000000111e-02
-3.975078299999999613e-03 5.096483700000000415e-03 9.097450199999999876e-02
-3.962726899999999622e-03 5.083612599999999711e-03 9.091320599999999641e-02
-3.950375499999999630e-03 5.070741400000000274e-03 9.085191099999999353e-02
-3.938024099999999639e-03 5.057870299999999569e-03 9.079061500000000506e-02
-3.925672699999999647e-03 5.044999100000000132e-03 9.072931900000000272e-02
-3.956463500000000078e-03 4.990104900000000288e-03 9.055572200000000516e-02
-3.987254200000000040e-03 4.935210599999999975e-03 9.038212399999999425e-02
-4.018044999999999603e-03 4.880316400000000131e-03 9.020852699999999669e-02
-4.048835800000000033e-03 4.825422099999999818e-03 9.003492999999999913e-02
-4.079626499999999996e-03 4.770527800000000374e-03 8.986133200000000210e-02
-4.110417300000000426e-03 4.715633599999999662e-03 8.968773500000000454e-02
-4.162089600000000097e-03 4.679374299999999702e-03 8.947888900000000589e-02
-4.213761800000000168e-03 4.643115100000000210e-03 8.927004299999999337e-02
-4.265434099999999840e-03 4.606855800000000251e-03 8.906119699999999473e-02
-4.317106400000000378e-03 4.570596500000000291e-03 8.885235099999999608e-02
-4.368778599999999582e-03 4.534337299999999932e-03 8.864350499999999744e-02
-4.420450900000000120e-03 4.498077999999999972e-03 8.843465899999999880e-02
-4.456566200000000415e-03 4.459096299999999735e-03 8.836963500000000193e-02
-4.492681499999999842e-03 4.420114699999999966e-03 8.830461200000000455e-02
-4.528796699999999668e-03 4.381132999999999729e-03 8.823958799999999381e-02
-4.564911999999999963e-03 4.342151300000000359e-03 8.817456399999999694e-02
-4.601027300000000257e-03 4.303169699999999723e-03 8.810954099999999956e-02
-4.637142599999999684e-03 4.264188000000000353e-03 8.804451700000000269e-02
-4.651072099999999619e-03 4.283600099999999855e-03 8.795727700000000038e-02
-4.665001600000000422e-03 4.303012200000000224e-03 8.787003699999999806e-02
-4.678930999999999889e-03 4.322424299999999726e-03 8.778279699999999575e-02
-4.692860499999999824e-03 4.341836400000000096e-03 8.769555599999999396e-02
-4.706789999999999759e-03 4.361248499999999598e-03 8.760831600000000552e-02
-4.720719499999999694e-03 4.380660599999999967e-03 8.752107600000000320e-02
-4.727523699999999773e-03 4.385631499999999815e-03 8.750402799999999759e-02
-4.734328000000000321e-03 4.390602300000000062e-03 8.748698000000000585e-02
-4.741132300000000001e-03 4.395573199999999910e-03 8.746993200000000024e-02
-4.747936500000000080e-03 4.400544000000000157e-03 8.745288299999999515e-02
-4.754740700000000160e-03 4.405514900000000005e-03 8.743583500000000341e-02
-4.761544999999999840e-03 4.410485700000000252e-03 8.741878699999999780e-02
-4.764453699999999896e-03 4.406091099999999601e-03 8.741625000000000090e-02
-4.767362300000000351e-03 4.401696499999999818e-03 8.741371300000000399e-02
-4.770271000000000407e-03 4.397301900000000034e-03 8.741117599999999321e-02
-4.773179699999999595e-03 4.392907300000000251e-03 8.740863999999999578e-02
-4.776088300000000050e-03 4.388512699999999600e-03 8.740610299999999888e-02
-4.778997000000000106e-03 4.384118099999999817e-03 8.740356600000000198e-02
-4.775216900000000403e-03 4.394918900000000135e-03 8.740964099999999626e-02
-4.771436799999999832e-03 4.405719699999999586e-03 8.741571500000000494e-02
-4.767656700000000129e-03 4.416520499999999905e-03 8.742178999999999922e-02
-4.763876700000000027e-03 4.427321199999999755e-03 8.742786499999999350e-02
-4.760096600000000323e-03 4.438122000000000074e-03 8.743393900000000218e-02
-4.756316499999999753e-03 4.448922800000000392e-03 8.744001399999999646e-02
-4.754687700000000301e-03 4.432857200000000185e-03 8.742216999999999349e-02
-4.753058899999999982e-03 4.416791699999999578e-03 8.740432600000000440e-02
-4.751430099999999664e-03 4.400726199999999838e-03 8.738648200000000144e-02
-4.749801300000000212e-03 4.384660599999999631e-03 8.736863699999999899e-02
-4.748172499999999893e-03 4.368595099999999891e-03 8.735079299999999602e-02
-4.746543699999999574e-03 4.352529499999999683e-03 8.733294900000000693e-02
-4.744655300000000069e-03 4.358289700000000239e-03 8.734831899999999372e-02
-4.742766800000000095e-03 4.364049800000000326e-03 8.736368799999999490e-02
-4.740878399999999722e-03 4.369810000000000014e-03 8.737905799999999557e-02
-4.738990000000000216e-03 4.375570199999999702e-03 8.739442799999999623e-02
-4.737101599999999843e-03 4.381330400000000257e-03 8.740979699999999741e-02
-4.735213200000000337e-03 4.387090599999999944e-03 8.742516699999999807e-02
-4.733324700000000364e-03 4.392850700000000032e-03 8.744053599999999926e-02
-4.731436299999999991e-03 4.398610899999999720e-03 8.745590599999999992e-02
-4.758423200000000408e-03 4.377206800000000078e-03 8.747331799999999435e-02
-4.785410200000000426e-03 4.355802599999999969e-03 8.749073000000000266e-02
-4.812397099999999976e-03 4.334398500000000327e-03 8.750814199999999710e-02
-4.839384000000000394e-03 4.312994399999999819e-03 8.752555400000000541e-02
-4.773903300000000016e-03 4.344390800000000330e-03 8.751252800000000609e-02
-4.708422700000000106e-03 4.375787299999999574e-03 8.749950200000000677e-02
-4.642941999999999729e-03 4.407183700000000086e-03 8.748647499999999411e-02
-4.577461300000000219e-03 4.438580099999999730e-03 8.747344899999999479e-02
-4.511980700000000309e-03 4.469976599999999842e-03 8.746042299999999547e-02
-4.446499999999999932e-03 4.501373000000000353e-03 8.744739699999999616e-02
-4.511204799999999834e-03 4.456716000000000323e-03 8.773812500000000014e-02
-4.575909700000000205e-03 4.412059000000000293e-03 8.802885200000000465e-02
-4.640614500000000107e-03 4.367402000000000263e-03 8.831957999999999476e-02
-4.705319399999999611e-03 4.322745000000000233e-03 8.861030699999999927e-02
-4.770024200000000381e-03 4.278088000000000203e-03 8.890103500000000325e-02
-4.746227000000000432e-03 4.259951399999999805e-03 8.906607299999999561e-02
-4.722429700000000015e-03 4.241814800000000274e-03 8.923111100000000184e-02
-4.698632500000000066e-03 4.223678300000000344e-03 8.939614899999999420e-02
-4.674835199999999649e-03 4.205541699999999945e-03 8.956118700000000044e-02
-4.651037999999999700e-03 4.187405100000000414e-03 8.972622500000000667e-02
-4.550082799999999837e-03 4.185028099999999959e-03 8.993279199999999751e-02
-4.449127500000000374e-03 4.182650999999999904e-03 9.013936000000000170e-02
-4.348172299999999643e-03 4.180274000000000316e-03 9.034592700000000642e-02
-4.404961599999999977e-03 4.134186199999999832e-03 9.029715600000000342e-02
-4.461750799999999843e-03 4.088098499999999816e-03 9.024838400000000094e-02
-4.518540100000000177e-03 4.042010700000000199e-03 9.019961199999999846e-02
-4.575329399999999644e-03 3.995922899999999715e-03 9.015084099999999545e-02
