ply
format ascii 1.0
comment PCL generated
element vertex 346
property float x
property float y
property float z
element camera 1
property float view_px
property float view_py
property float view_pz
property float x_axisx
property float x_axisy
property float x_axisz
property float y_axisx
property float y_axisy
property float y_axisz
property float z_axisx
property float z_axisy
property float z_axisz
property float focal
property float scalex
property float scaley
property float centerx
property float centery
property int viewportx
property int viewporty
property float k1
property float k2
end_header
-0.057167519 0.030922271 0.18744798
-0.058057647 0.028145909 0.18850914
-0.058311883 0.025529064 0.18992713
-0.058551326 0.022691071 0.19148533
-0.058642231 0.019744355 0.19206499
-0.057589609 0.016339909 0.19418971
-0.053202856 0.033081837 0.18374506
-0.054376662 0.030732749 0.18546195
-0.054310139 0.027854396 0.18614589
-0.054632045 0.025220251 0.18792643
-0.055198345 0.022578545 0.18987113
-0.055610571 0.019511465 0.19146772
-0.055506732 0.016535101 0.19332837
-0.055651102 0.013515602 0.19519791
-0.055631574 0.010325285 0.1968285
-0.048230983 0.03526096 0.17988329
-0.049216423 0.033032991 0.18112107
-0.050070588 0.030329097 0.18258549
-0.050645806 0.027499564 0.18427277
-0.051007468 0.025037544 0.18690597
-0.051555086 0.02237281 0.18885562
-0.051901747 0.019628096 0.19073971
-0.052176598 0.016792016 0.19279358
-0.052716646 0.013189165 0.1945467
-0.053689297 0.0091119688 0.19672011
-0.054139946 0.0053224503 0.19993846
-0.054078482 0.0016890557 0.20270459
-0.044678558 0.037773404 0.17786363
-0.045361221 0.035424672 0.17885616
-0.045837503 0.032951809 0.18022554
-0.046518568 0.030374544 0.18196245
-0.047252219 0.027607543 0.18434767
-0.047651544 0.025039056 0.18717255
-0.048037019 0.022426788 0.18929802
-0.048452612 0.019733885 0.1911573
-0.048909601 0.016761426 0.19326532
-0.049519606 0.012794577 0.1944447
-0.050316837 0.0080624064 0.1947546
-0.051249739 0.0038069829 0.1985992
-0.051412303 0.00028439349 0.2036705
-0.051819313 -0.0022671237 0.2078269
-0.052062895 -0.0039054297 0.21162626
-0.041360285 0.040381622 0.17707825
-0.04222035 0.038404703 0.17792374
-0.042435162 0.035758365 0.1792478
-0.04279634 0.033313237 0.18079408
-0.043584339 0.03070855 0.182907
-0.04409717 0.027688196 0.18523741
-0.044299122 0.025000524 0.18771531
-0.044584263 0.022284256 0.18964727
-0.045096707 0.019496871 0.19159245
-0.045748062 0.016634159 0.19335274
-0.046026934 0.012275113 0.1941364
-0.046418775 0.0069466904 0.19363105
-0.046864986 0.0020811246 0.19748633
-0.047944646 -0.00049802201 0.20417932
-0.048698138 -0.0026997305 0.20871118
-0.049726956 -0.0045492793 0.21277048
-0.050559718 -0.0067281099 0.21561275
-0.051160514 -0.0092574498 0.21913092
-0.03903738 0.041300792 0.17689638
-0.039359078 0.038761292 0.17865403
-0.039732333 0.036096677 0.18005465
-0.040107511 0.033522803 0.18171971
-0.04045045 0.03070733 0.18386272
-0.041086119 0.027628858 0.18617149
-0.041365605 0.025018841 0.18836226
-0.041770894 0.022400277 0.18989928
-0.041924804 0.01968213 0.19159928
-0.042462289 0.016347764 0.19334553
-0.042348444 0.011140019 0.19330038
-0.041615184 0.0049717133 0.19290149
-0.040412154 -0.00036424448 0.19597837
-0.044352327 -0.0017104112 0.20488138
-0.045348905 -0.0030704362 0.20968218
-0.046119876 -0.0041959318 0.21376376
-0.047224719 -0.006640201 0.21712917
-0.048546631 -0.0098321047 0.22038731
-0.048705347 -0.01330461 0.22280698
-0.048127331 -0.016874664 0.22352237
-0.03589398 0.043270458 0.17584516
-0.036330119 0.041844681 0.17734388
-0.036543492 0.039296247 0.17903273
-0.03695371 0.036373582 0.18060328
-0.037270602 0.033844881 0.18279719
-0.037559323 0.030688342 0.18506606
-0.037953127 0.027596591 0.18699141
-0.038526077 0.025101563 0.18907744
-0.038994409 0.022367775 0.19084801
-0.03908826 0.019335065 0.19167458
-0.039090838 0.015204835 0.19307324
-0.038812768 0.0097842729 0.19287279
-0.038131874 0.0042824261 0.19496019
-0.037816953 4.0032191e-05 0.19847883
-0.040707055 -0.0022498716 0.20578073
-0.041878462 -0.002889612 0.21076426
-0.042760305 -0.0044051679 0.21472181
-0.043455806 -0.0074939695 0.21692692
-0.044196028 -0.010171881 0.21950287
-0.044758189 -0.014486489 0.22171925
-0.045412101 -0.018667085 0.2247991
-0.044374533 -0.021366041 0.22684379
-0.033272188 0.043814484 0.17617697
-0.033304997 0.042391654 0.17765819
-0.033132616 0.039831001 0.17958866
-0.033310574 0.037104137 0.18101297
-0.033686806 0.034301002 0.18344401
-0.034193244 0.030971657 0.18664363
-0.034808882 0.027840246 0.18790637
-0.035484888 0.025049245 0.1899139
-0.035865735 0.021964166 0.19162931
-0.035981189 0.018714279 0.19290553
-0.035992246 0.014531913 0.19425716
-0.035654563 0.010081487 0.19406496
-0.035315569 0.0053233868 0.19663236
-0.035359696 0.0016289953 0.20072238
-0.037538443 -0.00053205795 0.20633301
-0.038613163 -0.0025649013 0.21195367
-0.039322309 -0.0046726717 0.21545696
-0.039745457 -0.0077741449 0.21697101
-0.04021173 -0.011538727 0.21947582
-0.040891513 -0.015610197 0.22140843
-0.041251607 -0.019370319 0.22421624
-0.040854208 -0.021825511 0.22675313
-0.030317144 0.043969408 0.17684321
-0.030190473 0.042517059 0.17810878
-0.03018829 0.04001797 0.18001947
-0.03032005 0.037419613 0.18198699
-0.030430431 0.034453142 0.18443532
-0.031095179 0.031200727 0.18759295
-0.031626482 0.028192442 0.18903598
-0.032331657 0.024945904 0.19088529
-0.032689437 0.021393524 0.19272579
-0.032969195 0.018308578 0.19434993
-0.033108901 0.014316783 0.19553505
-0.032989718 0.010622649 0.19572556
-0.032373488 0.0064367065 0.19859745
-0.032827809 0.0031891179 0.20262139
-0.034680355 0.000989942 0.20727691
-0.035672273 -0.0015681798 0.21188557
-0.035894733 -0.0044495403 0.215775
-0.036488354 -0.0076327273 0.21773934
-0.036978856 -0.011476359 0.22027798
-0.037450954 -0.015548135 0.22208016
-0.037570536 -0.019240167 0.22389419
-0.036996808 -0.021956993 0.22634906
-0.027271569 0.044123314 0.17723431
-0.027174789 0.042620003 0.17849837
-0.027412219 0.040081341 0.18016882
-0.027355611 0.037527099 0.18265978
-0.027352998 0.03461558 0.18547912
-0.027882814 0.031601798 0.18807952
-0.028514178 0.028438699 0.19020656
-0.029173721 0.025220731 0.19198805
-0.029651562 0.021227619 0.19424964
-0.029949808 0.0177372 0.19675641
-0.030443558 0.014649355 0.19750571
-0.030217243 0.011943377 0.19818689
-0.029955937 0.0082884114 0.20129435
-0.02986531 0.0049280943 0.20421743
-0.031508718 0.0014708558 0.20830977
-0.032595564 -0.0011532515 0.21223868
-0.032832615 -0.0043502571 0.21694264
-0.033379864 -0.0077664955 0.21873088
-0.033917643 -0.011653197 0.2213296
-0.034315098 -0.015579867 0.2237844
-0.03403898 -0.019125018 0.22547548
-0.033727631 -0.022165548 0.22763158
-0.02428457 0.044297442 0.17797329
-0.024160914 0.042889468 0.17929189
-0.024162143 0.040181007 0.18055658
-0.024257453 0.037530441 0.18306436
-0.024335878 0.034898289 0.18590759
-0.024759987 0.032002363 0.18835597
-0.025402227 0.028894041 0.19123249
-0.026143946 0.025272818 0.19373696
-0.026438234 0.020846335 0.19640878
-0.026608279 0.017336264 0.19874419
-0.026170954 0.014500692 0.19990005
-0.027024021 0.012622721 0.2007165
-0.027389651 0.0088330042 0.2040263
-0.027450386 0.0051972396 0.20641181
-0.028507158 0.0019229577 0.21055448
-0.028937856 -0.0011449913 0.21474825
-0.029680466 -0.0049257413 0.2186072
-0.030019423 -0.0081080208 0.22031762
-0.030551059 -0.011711231 0.22233872
-0.030794758 -0.015378513 0.22489993
-0.030293118 -0.019003727 0.226698
-0.030574223 -0.022253871 0.22847585
-0.031030025 -0.025134239 0.23204757
-0.021160586 0.044654571 0.17891499
-0.020910634 0.043190107 0.18033223
-0.021083148 0.040253926 0.1818793
-0.021125354 0.037383381 0.18360668
-0.021325538 0.034829333 0.18660864
-0.021838639 0.032167479 0.18885686
-0.02228125 0.029474787 0.19182867
-0.022783106 0.026061835 0.19490103
-0.022875357 0.020725224 0.19889736
-0.023108128 0.016571004 0.20123263
-0.023084879 0.01411179 0.20272432
-0.023670843 0.01185027 0.2033004
-0.024362814 0.0087139094 0.20576763
-0.025056785 0.0052832877 0.20858231
-0.025177209 0.0020490051 0.21245442
-0.025548654 -0.00098217267 0.21628694
-0.026180362 -0.0047299778 0.21970202
-0.026391024 -0.00837286 0.22137763
-0.026370915 -0.011661367 0.22298521
-0.026650516 -0.0151455 0.22605686
-0.026487606 -0.018690556 0.22744487
-0.027054321 -0.022653224 0.22890411
-0.026940411 -0.026368562 0.23271926
-0.018201357 0.043083064 0.18174699
-0.018149374 0.04079001 0.1836618
-0.018106179 0.037822433 0.18495277
-0.018420964 0.034922495 0.18693109
-0.018687857 0.032146916 0.18919922
-0.018873071 0.029567758 0.19198599
-0.019246904 0.026484879 0.1963471
-0.019501526 0.022099454 0.19953607
-0.019676475 0.017987859 0.20261139
-0.019926818 0.014602027 0.20451422
-0.020310637 0.01203866 0.20597893
-0.021397553 0.0092644487 0.20805547
-0.021972086 0.0058537512 0.211408
-0.021830078 0.0027429862 0.21447842
-0.021932358 -0.00059703027 0.21764658
-0.022361655 -0.0042616031 0.22135206
-0.022559805 -0.0082685109 0.22295247
-0.022220403 -0.011969836 0.22402315
-0.021888113 -0.015431252 0.22665223
-0.022069352 -0.018686103 0.22728682
-0.022536345 -0.022693153 0.22802208
-0.02303713 -0.026871564 0.23309737
-0.015249759 0.040814947 0.18487318
-0.015266797 0.038121808 0.18633164
-0.015399958 0.035023395 0.18772356
-0.015679335 0.032129489 0.19001044
-0.015983397 0.029655086 0.19252822
-0.016007604 0.026672954 0.19713578
-0.016422482 0.022572041 0.20057152
-0.016375136 0.019067373 0.20303369
-0.01654673 0.015396254 0.20500197
-0.016798662 0.012494576 0.20781431
-0.01776037 0.0097594149 0.21008676
-0.018141259 0.0065301401 0.21288104
-0.018089345 0.0032690514 0.21589981
-0.018060347 -0.00032898952 0.21922785
-0.018358545 -0.0037827825 0.22285885
-0.018612647 -0.0078472262 0.22455448
-0.018044556 -0.011760361 0.22542958
-0.017989378 -0.015491324 0.22652863
-0.018724659 -0.01929968 0.22774519
-0.018983733 -0.023311755 0.22982812
-0.019321905 -0.027154 0.2346967
-0.012682661 0.037837941 0.18759803
-0.012577293 0.034798682 0.1888679
-0.012807001 0.032092974 0.19095773
-0.013026316 0.029475661 0.19308104
-0.012797881 0.02682705 0.1966639
-0.013243486 0.023277223 0.20089141
-0.013438629 0.019755661 0.204179
-0.013458284 0.016276473 0.20699826
-0.013463612 0.013108985 0.20941544
-0.0137534 0.010093442 0.21157393
-0.013850721 0.0072825877 0.21412279
-0.014113233 0.0036157689 0.21719915
-0.014294191 -7.9240679e-05 0.22083087
-0.014551065 -0.003587892 0.22362293
-0.014572056 -0.0076086405 0.22484198
-0.014315914 -0.01221356 0.22627659
-0.014477575 -0.016315557 0.22767217
-0.015050025 -0.020110151 0.22930411
-0.015460967 -0.023891883 0.2322564
-0.015515377 -0.027168265 0.23633847
-0.0099557368 0.034831963 0.18979605
-0.009509488 0.032208689 0.19163951
-0.0097350888 0.029510766 0.19380255
-0.009623426 0.026879439 0.19710037
-0.010057107 0.023880074 0.20125045
-0.010411921 0.020545797 0.20519452
-0.010170406 0.017293613 0.20801678
-0.010060674 0.013598179 0.2102097
-0.0099799344 0.010329085 0.21227773
-0.0099618481 0.0073255198 0.2153687
-0.010348354 0.0038932238 0.21835709
-0.010522876 0.00012239072 0.22165391
-0.010751833 -0.0034257793 0.22372745
-0.011102067 -0.007646862 0.22504778
-0.010741905 -0.012042142 0.22573918
-0.01088545 -0.016428573 0.22880417
-0.011105465 -0.020149667 0.23056279
-0.011692602 -0.024330266 0.23447035
-0.012448236 -0.026841199 0.23704331
-0.0063632554 0.031971436 0.19268696
-0.0062969238 0.029543148 0.19522756
-0.0064135925 0.026800347 0.19857381
-0.0068155369 0.023921868 0.20155516
-0.0070260512 0.020988455 0.20545547
-0.0067226072 0.017632117 0.20839182
-0.0064377631 0.014066232 0.21050419
-0.0063544502 0.010627743 0.21249241
-0.0063317898 0.0072150426 0.21588063
-0.0065292246 0.0036036114 0.21903069
-0.0067258328 -0.00010612325 0.22207233
-0.0068154186 -0.0036226176 0.22322924
-0.0073384941 -0.0075980993 0.22543955
-0.0072779586 -0.012227923 0.22604683
-0.0073441118 -0.016542779 0.22951253
-0.0079363044 -0.020254415 0.23146962
-0.0087302923 -0.023402082 0.23354355
-0.0037447154 0.031508826 0.19438307
-0.0027576168 0.029712768 0.19699481
-0.0029969206 0.026794476 0.19934878
-0.0032149283 0.023866544 0.2017398
-0.003238546 0.021040222 0.20480165
-0.0033125235 0.017742943 0.207808
-0.0028905934 0.014075821 0.21045089
-0.0027916592 0.010734215 0.21277526
-0.0026901094 0.0072881179 0.21579398
-0.002892151 0.0035504033 0.21832412
-0.0028827311 -8.9738525e-05 0.22133784
-0.0030569679 -0.0041017588 0.22272369
-0.0034260519 -0.0081327232 0.22531876
-0.0040279985 -0.012384902 0.22651362
-0.0048794663 -0.016039839 0.22922097
0.00017137229 0.029227896 0.19856147
0.00034206914 0.027012842 0.19995762
0.000181462 0.024225729 0.20185275
0.00020640866 0.021195604 0.20431048
0.0003041176 0.01782348 0.2070006
0.00067895919 0.014176784 0.20987257
0.00089809723 0.010761153 0.21240303
0.001004888 0.0072347955 0.21471582
0.00054426771 0.0036437802 0.21698454
0.00077176635 -0.00023358806 0.21958579
0.00019577294 -0.0039693634 0.22231664
-0.0011352963 -0.0075804908 0.22569853
0.0036824001 0.027070843 0.20052791
0.004041641 0.024243096 0.2021419
0.0039711054 0.021158932 0.20389865
0.0037512293 0.01785046 0.20676905
0.0042256517 0.014303902 0.20893723
0.0038083086 0.011221948 0.21128818
0 0 0 1 0 0 0 1 0 0 0 1 0 0 0 0 0 346 1 0 0
