ply
format ascii 1.0
comment PCL generated
element vertex 346
property float x
property float y
property float z
element camera 1
property float view_px
property float view_py
property float view_pz
property float x_axisx
property float x_axisy
property float x_axisz
property float y_axisx
property float y_axisy
property float y_axisz
property float z_axisx
property float z_axisy
property float z_axisz
property float focal
property float scalex
property float scaley
property float centerx
property float centery
property int viewportx
property int viewporty
property float k1
property float k2
end_header
-0.058025423 0.027620677 0.18820257
-0.058735788 0.024912896 0.1895269
-0.058993757 0.02212872 0.19108854
-0.059027746 0.019224999 0.19282202
-0.059012648 0.016422125 0.19437931
-0.057871763 0.012143368 0.19670282
-0.053989749 0.030363413 0.18474889
-0.05539804 0.02788957 0.18642829
-0.055202045 0.024818754 0.18729588
-0.055412166 0.02201161 0.18921798
-0.055970468 0.019175399 0.19130243
-0.056288507 0.015843464 0.19361465
-0.055979926 0.012208027 0.1956246
-0.055982299 0.0088455155 0.19790109
-0.056108635 0.006203386 0.19974507
-0.048138622 0.032775659 0.18102534
-0.049326528 0.030560445 0.18223229
-0.050786719 0.027767956 0.18355411
-0.051539712 0.024703825 0.18543836
-0.051661931 0.021984497 0.18791652
-0.052187208 0.019117212 0.18988606
-0.052487884 0.015839785 0.19198249
-0.052824505 0.012094623 0.19435784
-0.053400874 0.0078782067 0.19724074
-0.054542053 0.0042654085 0.1996512
-0.054583717 0.0010888249 0.20211557
-0.054578386 -0.0016641809 0.2041146
-0.044736758 0.035375752 0.17894849
-0.045254089 0.033184741 0.18010291
-0.045811873 0.03082066 0.18145615
-0.046673134 0.028179256 0.18297228
-0.047892433 0.024898861 0.18543459
-0.048306748 0.021920228 0.18777321
-0.048665997 0.018943965 0.1896178
-0.049037706 0.015802486 0.19124149
-0.049694501 0.01164439 0.19398151
-0.050462175 0.0068300203 0.19682515
-0.051496308 0.0023365002 0.19761471
-0.052329849 -0.00081893837 0.20084424
-0.052189816 -0.0036588009 0.20426236
-0.052102447 -0.0057461774 0.20816529
-0.052323498 -0.0070094694 0.21188971
-0.041716669 0.038329121 0.17786142
-0.042320903 0.03629132 0.17887202
-0.042429563 0.03378753 0.1803174
-0.042817645 0.031429671 0.18187553
-0.043493934 0.028751876 0.1838384
-0.044434834 0.024999773 0.18598892
-0.044741917 0.021700196 0.18786201
-0.044971921 0.01875991 0.18936436
-0.04564346 0.015338725 0.19073324
-0.046610687 0.01147087 0.19317439
-0.047101278 0.0058735749 0.1958524
-0.047584914 0.00060464919 0.19596192
-0.047842879 -0.0033269541 0.1989616
-0.048670389 -0.0046658148 0.20414661
-0.049078461 -0.006448071 0.20866968
-0.050111923 -0.0079272417 0.21273451
-0.050920375 -0.0098522995 0.21568793
-0.051490527 -0.012043242 0.21946819
-0.039694689 0.039650299 0.17765893
-0.039679665 0.036942985 0.17946772
-0.039892115 0.034349438 0.18101212
-0.04017045 0.031827249 0.18264841
-0.040517438 0.028742662 0.18478659
-0.041383639 0.024775624 0.18678035
-0.041567273 0.021668708 0.18817101
-0.041989516 0.018799987 0.18914838
-0.042183038 0.015525997 0.19003104
-0.04297632 0.011527902 0.19218899
-0.043907605 0.0048451722 0.19453068
-0.042922858 -0.00099374261 0.19400814
-0.040681537 -0.005627925 0.19627336
-0.044836026 -0.0060959398 0.20430732
-0.045707051 -0.007065597 0.20930631
-0.046589952 -0.007816284 0.21343264
-0.047689211 -0.0096743405 0.21707019
-0.048975959 -0.012248596 0.22078985
-0.048737474 -0.015306906 0.22327156
-0.04725372 -0.018355092 0.2241684
-0.036752257 0.042138435 0.17663077
-0.037043929 0.040595714 0.17809857
-0.037079815 0.037849136 0.1797383
-0.037233517 0.034850106 0.18148153
-0.037363756 0.03228889 0.18371229
-0.037836056 0.028349074 0.18605494
-0.038261425 0.024634261 0.1875331
-0.038703725 0.021665752 0.18879481
-0.039058194 0.018614924 0.18979628
-0.039262094 0.015048333 0.19012249
-0.039659448 0.011026149 0.19161633
-0.041067097 0.0042500771 0.19357385
-0.039603848 -0.00076218171 0.1952204
-0.038592774 -0.0045804945 0.19869617
-0.041181207 -0.0068204016 0.2048168
-0.042281084 -0.0076162005 0.20981015
-0.043421648 -0.0090091974 0.21381168
-0.044349592 -0.010697152 0.2169788
-0.045018375 -0.012400171 0.21999244
-0.044603247 -0.016162425 0.2230112
-0.044505794 -0.020469569 0.22651358
-0.043322906 -0.022989094 0.22832891
-0.034126353 0.042982452 0.17680703
-0.033980623 0.041588567 0.17830168
-0.03358591 0.039258882 0.18012019
-0.033608414 0.036727402 0.18164714
-0.034004055 0.03308263 0.18418282
-0.034628902 0.028410183 0.18747073
-0.035180133 0.024904605 0.18854333
-0.035774641 0.021648463 0.18986212
-0.036203556 0.018274296 0.19097918
-0.036445875 0.014468968 0.19160426
-0.036872946 0.010240322 0.19274797
-0.037998665 0.0052994858 0.19364084
-0.037129581 0.00068245124 0.19652222
-0.036797315 -0.0024286581 0.20031627
-0.038177829 -0.0049946257 0.20564954
-0.038846049 -0.0082149897 0.2109123
-0.040049911 -0.0098350858 0.21461178
-0.040687181 -0.011313137 0.21729408
-0.040668 -0.014076677 0.2203448
-0.040886879 -0.017690415 0.22255155
-0.04076549 -0.021241236 0.22555205
-0.039826095 -0.023130564 0.2280957
-0.031172467 0.043323219 0.17735916
-0.030915217 0.041975718 0.17874135
-0.030661808 0.039637018 0.1806929
-0.030572569 0.037204884 0.18267222
-0.030686341 0.033549767 0.18513586
-0.031540528 0.029105188 0.18817003
-0.031980123 0.025684465 0.18953279
-0.032749344 0.021728722 0.19112045
-0.033337228 0.017838586 0.19232233
-0.0336693 0.013946831 0.19306767
-0.034268666 0.0097575216 0.19396074
-0.035292704 0.0059174271 0.19463146
-0.034450185 0.001969418 0.19787829
-0.034387413 -0.00065634999 0.20191123
-0.035568234 -0.003241908 0.20651607
-0.036269087 -0.0066949832 0.21104775
-0.036842234 -0.0091274371 0.21554945
-0.037571035 -0.010786106 0.21847287
-0.037405372 -0.013733058 0.22095498
-0.037530739 -0.017523563 0.22250257
-0.037293281 -0.020952785 0.22458106
-0.035982765 -0.023067059 0.22711854
-0.02821546 0.043380726 0.17791089
-0.027892327 0.04204268 0.17920879
-0.027876992 0.039664675 0.18096261
-0.02760095 0.037315655 0.18338053
-0.027426699 0.033708222 0.18593462
-0.028106121 0.030129956 0.18852027
-0.028824372 0.026543869 0.19055703
-0.029592821 0.022605313 0.19213195
-0.030498212 0.017718323 0.19400378
-0.030782819 0.013014789 0.19530237
-0.031452227 0.0096939662 0.19554436
-0.032013971 0.0071020955 0.19598599
-0.031589098 0.0039968705 0.19956601
-0.031333443 0.0014649568 0.20353726
-0.032583278 -0.0022662575 0.20765345
-0.033402264 -0.0054093697 0.21157834
-0.033895422 -0.0082806656 0.21692695
-0.034446992 -0.010531705 0.21965723
-0.034593817 -0.013735527 0.22190209
-0.034411728 -0.017358778 0.22382253
-0.033771887 -0.020548081 0.22556998
-0.032669403 -0.022796301 0.22751912
-0.025205581 0.043548964 0.17854562
-0.024931652 0.042352561 0.17988519
-0.024676843 0.039852545 0.18131624
-0.02445239 0.037134953 0.18352327
-0.024318315 0.034294002 0.1861749
-0.024841484 0.031184347 0.18871713
-0.025587093 0.027638551 0.19152351
-0.026459428 0.023105942 0.19376774
-0.027219955 0.017395051 0.19625138
-0.027602773 0.012516425 0.19739833
-0.027429912 0.009936328 0.19805358
-0.028613981 0.008384997 0.19842675
-0.028700456 0.005355957 0.20242916
-0.028852288 0.0024208124 0.2055492
-0.029771134 -0.0014073685 0.21020544
-0.029834924 -0.0045512081 0.21479274
-0.030690692 -0.0077876584 0.21897984
-0.031099919 -0.010595264 0.2210062
-0.031446032 -0.013522597 0.222919
-0.030965038 -0.016997216 0.22481304
-0.029838732 -0.019960301 0.22642002
-0.029868593 -0.022506151 0.22786905
-0.030079167 -0.025203513 0.23111445
-0.022014868 0.044140384 0.17921053
-0.021630108 0.042652823 0.18045826
-0.021545412 0.039748956 0.18199475
-0.021269633 0.036930915 0.18368468
-0.021426074 0.034487251 0.18686889
-0.021875536 0.031822972 0.18934347
-0.022248106 0.029067811 0.19208412
-0.023120992 0.025186976 0.19464146
-0.024008688 0.018819887 0.19829768
-0.024360601 0.013581972 0.19965549
-0.024477223 0.01079517 0.20095254
-0.025235485 0.0085166153 0.20173787
-0.025902648 0.0058319992 0.20461996
-0.026450764 0.0028864515 0.20805348
-0.026339846 -0.00038117802 0.21250489
-0.026237745 -0.003330844 0.21680237
-0.026929606 -0.0071436018 0.22024393
-0.027339142 -0.010357599 0.22198734
-0.027277268 -0.013037189 0.22383288
-0.02686757 -0.016186295 0.22626851
-0.026185881 -0.019022625 0.22688223
-0.026630418 -0.02258868 0.22813731
-0.026319765 -0.0260417 0.23206013
-0.018612057 0.042460598 0.18157707
-0.018489782 0.040203881 0.18345484
-0.018349936 0.037396654 0.18486236
-0.01867797 0.034739699 0.18729737
-0.018956304 0.032153625 0.18976259
-0.019209379 0.029466184 0.19204113
-0.01987813 0.025896225 0.19570215
-0.020484427 0.021033755 0.19873863
-0.020847294 0.01626816 0.2016231
-0.021093814 0.012312769 0.20329039
-0.02151992 0.0096308887 0.20483066
-0.02255737 0.0069480226 0.20719077
-0.022941265 0.0039425753 0.21123917
-0.02253359 0.00089521462 0.21497767
-0.022517271 -0.002447942 0.21799774
-0.022876227 -0.0060317437 0.22153492
-0.023218388 -0.0094944295 0.22301719
-0.022532556 -0.01284577 0.22448301
-0.021806665 -0.015853753 0.22690596
-0.021972461 -0.018708285 0.22714683
-0.022258336 -0.022498628 0.22753055
-0.022365235 -0.026471324 0.23245743
-0.015571245 0.040376209 0.18466897
-0.015572969 0.037723508 0.18613978
-0.015816854 0.034873549 0.18815918
-0.016315015 0.03194084 0.19038512
-0.016639385 0.029312018 0.19249728
-0.0167688 0.025946517 0.19660018
-0.017587267 0.021679442 0.19988309
-0.0175013 0.018027253 0.20239583
-0.017687747 0.013924127 0.20426926
-0.01798689 0.010724232 0.20717396
-0.019033683 0.0078846579 0.20984821
-0.019210892 0.004915413 0.21316577
-0.018806415 0.0017842274 0.2163783
-0.018443797 -0.001700212 0.21939626
-0.018459667 -0.0050171227 0.22296204
-0.018811561 -0.0086044753 0.22426035
-0.018164275 -0.012202203 0.22507606
-0.018158369 -0.015699767 0.22617532
-0.01904753 -0.019387417 0.22744077
-0.018955499 -0.022997953 0.22929995
-0.018728882 -0.026586717 0.23394153
-0.013150696 0.037596386 0.1874914
-0.013348144 0.034416489 0.1893816
-0.013640025 0.031616502 0.19132215
-0.013803682 0.028892606 0.19313738
-0.013579733 0.026236292 0.19631602
-0.014439914 0.022603001 0.20048016
-0.014706519 0.018930193 0.20370413
-0.014521518 0.015176788 0.20656441
-0.014388781 0.011867107 0.20910548
-0.014587346 0.0087744575 0.21176688
-0.01470607 0.0060262708 0.21451895
-0.014700158 0.002517822 0.21748562
-0.014497876 -0.0010383563 0.2208968
-0.014717722 -0.0043922407 0.22348896
-0.014705877 -0.008163725 0.22457354
-0.014477113 -0.012518961 0.22563806
-0.014741247 -0.016675519 0.22718924
-0.015417947 -0.020349003 0.22913466
-0.015454713 -0.023689957 0.23180056
-0.015057786 -0.026588921 0.23548555
-0.01085659 0.034475498 0.19005449
-0.010486326 0.03182349 0.1919591
-0.010554859 0.029016977 0.19390735
-0.010354036 0.026471501 0.19694225
-0.01110715 0.023509143 0.20096584
-0.011707181 0.020032434 0.20490114
-0.011173056 0.01670398 0.20764184
-0.010700793 0.012811484 0.20997021
-0.010435967 0.0094457623 0.21231483
-0.010495295 0.0063398001 0.21537457
-0.01067412 0.0031134738 0.2182246
-0.010650317 -0.00059969333 0.22164303
-0.01090998 -0.0039581456 0.22359313
-0.011283642 -0.007852382 0.22453277
-0.010986177 -0.012222642 0.22522798
-0.011093826 -0.016638853 0.22829588
-0.011208692 -0.020249089 0.23028713
-0.011677171 -0.024116013 0.23401159
-0.012210577 -0.02638232 0.23626031
-0.0072542075 0.031845104 0.1931982
-0.0070938608 0.029351259 0.19563194
-0.0071845786 0.02652528 0.19867891
-0.0077318945 0.023777073 0.20173462
-0.008012536 0.020907292 0.20556499
-0.0075944061 0.017386694 0.20830224
-0.007030033 0.013552228 0.21034707
-0.0066749533 0.0099919755 0.21243902
-0.0066564539 0.0064359689 0.21579584
-0.0067264796 0.0029766569 0.21888538
-0.0069252062 -0.00065766822 0.22214951
-0.0069737467 -0.0040767197 0.22333317
-0.0075730621 -0.0077441535 0.22505741
-0.0075227576 -0.012240016 0.22554067
-0.0074500595 -0.016644062 0.22913113
-0.0079873279 -0.020320805 0.23106344
-0.0086899195 -0.023299212 0.23331216
-0.0046615629 0.031442005 0.19490065
-0.0034240969 0.029475508 0.19733182
-0.003599724 0.026459621 0.19960223
-0.0041276794 0.023789478 0.20190716
-0.0040889611 0.020882953 0.20487334
-0.0041623344 0.017428072 0.20781498
-0.0034505988 0.013689882 0.21019506
-0.0030887199 0.010311708 0.21254179
-0.0029676976 0.0067615048 0.21559125
-0.0030666764 0.0031590769 0.21839948
-0.0030135587 -0.00052909314 0.22184403
-0.0030850146 -0.0044503384 0.2231601
-0.0037089693 -0.0082462691 0.22539289
-0.0042936653 -0.012393094 0.22623542
-0.004991563 -0.016123738 0.22904727
-0.00039777785 0.028767066 0.19857994
-0.0003358332 0.02632321 0.1998089
-0.00064951275 0.023652771 0.20164819
-0.0007520098 0.020720989 0.20415498
-0.00058150938 0.017159803 0.20682564
1.2419418e-05 0.013673686 0.20958985
0.0004187249 0.010390099 0.21208796
0.00064993877 0.0068530007 0.21456118
0.00029351574 0.0033832851 0.21717541
0.00070076116 -0.00042304341 0.22038423
0.0001458262 -0.0042386414 0.22314736
-0.0015178439 -0.0077432841 0.22604208
0.0031083897 0.025995864 0.20002332
0.0033459826 0.023225371 0.20163089
0.0030670899 0.020231111 0.20357779
0.0029373681 0.016947631 0.20639569
0.0036154143 0.013311011 0.20869929
0.0032137341 0.010577028 0.21104619
0 0 0 1 0 0 0 1 0 0 0 1 0 0 0 0 0 346 1 0 0
