ply
format ascii 1.0
comment PCL generated
element vertex 346
property float x
property float y
property float z
element camera 1
property float view_px
property float view_py
property float view_pz
property float x_axisx
property float x_axisy
property float x_axisz
property float y_axisx
property float y_axisy
property float y_axisz
property float z_axisx
property float z_axisy
property float z_axisz
property float focal
property float scalex
property float scaley
property float centerx
property float centery
property int viewportx
property int viewporty
property float k1
property float k2
end_header
-0.058362678 0.027346466 0.18865126
-0.059057068 0.024567431 0.18987449
-0.059339363 0.021742916 0.19134969
-0.059396762 0.018808497 0.19304675
-0.059406172 0.015763888 0.19451651
-0.058044109 0.011521272 0.19759329
-0.054369632 0.030218566 0.18540584
-0.055755869 0.02771442 0.18699536
-0.055568058 0.024543494 0.18779324
-0.055787586 0.021661695 0.1896047
-0.056377269 0.018767301 0.19158337
-0.056719456 0.015133928 0.19371244
-0.056285124 0.011515689 0.19648673
-0.055977412 0.0083316276 0.19947024
-0.055790581 0.0057248315 0.20156784
-0.048309084 0.032377012 0.18157455
-0.049546935 0.030283781 0.18280402
-0.051141798 0.027633905 0.18416259
-0.051888201 0.024480557 0.18601376
-0.051988427 0.021641264 0.18832581
-0.052579168 0.018743956 0.19019994
-0.052934267 0.015104361 0.19212553
-0.053221781 0.011379239 0.1952339
-0.053439479 0.0073031136 0.19901736
-0.054274667 0.003877559 0.20149936
-0.054306377 0.00085242942 0.20387518
-0.054388877 -0.0017835769 0.20563993
-0.044896152 0.034929615 0.17947178
-0.045423269 0.03276198 0.18062563
-0.046012476 0.030471735 0.18201269
-0.046917085 0.027975144 0.1835506
-0.048196334 0.024654584 0.1860555
-0.048645128 0.02158271 0.18829404
-0.049088616 0.018596565 0.19009982
-0.049541824 0.015157492 0.1916801
-0.050171126 0.011043726 0.19502671
-0.050525468 0.0062324926 0.19860415
-0.051233999 0.0018281349 0.19950773
-0.052041572 -0.0010027653 0.20262587
-0.051985562 -0.0036715697 0.20559165
-0.052071594 -0.0058447453 0.2092739
-0.052543368 -0.0072393478 0.21284851
-0.041947775 0.037986379 0.17830592
-0.042500872 0.03588986 0.17931768
-0.042600695 0.033416308 0.18079491
-0.04302156 0.031102689 0.18239762
-0.043704987 0.028497605 0.18440396
-0.044692405 0.024765054 0.18685026
-0.045019943 0.021446675 0.18876657
-0.04530004 0.018545421 0.1902401
-0.046064753 0.014906103 0.19164351
-0.047126096 0.011048424 0.19439116
-0.047132414 0.0052682362 0.19744648
-0.047086719 -0.00013200796 0.19754794
-0.047101159 -0.0037315025 0.20049655
-0.048444528 -0.004568805 0.20550983
-0.049061563 -0.0064901598 0.20989439
-0.0503668 -0.0081573585 0.21372862
-0.051264118 -0.010074287 0.21619341
-0.051958859 -0.012298908 0.22001487
-0.040001135 0.039392997 0.17800421
-0.039908987 0.036636926 0.17986239
-0.040086903 0.034040976 0.1814324
-0.040385995 0.031548183 0.18313883
-0.040757071 0.028494054 0.18540648
-0.041590095 0.024508022 0.18778965
-0.041762363 0.021476893 0.18927827
-0.042239528 0.01869732 0.19030805
-0.042394847 0.015325488 0.19137014
-0.043316711 0.011329646 0.19366966
-0.043707561 0.0041480819 0.19598833
-0.04182395 -0.0017432125 0.19515412
-0.038982537 -0.0062246649 0.1972111
-0.044589877 -0.0060765231 0.2056047
-0.045764081 -0.0070571685 0.21055268
-0.046931963 -0.0079197185 0.21465082
-0.048175812 -0.009745677 0.21779697
-0.049633566 -0.012361721 0.22142132
-0.049463712 -0.015331321 0.22396041
-0.048052587 -0.01795898 0.22522551
-0.037076212 0.041939393 0.17678116
-0.037316047 0.040436327 0.17830844
-0.037368253 0.037697386 0.18009268
-0.037484266 0.034564301 0.18188223
-0.03759652 0.032051113 0.18416402
-0.038088288 0.028043548 0.18680485
-0.038464505 0.024338838 0.18854888
-0.038895648 0.021470467 0.18991365
-0.039215852 0.018536752 0.1910073
-0.039232876 0.014971709 0.19175231
-0.03962585 0.011024651 0.19339125
-0.0406355 0.0036575277 0.19499204
-0.038441401 -0.0012726856 0.1963183
-0.037225954 -0.0049951887 0.1997731
-0.040989697 -0.0069436752 0.20604026
-0.042404287 -0.0075935763 0.21111901
-0.043893356 -0.0088586779 0.21526423
-0.044967301 -0.010384413 0.21816665
-0.045786463 -0.011975917 0.22114716
-0.045593169 -0.01560592 0.22457793
-0.045377932 -0.020132225 0.22814302
-0.044032205 -0.022825418 0.22956604
-0.034453955 0.04288673 0.17682941
-0.034247156 0.041525122 0.17834115
-0.033796545 0.039282091 0.18014261
-0.033780504 0.036822684 0.18179299
-0.034225293 0.0329841 0.18457325
-0.034899507 0.028083699 0.18823528
-0.035418283 0.024628507 0.18953314
-0.035989922 0.021437069 0.19098371
-0.036370639 0.018240226 0.19210781
-0.036500897 0.014582315 0.19325383
-0.036806982 0.010312115 0.19439784
-0.037613276 0.0050032525 0.19502799
-0.036228478 0.00039463677 0.19773576
-0.035867028 -0.0026480923 0.20148639
-0.03795585 -0.0048973993 0.20680915
-0.039109971 -0.0080771483 0.21249172
-0.040679801 -0.0095551293 0.21630123
-0.041395359 -0.010939494 0.21872997
-0.041741092 -0.013328594 0.22210871
-0.042140823 -0.017038492 0.224272
-0.041783668 -0.020822229 0.22677349
-0.040579643 -0.02296675 0.22885583
-0.031468228 0.043274786 0.17729522
-0.031162929 0.041973475 0.17872758
-0.030836267 0.039686926 0.18075156
-0.03069322 0.037330303 0.18278311
-0.030801084 0.033497382 0.18552767
-0.031807765 0.028869724 0.18889299
-0.032290827 0.025482796 0.19041339
-0.032987792 0.021586696 0.19218963
-0.033532742 0.017881254 0.19332927
-0.033749733 0.014169207 0.19469173
-0.034271557 0.0098787295 0.1954768
-0.035088994 0.0058808965 0.19600736
-0.033908002 0.0019820747 0.19915512
-0.033872668 -0.00062422536 0.20307051
-0.035379056 -0.0030172169 0.20767191
-0.036541075 -0.006463795 0.2124804
-0.03770778 -0.0087184776 0.21731572
-0.038467586 -0.010294148 0.2200084
-0.038565397 -0.013006398 0.22270282
-0.038783185 -0.016904522 0.22380672
-0.038448505 -0.0205325 0.22541529
-0.036887746 -0.022859493 0.22741656
-0.028495384 0.043330517 0.1779149
-0.028122198 0.042051639 0.17923699
-0.028048502 0.039732914 0.18103446
-0.027687399 0.037413076 0.18348314
-0.027462563 0.033583913 0.18618888
-0.028271711 0.029971454 0.18910739
-0.029153381 0.026439089 0.19137669
-0.029920481 0.022523355 0.19303687
-0.030688647 0.017775331 0.19485053
-0.030816393 0.013276243 0.19681533
-0.031504758 0.0098887905 0.19694683
-0.032107774 0.007389416 0.19733931
-0.0314169 0.0043228469 0.20074543
-0.030996799 0.0017178048 0.20458126
-0.032491278 -0.0019892624 0.20888937
-0.03361256 -0.0050534755 0.21293083
-0.034929059 -0.0077389483 0.21870197
-0.035367332 -0.010034691 0.22130713
-0.035761785 -0.013222093 0.22336701
-0.035564892 -0.016994011 0.22471863
-0.034837689 -0.020346858 0.22593965
-0.03345355 -0.022565935 0.22737654
-0.025483783 0.043556489 0.17853284
-0.025181862 0.042408861 0.17987704
-0.024810044 0.039970282 0.1813719
-0.024510467 0.037120011 0.18358727
-0.024307668 0.034161922 0.18620448
-0.024910042 0.031072864 0.18897519
-0.025846621 0.027588736 0.19217317
-0.02685979 0.023082698 0.19459492
-0.02736553 0.017529724 0.19702975
-0.027565276 0.012859829 0.19876416
-0.027461123 0.01036241 0.19923624
-0.028687974 0.008861959 0.19961785
-0.028478708 0.0057999557 0.20338209
-0.028488118 0.0027952257 0.20648851
-0.029831085 -0.0010120564 0.2115618
-0.030397225 -0.003777537 0.21653916
-0.031401396 -0.0075659622 0.22028138
-0.03196153 -0.010384496 0.22225611
-0.032514926 -0.013264192 0.2239227
-0.032009296 -0.016883779 0.22527361
-0.030690281 -0.019810043 0.22634219
-0.030541567 -0.022204703 0.22747995
-0.030525463 -0.024940839 0.23060016
-0.022309542 0.044322357 0.17920218
-0.021862665 0.042808168 0.18053259
-0.021698596 0.03982966 0.18207557
-0.021329267 0.036850709 0.1836718
-0.021440011 0.034334432 0.18684396
-0.021898633 0.03171609 0.18946269
-0.022321729 0.029068636 0.19232869
-0.023271739 0.025274139 0.19521721
-0.024157362 0.019183479 0.19915077
-0.024473269 0.01413343 0.20097612
-0.024335714 0.01124301 0.2020229
-0.024999427 0.0088864295 0.2027017
-0.025550073 0.0061372383 0.20552783
-0.026152939 0.0031333899 0.20900179
-0.026492979 0.00014394788 0.21378799
-0.02653021 -0.0032249016 0.21779349
-0.027152169 -0.0073618437 0.2206644
-0.027791632 -0.010510561 0.22218442
-0.027814399 -0.013152557 0.22382905
-0.02741578 -0.01627194 0.22603925
-0.026670573 -0.01882128 0.22648807
-0.027141985 -0.022238176 0.22763278
-0.026704228 -0.025667196 0.23147625
-0.018771525 0.042511456 0.18168753
-0.018612837 0.040189445 0.18351695
-0.018428423 0.03731082 0.1848301
-0.018714329 0.034549884 0.18726376
-0.018973283 0.032054875 0.18982673
-0.019225596 0.029503811 0.19220233
-0.019875074 0.026173195 0.19616723
-0.020595439 0.021545589 0.19962421
-0.020984473 0.016671287 0.20263644
-0.02124613 0.012606266 0.20430954
-0.021626186 0.0098459041 0.20568551
-0.022610422 0.0069922721 0.20796485
-0.023064945 0.0039146808 0.21199997
-0.022672292 0.00082613184 0.21584842
-0.022616426 -0.0026525811 0.21862642
-0.022832122 -0.0064879344 0.22159024
-0.023340408 -0.0097457198 0.22283269
-0.022731902 -0.012963291 0.22442874
-0.022046512 -0.015839694 0.226955
-0.022224437 -0.018542621 0.22704703
-0.022616634 -0.022190919 0.22722387
-0.022703161 -0.026140397 0.23192427
-0.015649123 0.04034071 0.18467395
-0.01565701 0.037665825 0.18611561
-0.015845692 0.034695245 0.18818952
-0.016380217 0.031804558 0.19047669
-0.016686516 0.029334564 0.19270976
-0.016785897 0.026225269 0.19703861
-0.017663023 0.022113889 0.20060886
-0.017562274 0.018435452 0.20318596
-0.01777439 0.014253968 0.20517421
-0.018053524 0.010886305 0.20799914
-0.019133955 0.0077846018 0.21057446
-0.019270182 0.0047578099 0.21387108
-0.018821828 0.0015123301 0.2169926
-0.018389758 -0.0020609179 0.21980134
-0.018404596 -0.0054137311 0.22320111
-0.018846912 -0.0088260481 0.22445843
-0.018306354 -0.012182708 0.22544178
-0.018320108 -0.01561311 0.22658056
-0.0192929 -0.019234993 0.22759467
-0.019274391 -0.022741942 0.22910002
-0.01904425 -0.026308361 0.23347415
-0.013243678 0.037498772 0.18745227
-0.01345507 0.034227517 0.18942492
-0.013684318 0.031506944 0.19138393
-0.013855625 0.028931415 0.19334461
-0.013621536 0.026374688 0.19666901
-0.014481629 0.022930855 0.20101963
-0.014684481 0.01921026 0.20425171
-0.014440968 0.015436197 0.20716007
-0.014350577 0.011954908 0.20962977
-0.014570595 0.0085640233 0.21222478
-0.01469237 0.0057288576 0.21498519
-0.014659832 0.0022423442 0.21791439
-0.014481506 -0.0013199913 0.22127955
-0.01472437 -0.0046503078 0.22384781
-0.014765061 -0.0082316548 0.22509108
-0.01459418 -0.012428553 0.22624162
-0.014888412 -0.016584828 0.22768648
-0.015583887 -0.020215584 0.22955252
-0.015710529 -0.023492064 0.23187493
-0.01533108 -0.026318915 0.23533815
-0.01098864 0.034318991 0.19005074
-0.010532779 0.03166429 0.1919376
-0.010558478 0.028981857 0.19405104
-0.010341551 0.026461301 0.1971824
-0.011081132 0.023621632 0.20127322
-0.011597495 0.02011426 0.20515509
-0.011026666 0.016722878 0.2078366
-0.010633683 0.01272798 0.21006109
-0.010327693 0.0092660701 0.21249244
-0.010422781 0.0060933335 0.21567392
-0.010664415 0.0028747728 0.21863016
-0.010677079 -0.00082763861 0.22203861
-0.010957101 -0.0041597141 0.22396813
-0.0113493 -0.0079256333 0.22503792
-0.01111477 -0.01215175 0.22583537
-0.011220015 -0.016502932 0.22879691
-0.011352105 -0.020070663 0.23078831
-0.011926888 -0.023870431 0.23431583
-0.01250006 -0.026118927 0.2364233
-0.0071954746 0.031644572 0.19310823
-0.0069848839 0.029252617 0.19573137
-0.0071086185 0.026482206 0.19883367
-0.0076698498 0.023754952 0.20186715
-0.0079512009 0.02078413 0.20559995
-0.007517905 0.017244685 0.20827214
-0.0069399751 0.013417876 0.21025965
-0.0065702251 0.0098609114 0.21243015
-0.0065612257 0.0062649767 0.21600433
-0.0067365514 0.0027818882 0.21923915
-0.0069370256 -0.00087545323 0.22237308
-0.007018792 -0.0042876927 0.22354636
-0.0076355715 -0.0078264382 0.22540909
-0.0076255603 -0.012203821 0.22607325
-0.0075674946 -0.016531464 0.22961517
-0.0081534153 -0.02016052 0.2315813
-0.008898586 -0.02309132 0.23383561
-0.0045420825 0.031299192 0.19490109
-0.0032588418 0.02947061 0.19756566
-0.0034876172 0.026523132 0.19993195
-0.0040937038 0.023833346 0.20217563
-0.0040627723 0.020834278 0.20508398
-0.0040908265 0.017318074 0.20789264
-0.0033372298 0.013557752 0.21009058
-0.0029641958 0.010225234 0.21245065
-0.0028529665 0.0066431472 0.21563292
-0.0030963384 0.0029538767 0.21858433
-0.0030499757 -0.00076885853 0.22190377
-0.0031143294 -0.0046977005 0.22317074
-0.0037781561 -0.0084049255 0.22552904
-0.0043750601 -0.012397353 0.22661334
-0.0050880001 -0.016052306 0.22954963
-0.00025803517 0.028846046 0.19893569
-0.00023889056 0.026450103 0.20025386
-0.00058780203 0.023785353 0.2020936
-0.00071816263 0.02078547 0.20447041
-0.00049242756 0.017124809 0.20702931
0.00010803791 0.013614059 0.20964198
0.00054284371 0.010360772 0.2120433
0.00077321415 0.006794956 0.21452729
0.00023039083 0.0031920264 0.21722464
0.00061447371 -0.00069818646 0.22027454
0.00013227141 -0.0045413235 0.22295026
-0.0015322398 -0.0079595577 0.22604433
0.0031598737 0.026233066 0.20058565
0.0034071824 0.023457484 0.20219715
0.0031208219 0.020420993 0.20403789
0.0030186691 0.017025294 0.20665483
0.0037488726 0.01332537 0.20889491
0.0033263031 0.010579937 0.21111207
0 0 0 1 0 0 0 1 0 0 0 1 0 0 0 0 0 346 1 0 0
