ply
format ascii 1.0
comment PCL generated
element vertex 346
property float x
property float y
property float z
element camera 1
property float view_px
property float view_py
property float view_pz
property float x_axisx
property float x_axisy
property float x_axisz
property float y_axisx
property float y_axisy
property float y_axisz
property float z_axisx
property float z_axisy
property float z_axisz
property float focal
property float scalex
property float scaley
property float centerx
property float centery
property int viewportx
property int viewporty
property float k1
property float k2
end_header
-0.058945801 0.027508784 0.18944627
-0.059480961 0.024698766 0.19053428
-0.059752446 0.021923397 0.19175406
-0.059907828 0.018914141 0.19317205
-0.060222644 0.016041897 0.1937779
-0.058890529 0.012437445 0.19634987
-0.055190265 0.030383931 0.18629536
-0.056460176 0.027914841 0.18782018
-0.056179535 0.024811001 0.18861409
-0.056327332 0.021957023 0.19023584
-0.056943454 0.019025819 0.19184592
-0.057495628 0.015660059 0.19322525
-0.057176419 0.012563279 0.19540465
-0.056874573 0.009484686 0.19750015
-0.056696769 0.0066690119 0.19926189
-0.048740141 0.032255363 0.18229678
-0.050087757 0.030318746 0.18355425
-0.051940691 0.027853135 0.18494754
-0.052550036 0.024792133 0.18689035
-0.052472837 0.021995656 0.18911637
-0.053068157 0.01909969 0.19075271
-0.053572737 0.015903246 0.19215712
-0.054110043 0.012669755 0.19437686
-0.054588407 0.0086579276 0.1967978
-0.055339579 0.0048549329 0.1989174
-0.055217762 0.0015538391 0.20146285
-0.055220447 -0.001152851 0.20366783
-0.045231823 0.034612831 0.17999978
-0.045827594 0.032568462 0.18129198
-0.046493474 0.030380825 0.18280315
-0.047508392 0.028110435 0.18435131
-0.048789442 0.0249501 0.18701535
-0.04901075 0.021969534 0.18932611
-0.04940366 0.01893561 0.19102463
-0.049992494 0.015886979 0.19223808
-0.051041745 0.01257059 0.19413389
-0.051833618 0.00788718 0.19575413
-0.052690528 0.0031787169 0.19606285
-0.053171687 -0.00025127557 0.19974588
-0.052797619 -0.003083087 0.20350398
-0.052746054 -0.0051252726 0.20735434
-0.053154588 -0.0063741878 0.21120305
-0.042251546 0.037606765 0.17856202
-0.042832516 0.035515752 0.1797103
-0.042984609 0.03321664 0.18132694
-0.04344105 0.030999882 0.18311164
-0.044158414 0.028482307 0.18521604
-0.045101069 0.024916658 0.18795227
-0.045311641 0.021736231 0.18994135
-0.045515463 0.018820355 0.19126147
-0.04636832 0.015545714 0.19244142
-0.047883995 0.012552478 0.1936889
-0.048507713 0.0074102757 0.1936461
-0.048505265 0.0021085606 0.19233885
-0.04813714 -0.0025821321 0.195971
-0.049198329 -0.0039238841 0.20343497
-0.049706213 -0.0057398207 0.20796204
-0.050976556 -0.0073095346 0.21203935
-0.051968291 -0.0093342196 0.2149013
-0.052811377 -0.011423541 0.21880309
-0.040335178 0.0391597 0.17812996
-0.040239867 0.036348555 0.18009169
-0.040462188 0.033847626 0.18184631
-0.040807899 0.031469837 0.18373114
-0.04123513 0.028431635 0.1860795
-0.041962102 0.024508893 0.18866511
-0.042064771 0.021625357 0.19028495
-0.042571809 0.018967601 0.19137254
-0.04278823 0.016049486 0.19234683
-0.043857422 0.012342915 0.19335534
-0.044390526 0.0063166949 0.19138059
-0.041513503 5.0575407e-05 0.1900523
-0.038861752 -0.0050048339 0.19246916
-0.045369893 -0.0055072056 0.20337571
-0.046424687 -0.006352602 0.20859155
-0.047521055 -0.0071401759 0.21285762
-0.04893085 -0.0089952359 0.21653669
-0.050631013 -0.011458266 0.22023883
-0.050533693 -0.014168718 0.22274525
-0.049305517 -0.016506115 0.22307545
-0.037465796 0.041942444 0.17680383
-0.037627514 0.040364482 0.17827435
-0.03767141 0.037519552 0.18009953
-0.037922576 0.03438808 0.18223237
-0.038021114 0.031964436 0.18468124
-0.038489282 0.027832408 0.18731436
-0.038821988 0.02423986 0.18916646
-0.039212529 0.021500865 0.19069104
-0.03956065 0.018765813 0.19183403
-0.039617803 0.015660504 0.19228847
-0.039815489 0.011699839 0.1925178
-0.040219229 0.0052725896 0.19083406
-0.038055483 4.9739672e-05 0.19205537
-0.037607759 -0.0041976278 0.19562602
-0.041814923 -0.0065168259 0.2036669
-0.043098014 -0.0069666435 0.20906557
-0.044492073 -0.0079416018 0.21359988
-0.045819387 -0.0091244169 0.21705969
-0.04668225 -0.010556282 0.22014196
-0.046735808 -0.014161867 0.22271356
-0.046914496 -0.018391771 0.22583242
-0.045764167 -0.020980367 0.22744749
-0.034854192 0.043038674 0.1766964
-0.034559026 0.041619089 0.17820764
-0.034014966 0.039312091 0.17987405
-0.033956688 0.03686513 0.18166813
-0.03448417 0.032977734 0.1849322
-0.035119541 0.027834976 0.18857531
-0.035737876 0.024448 0.18987681
-0.036288537 0.021393508 0.1914207
-0.036678474 0.018440226 0.19242074
-0.03672877 0.015167243 0.19281423
-0.036757041 0.010933088 0.19279097
-0.036976755 0.0062535317 0.19173135
-0.036156464 0.0013296425 0.19415797
-0.036406823 -0.0021623003 0.19799636
-0.038696028 -0.0045570382 0.20399186
-0.039856493 -0.0075697377 0.21058667
-0.041404989 -0.0085739736 0.21480656
-0.042245559 -0.0098507917 0.2175779
-0.042791329 -0.012153199 0.22034614
-0.043435965 -0.015757926 0.22214463
-0.043409977 -0.019333249 0.22461385
-0.042261329 -0.021401946 0.22679156
-0.031838652 0.043394431 0.17708181
-0.031443972 0.042011831 0.17853908
-0.031016868 0.03967284 0.18053316
-0.030819822 0.037401531 0.18260917
-0.030825075 0.033542208 0.18594082
-0.031900037 0.028630506 0.18932185
-0.032528583 0.02525375 0.19064052
-0.033229861 0.021564571 0.19232541
-0.033929184 0.01812203 0.19335118
-0.033914085 0.014684781 0.19385445
-0.034224428 0.010440673 0.19362657
-0.034717955 0.0067332168 0.19325092
-0.034039482 0.0025376617 0.19622789
-0.034331877 -0.00039520834 0.20010269
-0.036061723 -0.0028541239 0.20487009
-0.037399717 -0.0060479036 0.21015574
-0.03843119 -0.0078691244 0.21539994
-0.039425466 -0.0096393172 0.21834154
-0.039675895 -0.012380237 0.22030203
-0.040120628 -0.015918907 0.22153375
-0.040104311 -0.019414684 0.223388
-0.038664069 -0.021584686 0.2257029
-0.028815823 0.043259952 0.17776626
-0.028372431 0.041983593 0.17905287
-0.028177615 0.039698184 0.18080439
-0.027777668 0.03740285 0.18334618
-0.027420385 0.033597402 0.18661779
-0.028215863 0.029798998 0.18963923
-0.029291956 0.026134335 0.19169232
-0.030243536 0.022380251 0.1931541
-0.031133404 0.018020637 0.19478565
-0.031040395 0.013738479 0.19572988
-0.031638645 0.010369011 0.19529699
-0.032030765 0.007944786 0.19511814
-0.031520456 0.004787304 0.19837759
-0.031226108 0.0019282645 0.2020469
-0.033139799 -0.0020241693 0.20624614
-0.034529384 -0.0049529364 0.21048297
-0.03564192 -0.0073897801 0.2166535
-0.036498211 -0.010010491 0.21924885
-0.037034586 -0.012885498 0.2209406
-0.037026968 -0.016252406 0.22249936
-0.036572363 -0.019497633 0.22403775
-0.035099111 -0.021593222 0.22625989
-0.025785513 0.043484017 0.17835094
-0.02543625 0.042335995 0.17963514
-0.024917865 0.039947402 0.18106467
-0.024518626 0.037050318 0.18354735
-0.024259366 0.034208503 0.18643616
-0.024906235 0.031081375 0.18928881
-0.025907816 0.027243923 0.19250679
-0.027215926 0.022770366 0.19475533
-0.027913267 0.017660789 0.19710855
-0.028096963 0.013340915 0.19808729
-0.028035492 0.011118743 0.19842894
-0.029027937 0.0095485989 0.19836025
-0.028992627 0.0062502539 0.20192894
-0.029082103 0.0029281136 0.20470884
-0.030514134 -0.0012689763 0.20913503
-0.030616393 -0.0047658584 0.2145011
-0.032308813 -0.0080660637 0.21866652
-0.033421461 -0.010858699 0.22041364
-0.034046039 -0.013243166 0.22177957
-0.033710137 -0.016449865 0.22335881
-0.032309845 -0.019152809 0.22541805
-0.031765833 -0.021740507 0.22709593
-0.031387389 -0.024679812 0.23052821
-0.022479303 0.044459406 0.17893974
-0.021847606 0.042888761 0.18037342
-0.021655105 0.039837364 0.18192792
-0.021328883 0.036791146 0.18373674
-0.021441014 0.03439201 0.1870001
-0.02185679 0.031762991 0.18961066
-0.022313058 0.028994564 0.19237117
-0.023251843 0.024897711 0.19528423
-0.024327982 0.01855175 0.19924715
-0.024925735 0.014042287 0.20106103
-0.025255939 0.011840971 0.20202608
-0.025974235 0.0096188784 0.20225546
-0.026586294 0.0064921868 0.20463206
-0.027135177 0.0030852705 0.20763712
-0.026790833 -0.00073211687 0.21242908
-0.026812518 -0.0040322398 0.21726967
-0.028008835 -0.0080184126 0.22018391
-0.029076569 -0.01119375 0.22177278
-0.029225737 -0.013665418 0.22361311
-0.028619302 -0.016450735 0.226153
-0.02732495 -0.018971089 0.22703321
-0.027800029 -0.022298528 0.22797708
-0.027288111 -0.025632357 0.2318683
-0.018605597 0.042591907 0.1818876
-0.018553359 0.040306978 0.18369783
-0.018476767 0.037366893 0.184953
-0.018748665 0.034586277 0.18742527
-0.01898196 0.032121908 0.18998083
-0.01918461 0.029597571 0.19230309
-0.01972514 0.026057068 0.1963179
-0.020445876 0.021171929 0.1998715
-0.021007279 0.016219672 0.20301701
-0.021759056 0.01261351 0.20479061
-0.022483053 0.010217354 0.20595303
-0.02361037 0.0072644847 0.20796056
-0.023783425 0.0038198768 0.21186408
-0.022984298 0.00034747619 0.21592297
-0.023065131 -0.0031794687 0.21877642
-0.02355456 -0.0069859126 0.22178432
-0.024235802 -0.010363302 0.22312038
-0.02345348 -0.013467061 0.22521517
-0.022494392 -0.016038671 0.22787453
-0.022551674 -0.018691335 0.22790328
-0.022970431 -0.022334402 0.22794557
-0.023115491 -0.026148003 0.2324204
-0.015570777 0.040459339 0.1850168
-0.015703466 0.037789509 0.18643709
-0.015904967 0.034759175 0.18850221
-0.016498636 0.031854894 0.19091256
-0.016741116 0.029398534 0.1931102
-0.016693385 0.026190771 0.19730894
-0.01755874 0.021851186 0.20090137
-0.017477302 0.01824479 0.20356113
-0.017800553 0.01401695 0.20574801
-0.018507348 0.01097393 0.20845903
-0.019840693 0.0078268601 0.2108217
-0.019663714 0.0046111802 0.21418667
-0.019209173 0.0012480813 0.21729882
-0.018816646 -0.0021925126 0.22043197
-0.018766494 -0.0055022249 0.22375968
-0.01929556 -0.0090935258 0.22484368
-0.018755469 -0.012368397 0.22613063
-0.01861573 -0.0157189 0.22742428
-0.019572299 -0.019301282 0.2285095
-0.019534448 -0.022822071 0.22984573
-0.019403748 -0.026333535 0.23403391
-0.013293282 0.037513364 0.18776716
-0.013602881 0.034266837 0.18988991
-0.013828542 0.031617887 0.19191869
-0.013961235 0.029113738 0.19384271
-0.013532222 0.026427371 0.19705653
-0.014317375 0.022820204 0.20131904
-0.014632564 0.019084061 0.20461152
-0.014414344 0.015422437 0.20776652
-0.01441654 0.012015988 0.21025802
-0.014767205 0.0085245995 0.21269645
-0.014965799 0.0055402569 0.21536665
-0.014899896 0.0020611451 0.21826985
-0.014811605 -0.0014634789 0.22174215
-0.015102005 -0.004815584 0.22422732
-0.015063237 -0.0083595756 0.22549726
-0.014901305 -0.01252974 0.22692493
-0.015089882 -0.016641175 0.22861937
-0.01567944 -0.020238383 0.23057462
-0.01589587 -0.02346728 0.23269294
-0.015640888 -0.02620914 0.2359671
-0.011101743 0.034264132 0.19032596
-0.010634566 0.03167183 0.19233625
-0.010631244 0.029042834 0.1944811
-0.010228054 0.026509413 0.1975172
-0.010880863 0.023543011 0.20149793
-0.011529821 0.020065431 0.20538409
-0.010992886 0.016800594 0.20828523
-0.010700078 0.012831366 0.21055542
-0.010374083 0.009291131 0.21307015
-0.010564676 0.006013019 0.21615238
-0.010824706 0.0026788071 0.21904419
-0.010920066 -0.00098649086 0.22235037
-0.011327254 -0.004249 0.22419257
-0.011624426 -0.0080389893 0.22533576
-0.011466115 -0.012220261 0.22645286
-0.011443171 -0.016447805 0.22957008
-0.011512698 -0.020007852 0.23159523
-0.012111148 -0.023795668 0.23499154
-0.01273519 -0.026044885 0.23717785
-0.0072534187 0.031509567 0.19334282
-0.0070187971 0.0291372 0.19599681
-0.0070192744 0.026422838 0.19902702
-0.0076108356 0.0236082 0.20187348
-0.0079958485 0.020704839 0.20562273
-0.007531432 0.01729963 0.20846224
-0.0069741705 0.013551042 0.2105718
-0.0065700826 0.009909776 0.21283971
-0.0066180737 0.0062559107 0.21651493
-0.0068918411 0.0026401032 0.21960858
-0.0070345481 -0.00093671831 0.22250104
-0.0071332366 -0.0043190168 0.22366099
-0.0077960622 -0.0078743258 0.22560383
-0.0079848664 -0.012331398 0.22658812
-0.0078248689 -0.01660201 0.23019169
-0.0083516408 -0.02014103 0.23219578
-0.0090301735 -0.02306859 0.23450539
-0.0046185493 0.031028418 0.19491519
-0.0032140566 0.02917226 0.19737832
-0.0034206545 0.026281022 0.1998584
-0.0041430076 0.023582119 0.20215447
-0.0041312785 0.020671366 0.20514862
-0.0041627423 0.017317001 0.20808068
-0.0033908763 0.013562706 0.21026483
-0.0029473689 0.010259595 0.21263079
-0.0028392184 0.0066277268 0.21592149
-0.0032989695 0.0029010864 0.21887724
-0.003178068 -0.00072816917 0.22192599
-0.0031732137 -0.0046512908 0.22314014
-0.0039205565 -0.0084260665 0.22560675
-0.0047228825 -0.012601933 0.2269277
-0.0054201181 -0.016316149 0.23002991
-0.00014132046 0.028432854 0.19856098
-0.0001800663 0.026209742 0.20012666
-0.00065355096 0.02361289 0.2021746
-0.00082997599 0.020625954 0.20457268
-0.0005902751 0.016997572 0.20722252
4.7725109e-05 0.01351497 0.20982026
0.0005340862 0.010353571 0.21218562
0.00079742196 0.0068139741 0.21471269
1.779999e-05 0.0032175814 0.21740974
0.00048422691 -0.00060155732 0.22018187
0.00012766234 -0.0044840965 0.22279237
-0.0016385021 -0.0079741096 0.22601336
0.0031458016 0.026050547 0.2005877
0.0033262761 0.023326375 0.20240308
0.0029635788 0.020310929 0.20424832
0.0029027553 0.016841982 0.20681809
0.0037343774 0.013037867 0.20917577
0.0032574954 0.010438533 0.21134289
0 0 0 1 0 0 0 1 0 0 0 1 0 0 0 0 0 346 1 0 0
