ply
format ascii 1.0
comment PCL generated
element vertex 346
property float x
property float y
property float z
element camera 1
property float view_px
property float view_py
property float view_pz
property float x_axisx
property float x_axisy
property float x_axisz
property float y_axisx
property float y_axisy
property float y_axisz
property float z_axisx
property float z_axisy
property float z_axisz
property float focal
property float scalex
property float scaley
property float centerx
property float centery
property int viewportx
property int viewporty
property float k1
property float k2
end_header
-0.05951089 0.026960492 0.19036865
-0.059886362 0.024170371 0.1913887
-0.060077112 0.021485461 0.1925261
-0.060212884 0.018558495 0.19392249
-0.060492814 0.015903058 0.19492571
-0.05904847 0.012683592 0.19738699
-0.056110498 0.029799033 0.18706727
-0.057265442 0.027421419 0.18874292
-0.056802448 0.024335211 0.18949172
-0.056764375 0.021533316 0.19101794
-0.057287898 0.018689629 0.19254644
-0.057752311 0.015501338 0.19429693
-0.057379898 0.012734056 0.19643216
-0.057097547 0.0099548725 0.19848408
-0.056972522 0.007267959 0.20015384
-0.049125459 0.031045357 0.18210115
-0.050599799 0.029387411 0.18362691
-0.052896511 0.02733876 0.18560521
-0.053273641 0.024348754 0.18765214
-0.052875329 0.021559455 0.18976361
-0.053363215 0.018741913 0.19140311
-0.053758774 0.015675839 0.19318178
-0.054350439 0.01278643 0.19542201
-0.054909624 0.0091065299 0.19779946
-0.055718772 0.0054198555 0.19978237
-0.055642031 0.0021270856 0.20218299
-0.055702988 -0.0006143871 0.20424177
-0.045479394 0.033303782 0.17960759
-0.04603016 0.031335339 0.18096818
-0.046813004 0.029266356 0.18266955
-0.047978781 0.027250972 0.18449372
-0.049371969 0.024467437 0.18757471
-0.049237393 0.021524798 0.18986164
-0.049590264 0.018599378 0.19172971
-0.050115023 0.015691614 0.19345677
-0.051296625 0.012679256 0.19520156
-0.052262761 0.0082622617 0.19675301
-0.053235877 0.0036123588 0.19699737
-0.053702157 0.00031496055 0.20041963
-0.053262144 -0.0024858029 0.20389877
-0.053234518 -0.004565577 0.20759833
-0.05374172 -0.0059464052 0.21129124
-0.042499546 0.036450867 0.17822167
-0.0430854 0.034288991 0.17931935
-0.043239012 0.032051049 0.18097942
-0.043693148 0.029943831 0.18294053
-0.044412848 0.027619345 0.18526664
-0.045312252 0.024236858 0.18837698
-0.045542791 0.021311883 0.19064234
-0.045755707 0.018537018 0.19217394
-0.046570737 0.015392658 0.19389544
-0.048126578 0.012633043 0.19495641
-0.049035523 0.0076520746 0.19461396
-0.049401496 0.0023629314 0.1934294
-0.049029164 -0.0020519891 0.19716685
-0.049631126 -0.0031760058 0.20388593
-0.050224446 -0.0050726081 0.20831014
-0.051585235 -0.0068040495 0.21219306
-0.052557785 -0.0088242935 0.21476544
-0.053503737 -0.01083438 0.21861421
-0.0405684 0.038212717 0.17785726
-0.040505331 0.035239425 0.17967293
-0.040743325 0.032769959 0.18147598
-0.041108761 0.030562874 0.18356116
-0.04152168 0.02776861 0.18634214
-0.042240519 0.023894558 0.1893052
-0.042416099 0.021189716 0.19111362
-0.043010511 0.018693259 0.19237083
-0.043359302 0.015968302 0.1938789
-0.044301488 0.012569844 0.19511309
-0.045498934 0.006539064 0.19280751
-0.043282956 0.00050188514 0.19231312
-0.04060724 -0.0042331265 0.19516659
-0.045856535 -0.0045303749 0.20414962
-0.047093477 -0.0054897317 0.20914495
-0.048236053 -0.0065039783 0.21320891
-0.049578812 -0.0084392065 0.2164043
-0.051459193 -0.01085443 0.22013554
-0.051276002 -0.013483128 0.22257757
-0.049859125 -0.016156171 0.22242932
-0.037848316 0.041269116 0.17675595
-0.037937805 0.039587203 0.17807542
-0.037892774 0.036582164 0.17969857
-0.038287606 0.033441611 0.18191743
-0.038429253 0.031238586 0.18461926
-0.038900804 0.027285162 0.18795975
-0.039223909 0.02374487 0.19010878
-0.039709982 0.021145726 0.19176747
-0.040274624 0.018669661 0.19314337
-0.040854689 0.016006354 0.19459598
-0.041638058 0.012421071 0.19539526
-0.042371418 0.0057713357 0.19300774
-0.040077802 0.00078207121 0.19463556
-0.039608579 -0.0032196636 0.19826579
-0.042491946 -0.0051375283 0.20496991
-0.043949943 -0.0056744814 0.20998035
-0.045311339 -0.0070155687 0.21387883
-0.046462312 -0.0087072048 0.21669677
-0.047345348 -0.010247658 0.21978708
-0.047314934 -0.01385591 0.22189325
-0.047719564 -0.017951321 0.2247463
-0.046626084 -0.020659337 0.22634004
-0.03529752 0.042560484 0.17662621
-0.034888819 0.041151904 0.17808148
-0.034145303 0.038828012 0.17951706
-0.033983085 0.036414903 0.18139724
-0.034775268 0.032489557 0.1850542
-0.035597306 0.027289622 0.18938945
-0.036248628 0.024026463 0.19092645
-0.036973909 0.021183567 0.19277216
-0.037693653 0.018631965 0.19418472
-0.038406223 0.01570561 0.19569972
-0.039232366 0.011670218 0.19622922
-0.03935913 0.0069751698 0.19435994
-0.038374394 0.0022315711 0.19683704
-0.038526375 -0.0011167278 0.20060375
-0.040290784 -0.0034280505 0.20605208
-0.040749006 -0.0057517802 0.21178481
-0.042354759 -0.007492397 0.21527126
-0.042946201 -0.009507102 0.21712001
-0.043427393 -0.012157302 0.21938692
-0.044063684 -0.015655365 0.2210912
-0.044221412 -0.019177506 0.22353001
-0.043114182 -0.021262808 0.22565076
-0.032265697 0.043096568 0.17692302
-0.031734567 0.04172416 0.17839664
-0.031160315 0.039334916 0.18029694
-0.030879917 0.037093475 0.18238473
-0.030990992 0.033214584 0.1861033
-0.032300413 0.028175587 0.1899498
-0.03294589 0.024881935 0.19142105
-0.033919029 0.021408964 0.19360536
-0.035210796 0.018315382 0.19545032
-0.035881955 0.015143107 0.19700809
-0.036990114 0.01110066 0.19726257
-0.03727689 0.0075963745 0.19613303
-0.036368679 0.0035880262 0.19906409
-0.036397163 0.00066803524 0.20271145
-0.037930571 -0.0018198633 0.20713112
-0.038878862 -0.0045282268 0.21198787
-0.039656878 -0.0066148303 0.21643429
-0.040364303 -0.0093122972 0.21801957
-0.0403561 -0.01245899 0.21919461
-0.040820263 -0.015899096 0.22042207
-0.040917397 -0.019341568 0.22235042
-0.039550319 -0.021553231 0.2246573
-0.029208448 0.043058999 0.1776828
-0.028691093 0.041749857 0.1789331
-0.028304769 0.03943865 0.18060578
-0.027835598 0.037155408 0.18322876
-0.027573671 0.033549264 0.18684463
-0.02849444 0.029595394 0.19010472
-0.029603561 0.025793174 0.19222137
-0.030806206 0.022101505 0.19414751
-0.032607157 0.018115826 0.19708769
-0.033418223 0.014208767 0.19928746
-0.034527969 0.010975895 0.1990204
-0.034778472 0.0089380117 0.19840336
-0.033889987 0.0059836209 0.20127551
-0.033180322 0.0030164123 0.20461801
-0.035078973 -0.00090590055 0.2086388
-0.036435485 -0.0036846981 0.21281803
-0.036993403 -0.0064045996 0.2180005
-0.037488077 -0.0098213553 0.21890993
-0.037753988 -0.012955595 0.21988313
-0.037775181 -0.016282931 0.2213916
-0.037438851 -0.019544024 0.22300723
-0.035814993 -0.021642769 0.22544153
-0.026158633 0.043347739 0.17825451
-0.025714416 0.042178091 0.17949383
-0.02508539 0.039792519 0.18084645
-0.024652543 0.037028287 0.183585
-0.024440011 0.034297273 0.18667039
-0.025141958 0.031146435 0.18970436
-0.026127918 0.027108181 0.19286701
-0.027655143 0.022504546 0.19554679
-0.029466132 0.017537039 0.1995488
-0.030677106 0.013949235 0.20177154
-0.030674422 0.012127856 0.20203175
-0.031632293 0.010660679 0.20170258
-0.031070272 0.0074191629 0.20483336
-0.03085966 0.0039427704 0.20732848
-0.032606829 -8.8764784e-05 0.21169953
-0.032184418 -0.0038436756 0.21664818
-0.033351343 -0.0078286957 0.21901682
-0.034426548 -0.010916141 0.22014186
-0.034859896 -0.013397334 0.221007
-0.034591977 -0.0165924 0.22240525
-0.033053197 -0.019318458 0.22469619
-0.031748839 -0.021631479 0.22663848
-0.03066656 -0.02443664 0.23027085
-0.022774987 0.044441845 0.17882368
-0.022010842 0.042805232 0.18028449
-0.021766353 0.039793141 0.18192159
-0.02152081 0.036850639 0.18390481
-0.021659572 0.034460053 0.18722217
-0.022034952 0.031844262 0.18995921
-0.022438072 0.029026067 0.1927844
-0.023293432 0.024841499 0.1957484
-0.02480156 0.018047532 0.20110133
-0.026498033 0.014647624 0.20401716
-0.02720717 0.012928761 0.20522597
-0.028087834 0.010869309 0.20545223
-0.028465714 0.0075729648 0.20757462
-0.02880734 0.0039620451 0.21030764
-0.028138371 -2.4139857e-05 0.21458484
-0.027497191 -0.0041212318 0.21821138
-0.028807474 -0.0083315959 0.22065313
-0.029890401 -0.011570043 0.22198384
-0.029928135 -0.014026233 0.22366548
-0.028952304 -0.016711032 0.22608982
-0.026986931 -0.018961197 0.22703823
-0.027158396 -0.022057408 0.22789302
-0.026262714 -0.025249746 0.23164587
-0.018696995 0.04253282 0.1819838
-0.018687423 0.040299285 0.18382148
-0.018671185 0.037456699 0.18510959
-0.019012343 0.034625642 0.18763034
-0.019202612 0.032158572 0.19027661
-0.019267377 0.029631615 0.19268017
-0.019577479 0.026091445 0.19685674
-0.020131094 0.021022381 0.20081429
-0.020781817 0.016218133 0.20464179
-0.022325005 0.012847782 0.20702912
-0.023510104 0.01069061 0.20824026
-0.024914188 0.0076987674 0.21016273
-0.024643507 0.0037788292 0.21321915
-0.023360785 -4.4849312e-05 0.21646351
-0.023543818 -0.0035489658 0.21941443
-0.024043227 -0.0074541494 0.22217631
-0.024665641 -0.010785894 0.22339922
-0.023733068 -0.013804736 0.22560523
-0.022402406 -0.016208418 0.22796153
-0.022321889 -0.018635381 0.22780201
-0.022384612 -0.022053875 0.22777081
-0.02211236 -0.025676634 0.23190631
-0.015704723 0.040495191 0.18523017
-0.015896162 0.03783704 0.18664537
-0.016146874 0.034714945 0.18877521
-0.016733985 0.031797241 0.19131862
-0.016865913 0.029346259 0.1935757
-0.016578067 0.026157856 0.19778483
-0.017237706 0.02176985 0.20161256
-0.016988676 0.018337386 0.20453914
-0.01730899 0.014201454 0.20719083
-0.018660072 0.011132563 0.2099313
-0.020525279 0.0076847677 0.21199483
-0.020008117 0.004177154 0.21469207
-0.01945108 0.00070157886 0.21757481
-0.019076267 -0.0026270242 0.22087677
-0.018984016 -0.0058273063 0.22422656
-0.01953646 -0.0093380213 0.22517443
-0.018960752 -0.012460235 0.2263543
-0.01873987 -0.015798248 0.2274937
-0.019426418 -0.019242918 0.22832848
-0.019018596 -0.022503905 0.22940697
-0.018455036 -0.025891835 0.2334194
-0.013504816 0.037483741 0.1879743
-0.013843137 0.034152959 0.19018513
-0.014042123 0.031486183 0.1922228
-0.014071573 0.029016234 0.19424616
-0.013465693 0.026372926 0.19746017
-0.014040462 0.022812063 0.20185263
-0.014135833 0.019210937 0.2053117
-0.013746154 0.015704133 0.20868617
-0.014060427 0.012100601 0.21095
-0.014886139 0.0082062548 0.21308763
-0.015136304 0.0050292262 0.21566361
-0.01506083 0.0015852062 0.21852627
-0.015036995 -0.0018519006 0.22211798
-0.015345115 -0.0050933333 0.22450548
-0.015275341 -0.0085336184 0.22572875
-0.015198147 -0.012615543 0.22710547
-0.015276011 -0.016724957 0.22865628
-0.015676524 -0.020351313 0.23036517
-0.015589242 -0.023340546 0.23221597
-0.015152656 -0.025915982 0.23523289
-0.011243379 0.034152959 0.19049364
-0.010730448 0.031458292 0.19251224
-0.010662889 0.028825318 0.19471958
-0.010172981 0.026424933 0.19790779
-0.010733395 0.023624303 0.20197815
-0.011205076 0.020261751 0.20576835
-0.01060544 0.017012948 0.20873067
-0.010602686 0.012859879 0.21095115
-0.010415063 0.0091010081 0.21347764
-0.010665684 0.0056658364 0.21651809
-0.01095699 0.0022796153 0.21941829
-0.011126051 -0.0013138339 0.22264354
-0.011556768 -0.004494851 0.22433266
-0.01184597 -0.0082297176 0.22544655
-0.011815258 -0.01234023 0.22668895
-0.011638842 -0.016475836 0.22968082
-0.011611554 -0.020071397 0.23153083
-0.012015259 -0.023786509 0.23461588
-0.012472581 -0.025995145 0.23669411
-0.0072543207 0.031266417 0.19353537
-0.0070004882 0.029001908 0.19637193
-0.0069373534 0.026400896 0.19953634
-0.0076000709 0.023765482 0.20236982
-0.0081223315 0.020917894 0.20610182
-0.0076521845 0.017360317 0.20882744
-0.0070349327 0.013571198 0.21093802
-0.0065754731 0.0098412912 0.21325628
-0.006680409 0.0060926029 0.21698922
-0.0070663453 0.0024079839 0.22004758
-0.0072008939 -0.0011204258 0.22279313
-0.0072785793 -0.0044735279 0.22386989
-0.0079778684 -0.0080620181 0.22571635
-0.0083384812 -0.01248872 0.22682713
-0.0079956567 -0.016696163 0.23029925
-0.0084607704 -0.020198662 0.23212312
-0.0090197474 -0.023147076 0.23432721
-0.0045620678 0.030851802 0.19532901
-0.003126167 0.02908716 0.19800712
-0.0034019626 0.026218617 0.20048836
-0.0042564771 0.023597151 0.20267566
-0.0042937421 0.0206565 0.20564833
-0.004403939 0.017324638 0.20853376
-0.0035428766 0.013552542 0.21071924
-0.0029965609 0.01022498 0.2131225
-0.0028708107 0.0065763015 0.21641383
-0.003423031 0.0028601738 0.21932125
-0.0033334764 -0.00078143849 0.22226974
-0.0032827507 -0.0047031417 0.2234167
-0.0040934915 -0.00855939 0.2258181
-0.0049886405 -0.012746929 0.22709709
-0.0055753058 -0.01639659 0.2301015
-6.763704e-05 0.028260626 0.19926217
-0.00021794937 0.02604479 0.20067137
-0.00076784787 0.023480505 0.20263539
-0.0010136508 0.020512978 0.20507486
-0.00085252075 0.016908543 0.20782156
-9.1273381e-05 0.013430757 0.21046688
0.00043384029 0.010280621 0.21277305
0.0006973219 0.0067349621 0.21527652
-0.0001035673 0.0032458613 0.2179099
0.00037961657 -0.00051362003 0.22055967
6.9445559e-05 -0.0044687679 0.22314791
-0.0017955062 -0.0080864616 0.2262515
0.0031212675 0.025788413 0.20112106
0.0032521109 0.023078034 0.20293561
0.0027809511 0.020122541 0.20485201
0.0027193946 0.016670913 0.20755734
0.0036512478 0.012792099 0.20993356
0.0031236655 0.010267509 0.212008
0 0 0 1 0 0 0 1 0 0 0 1 0 0 0 0 0 346 1 0 0
