ply
format ascii 1.0
comment PCL generated
element vertex 239
property float x
property float y
property float z
element camera 1
property float view_px
property float view_py
property float view_pz
property float x_axisx
property float x_axisy
property float x_axisz
property float y_axisx
property float y_axisy
property float y_axisz
property float z_axisx
property float z_axisy
property float z_axisz
property float focal
property float scalex
property float scaley
property float centerx
property float centery
property int viewportx
property int viewporty
property float k1
property float k2
end_header
-0.02826263 0.033362232 0.14765005
-0.027547318 0.03106595 0.1475919
-0.026833538 0.02885155 0.14901313
-0.026099462 0.026422177 0.15018275
-0.025698651 0.024042722 0.15175343
-0.027015693 0.020593921 0.15437277
-0.031000936 0.014293656 0.15698059
-0.031463113 0.011665625 0.15836118
-0.03082593 0.0087241279 0.15922369
-0.030265409 0.0058522811 0.15952434
-0.031376153 0.0027672239 0.16036555
-0.03292086 -0.00030618144 0.16190815
-0.0332141 -0.0029859086 0.16172108
-0.026226291 0.033567533 0.14682803
-0.025023941 0.031134639 0.14756256
-0.024175256 0.028878225 0.14825097
-0.023543674 0.026591819 0.14948075
-0.023392435 0.02424025 0.15121341
-0.02404703 0.020864971 0.15280318
-0.025300656 0.016643452 0.15627281
-0.026823204 0.013111497 0.15733811
-0.026987737 0.0099838339 0.1587209
-0.026469577 0.0069174846 0.15980388
-0.026250159 0.0036420142 0.16110149
-0.029270271 0.00019882234 0.16198123
-0.030924695 -0.0034083582 0.16358131
-0.027894026 -0.0065834401 0.16447291
-0.023253841 0.033710413 0.14643155
-0.021594422 0.031495254 0.14762658
-0.021325307 0.029135151 0.14829171
-0.021301908 0.026872918 0.14971939
-0.021010824 0.024257457 0.15122892
-0.021718482 0.020827666 0.15402164
-0.022966908 0.016918706 0.15650092
-0.023444222 0.013718802 0.15716372
-0.023691639 0.010968163 0.15801497
-0.024024667 0.0076573915 0.16026589
-0.023663716 0.0029726299 0.16378571
-0.025224412 -0.00037299751 0.16408868
-0.025496233 -0.0044527878 0.16520253
-0.024584495 -0.0063375966 0.16656142
-0.024194708 -0.0086106183 0.16784416
-0.018603859 0.033554558 0.14795196
-0.018824784 0.031483226 0.1486309
-0.018822704 0.029435445 0.14882268
-0.018997511 0.027225954 0.150856
-0.018880274 0.024424504 0.15143242
-0.019258436 0.021508865 0.15416779
-0.020769538 0.017609522 0.15740961
-0.020417191 0.014444483 0.15784276
-0.020769442 0.011835835 0.15914732
-0.020728583 0.0063860412 0.16282995
-0.021902286 0.0021903731 0.16472819
-0.02273497 -0.00022550406 0.16586098
-0.023402993 -0.0032418896 0.16691361
-0.022559585 -0.0052692625 0.1676622
-0.02263258 -0.0073673395 0.16959761
-0.015589275 0.033617839 0.1489698
-0.016054045 0.031340379 0.14921318
-0.016018761 0.02937294 0.14922091
-0.016563768 0.026857214 0.15163024
-0.016500635 0.024332354 0.15261269
-0.016907623 0.021822952 0.1544726
-0.018195685 0.018042596 0.15873478
-0.018059896 0.01536477 0.15895571
-0.018287463 0.012516678 0.16035587
-0.017876098 0.0063466928 0.16412258
-0.018737826 0.0029933141 0.16638017
-0.019877225 0.0003952182 0.1679472
-0.020594567 -0.0022647886 0.16763209
-0.020369761 -0.0043727192 0.16900495
-0.019455647 -0.0070530474 0.17014977
-0.012767318 0.033908963 0.14978851
-0.013061039 0.031432305 0.15001807
-0.013149163 0.0290609 0.15086125
-0.013468298 0.026657963 0.15223093
-0.013992466 0.024450183 0.15314054
-0.014399651 0.021964118 0.15441218
-0.014917366 0.019121431 0.15819719
-0.015344701 0.015929019 0.15929706
-0.015605278 0.012640548 0.16138777
-0.016204258 0.0068766149 0.16487452
-0.0177966 0.0025118075 0.16742468
-0.018432792 0.00048073404 0.16839418
-0.018628623 -0.001322838 0.16934013
-0.018573113 -0.0038856503 0.16894586
-0.016769124 -0.0065067885 0.16924691
-0.010487392 0.03418012 0.14959216
-0.010451337 0.031885605 0.15029511
-0.010572316 0.029441169 0.15171672
-0.011063989 0.026682312 0.15301631
-0.01086641 0.024759822 0.15411068
-0.011095486 0.022107733 0.15530996
-0.01032444 0.01923885 0.15822941
-0.011616482 0.016408766 0.15861836
-0.011801083 0.013166879 0.16205539
-0.012311111 0.0099500334 0.16585229
-0.015427178 0.0028389574 0.16701086
-0.015964558 0.00094718655 0.16863689
-0.016608931 -0.0014440715 0.16905825
-0.016271628 -0.0032755889 0.16879793
-0.014618459 -0.0061107585 0.16953865
-0.007647228 0.034292683 0.1496089
-0.0083433324 0.031615857 0.15069696
-0.0083992938 0.029317558 0.15232779
-0.008213426 0.027197318 0.15285735
-0.0080602281 0.024856145 0.15363073
-0.0078089857 0.022251375 0.15695038
-0.0076396707 0.019429944 0.1593643
-0.0078185108 0.016481368 0.15979245
-0.0080430228 0.013450369 0.16238528
-0.0077848756 0.01017089 0.16728672
-0.012644039 0.003300945 0.16785039
-0.014038596 0.0011383359 0.16911401
-0.014378823 -0.000538302 0.16964988
-0.013840322 -0.0027799082 0.16972409
-0.013312838 -0.0051913909 0.17095804
-0.0048514917 0.034119941 0.14863881
-0.0059267236 0.030651953 0.15096653
-0.0062365625 0.029238112 0.15218538
-0.0057260552 0.027173508 0.15318629
-0.005527806 0.024538014 0.1549235
-0.0046560029 0.021751998 0.159115
-0.0052006994 0.019713361 0.16009939
-0.0054909172 0.016746694 0.16092537
-0.0052306154 0.013402674 0.16384552
-0.0052660755 0.010572338 0.16734347
-0.0066088634 0.0059371321 0.17025742
-0.010071763 0.0023812971 0.16997708
-0.011305389 -0.00036844774 0.16971695
-0.011554591 -0.0025163058 0.16995986
-0.0081944009 -0.0066786967 0.17299947
-0.0025007073 0.033751052 0.1486565
-0.0033804479 0.030748818 0.14969756
-0.0028632069 0.029267868 0.15159427
-0.0030018112 0.026934553 0.15262194
-0.0027419608 0.024641214 0.15500398
-0.0024330949 0.021757832 0.15963723
-0.0027284555 0.019781619 0.16081746
-0.0026554887 0.016799798 0.16223058
-0.0024260613 0.013621616 0.16436903
-0.002421123 0.010224662 0.16839173
-0.0029130813 0.0069552246 0.17049843
-0.0026086036 0.0046141967 0.1729064
-0.0036879245 0.001623381 0.17307201
-0.0030766544 -0.0011954749 0.17352411
-0.002827517 -0.0065057245 0.17589954
-0.00083637546 0.032243174 0.15009278
0.00018366741 0.030197201 0.15128647
-0.00052849751 0.028540915 0.1531222
0.0010790797 0.027439527 0.15573806
0.0014999871 0.024706485 0.15823668
0.00073664781 0.021995343 0.15982501
0.00015880822 0.019929094 0.16189083
-0.00013185787 0.016839726 0.16305354
-0.00017082602 0.013858438 0.16451041
0.0004561682 0.010279865 0.1682556
0.00025733502 0.0071016373 0.17018071
0.00037461333 0.0045127496 0.17245044
0.00025889161 0.0019107689 0.17359482
0.00060016685 -0.00093351462 0.17564376
0.00032753168 -0.0049564564 0.17678435
0.0019740921 0.033572007 0.14933485
0.002681833 0.031624921 0.15109
0.0033583432 0.029417831 0.15328623
0.0045789368 0.026893979 0.15626331
0.0044337097 0.024920478 0.15779264
0.0036826737 0.022546226 0.15910912
0.0031051938 0.020348154 0.1605287
0.0023786963 0.016884159 0.16345127
0.0020429757 0.013836098 0.16459532
0.0039262599 0.010514366 0.1676594
0.0042145425 0.0076898499 0.1690671
0.0037978792 0.0045828335 0.17175476
0.0037637996 0.0020686442 0.17371717
0.0032093432 -0.00049017073 0.17619006
0.0033721661 -0.0038067065 0.17757139
0.0049798996 0.034518443 0.14857809
0.0052132267 0.032777719 0.15054888
0.0057731033 0.030722776 0.15232368
0.006723593 0.026677845 0.15594584
0.0065153795 0.025055125 0.15803239
0.006177031 0.022740891 0.15984146
0.0057720249 0.020069215 0.16132823
0.0050760428 0.017499402 0.1629227
0.0073644449 0.012901588 0.16633445
0.0069888821 0.010125666 0.168295
0.0067467182 0.0072499621 0.16972512
0.0067702462 0.0050343783 0.17288709
0.0062571405 0.0031854184 0.17523147
0.0057678954 -0.00049214042 0.17781232
0.0060087349 -0.0030189757 0.17976038
0.0073614614 0.035116557 0.14809813
0.0077893254 0.03345878 0.150169
0.0082743848 0.031557914 0.15133184
0.0087900208 0.027570078 0.15729477
0.0080681406 0.025602108 0.15960149
0.0075867623 0.022625294 0.16037565
0.007505395 0.020087726 0.16184777
0.0099983681 0.014339064 0.16577397
0.0095171798 0.011735509 0.16720283
0.0095919687 0.0092637995 0.16863178
0.0097879404 0.007445062 0.17059703
0.0092734117 0.0057724467 0.17310755
0.0080101499 0.0036443048 0.1764569
0.0091903275 -0.00078333757 0.17999862
0.0084542036 -0.0030045845 0.18137926
0.0098570725 0.035291482 0.14797084
0.010289948 0.03350104 0.14919862
0.010890516 0.030911103 0.15223986
0.010491148 0.028153451 0.1580305
0.0099523794 0.025660792 0.15983072
0.0099227242 0.022738673 0.16068487
0.0094467942 0.019286031 0.1630552
0.011863038 0.014500314 0.16572794
0.011713307 0.011660059 0.16732429
0.012157858 0.0092891445 0.16881746
0.012647641 0.0078339018 0.17138784
0.011237822 0.0064190105 0.17344785
0.010482535 0.0040933369 0.17762955
0.013442188 -0.00082264567 0.18015158
0.012282491 0.035378922 0.14704949
0.01319888 0.033275917 0.14825381
0.01311221 0.030034348 0.15573578
0.013782502 0.028011749 0.15906647
0.012822279 0.025757393 0.15999813
0.012652204 0.021834603 0.16245912
0.012961725 0.016631177 0.16545388
0.013983368 0.01477312 0.16599983
0.014120545 0.012004083 0.16757762
0.013869734 0.0098451348 0.16893353
0.014973151 0.008671917 0.17177412
0.012665918 0.006901185 0.17401463
0.012732426 0.0042774831 0.17779036
0.015528742 -1.7825891e-05 0.17861748
0.015342016 0.035170879 0.14631093
0.017488413 0.034221288 0.14939587
0.015759297 0.030254498 0.15609442
0.015222659 0.026121568 0.16096467
0 0 0 1 0 0 0 1 0 0 0 1 0 0 0 0 0 239 1 0 0
