ply
format ascii 1.0
comment PCL generated
element vertex 239
property float x
property float y
property float z
element camera 1
property float view_px
property float view_py
property float view_pz
property float x_axisx
property float x_axisy
property float x_axisz
property float y_axisx
property float y_axisy
property float y_axisz
property float z_axisx
property float z_axisy
property float z_axisz
property float focal
property float scalex
property float scaley
property float centerx
property float centery
property int viewportx
property int viewporty
property float k1
property float k2
end_header
-0.028322598 0.033546161 0.14850111
-0.02774729 0.03119996 0.14838399
-0.026984636 0.028936716 0.14979772
-0.026225019 0.02648223 0.15092854
-0.02585368 0.024007021 0.15223043
-0.027280822 0.020512188 0.15472192
-0.031508587 0.014179902 0.15784872
-0.031927034 0.011483217 0.15903981
-0.031294797 0.0084967436 0.15960385
-0.03075565 0.0056171021 0.15952808
-0.031878963 0.0024856846 0.16034907
-0.033448368 -0.00065394043 0.16238219
-0.033743054 -0.0033668005 0.16226098
-0.026396507 0.033636864 0.1474269
-0.025243867 0.031107062 0.14804466
-0.024423182 0.028782396 0.14865243
-0.023752216 0.02646308 0.14976132
-0.02357666 0.02410459 0.15140454
-0.024389701 0.020644264 0.15294887
-0.025581103 0.016509855 0.15674974
-0.027340937 0.012978869 0.15800257
-0.027529603 0.0097515164 0.15908216
-0.026924636 0.0066703847 0.159835
-0.026647799 0.0034844822 0.16104914
-0.029736953 -5.9573871e-05 0.16206796
-0.031340383 -0.0037610873 0.164014
-0.028388459 -0.0069799707 0.16488619
-0.023481643 0.033610597 0.14667203
-0.021761335 0.031300928 0.14769007
-0.021515068 0.028907046 0.14826588
-0.02144965 0.026589068 0.14960574
-0.021217002 0.023879744 0.15095393
-0.021986727 0.020529386 0.15400682
-0.023196448 0.016681312 0.15674996
-0.023785995 0.013465166 0.15756898
-0.024167484 0.010717737 0.1582415
-0.024414528 0.0073639583 0.1601925
-0.023925837 0.0027068402 0.16353686
-0.025814846 -0.00075057038 0.16400389
-0.025957027 -0.0049465992 0.16500971
-0.024632718 -0.0068540419 0.16604453
-0.023928672 -0.0091384258 0.16721733
-0.018672423 0.033318076 0.14775711
-0.018914139 0.031236086 0.14842103
-0.01895747 0.029181603 0.14860202
-0.019034313 0.02687715 0.15056649
-0.019048702 0.023962535 0.15092169
-0.01935083 0.021090375 0.15364106
-0.020876413 0.017303705 0.15738884
-0.020585664 0.01410033 0.15794437
-0.020935331 0.011488292 0.15928219
-0.021090418 0.006133582 0.16253723
-0.022221517 0.0019203392 0.16425338
-0.022965152 -0.00061009737 0.16519724
-0.023504205 -0.0037224665 0.16621463
-0.02240113 -0.0057865405 0.16671906
-0.022147154 -0.0078338189 0.168742
-0.015582309 0.033346649 0.14855552
-0.016112179 0.031075697 0.14880636
-0.016137976 0.029117994 0.14881973
-0.016622782 0.026406642 0.15118909
-0.016602498 0.023784386 0.15197988
-0.017028043 0.021232354 0.15378785
-0.018153409 0.017624423 0.15841945
-0.018117342 0.014971199 0.15893389
-0.018277919 0.012124085 0.16046752
-0.018350337 0.0063232733 0.16392064
-0.019014305 0.0026796891 0.16554111
-0.0197824 -8.8044209e-05 0.1667179
-0.020486539 -0.0027801327 0.16618921
-0.019993177 -0.0048284018 0.16756672
-0.018972795 -0.0073648794 0.16897872
-0.012787765 0.033415768 0.14918217
-0.01306296 0.031070134 0.14945641
-0.013253991 0.028672768 0.15001887
-0.013525717 0.02606497 0.15131944
-0.01411288 0.023823779 0.15234311
-0.014565191 0.021384571 0.15368553
-0.015039403 0.018729648 0.1577134
-0.015426561 0.015492111 0.15924707
-0.015514114 0.012216995 0.16152346
-0.016564863 0.0067506386 0.16465104
-0.017951244 0.002169752 0.16631711
-0.018356478 -3.0356914e-05 0.16666913
-0.018347051 -0.0017635851 0.16728707
-0.018269038 -0.0043048947 0.16722445
-0.016484065 -0.006701245 0.16774628
-0.01057309 0.033670768 0.149011
-0.010525106 0.031346943 0.14960761
-0.010631912 0.028843775 0.15046941
-0.011124928 0.025936203 0.15113829
-0.010928562 0.023984103 0.15224871
-0.011310533 0.021733576 0.15467171
-0.010623422 0.018984921 0.15800595
-0.011817537 0.016148055 0.15869899
-0.011652999 0.012721485 0.16199432
-0.011983576 0.0093781892 0.1656817
-0.015685655 0.002765689 0.1657898
-0.015988907 0.00059811829 0.16689137
-0.016473046 -0.0018436401 0.16687609
-0.016154079 -0.0035320402 0.1668638
-0.014343317 -0.006221097 0.16790433
-0.0077207447 0.03382463 0.14911543
-0.0083676083 0.031139405 0.15018578
-0.0084216865 0.028620983 0.15093288
-0.0081868256 0.026643472 0.15115376
-0.0080282632 0.024406604 0.15193182
-0.0080290483 0.021900319 0.1560799
-0.0079630157 0.019163761 0.15912959
-0.0080416575 0.016072029 0.15986109
-0.0079574389 0.012966051 0.16221321
-0.0075216689 0.0098129893 0.16687216
-0.013090496 0.0033024922 0.16625361
-0.014117123 0.00090976566 0.16729951
-0.014318501 -0.00076665293 0.16762808
-0.013748472 -0.0029504956 0.16775836
-0.013025767 -0.0051879608 0.16918196
-0.0048163375 0.03379339 0.14849409
-0.0059372131 0.030289326 0.15079586
-0.0063180234 0.028770372 0.1509966
-0.0057361438 0.026788671 0.15182741
-0.0056180484 0.024195131 0.15367138
-0.0048460602 0.02142961 0.15842938
-0.0054744114 0.019467209 0.15972899
-0.0057078688 0.016450524 0.16093199
-0.0051759658 0.013069798 0.16368431
-0.0050922991 0.010102196 0.16692869
-0.0062501715 0.0057102237 0.16882479
-0.010271885 0.0026130693 0.16789857
-0.011320956 -0.00017470942 0.16760023
-0.011396627 -0.0023852373 0.16784181
-0.0080923745 -0.0064469278 0.17178693
-0.002456225 0.033496473 0.148661
-0.0032876332 0.030524226 0.1497431
-0.0028496906 0.028873798 0.15071289
-0.002980103 0.026639959 0.1515822
-0.0028499581 0.02431866 0.15404785
-0.002675341 0.021446398 0.15901206
-0.0030120669 0.019579191 0.16031653
-0.0028461749 0.016626626 0.16208993
-0.0024490317 0.013444892 0.16424686
-0.0022577383 0.0099810679 0.16799617
-0.0025965772 0.0068437867 0.16959117
-0.0024434344 0.0043207537 0.17164181
-0.0035097613 0.0015132912 0.17171976
-0.0031729874 -0.001029736 0.1726853
-0.0031968721 -0.0062157395 0.17559825
-0.00057195604 0.031584725 0.14962526
0.00062124152 0.029552376 0.15074272
-0.00025170934 0.027978133 0.15226072
0.001215636 0.026835522 0.15480889
0.0014359738 0.024289422 0.15758139
0.0004975932 0.021771532 0.15936357
-9.8222961e-05 0.019701894 0.16143727
-0.0003170124 0.016648451 0.16269578
-0.00023517459 0.013735361 0.16427891
0.00059613789 0.010344315 0.16819437
0.00054034602 0.007148962 0.1697419
0.00046288662 0.0044691917 0.17181122
0.00015326847 0.0020173378 0.17305335
0.00022285261 -0.00073772663 0.17536466
-0.00014517116 -0.0047081155 0.17662176
0.0021200567 0.033426303 0.14953718
0.0028502173 0.031368643 0.1511137
0.0035247107 0.029077318 0.15313084
0.0044619301 0.026976906 0.15633139
0.0043709283 0.024882818 0.15763018
0.0035390868 0.022480601 0.15884747
0.00291316 0.020215804 0.16011634
0.0021948193 0.016644947 0.16291368
0.0019785527 0.01377686 0.16424724
0.0041170591 0.010978805 0.1681565
0.0043661995 0.0081455959 0.1692861
0.0037419277 0.0047531636 0.17167003
0.0035171914 0.0022144564 0.17369884
0.0027733878 -0.00029764042 0.17608601
0.0028283859 -0.0035681636 0.17758545
0.0050430042 0.034903169 0.14939196
0.0052403077 0.03295099 0.15111059
0.005836369 0.03079105 0.15268551
0.006420664 0.027000524 0.15615222
0.0063581788 0.025142225 0.15798597
0.006015324 0.022740321 0.15961026
0.005616169 0.019946687 0.160882
0.0048806216 0.017244227 0.16223574
0.0076991962 0.013281868 0.16735736
0.0071279164 0.010527101 0.16901353
0.0067258892 0.0076316413 0.16993597
0.0065792706 0.0051336973 0.17268603
0.0059203096 0.0031088351 0.1749814
0.0052314322 -0.00026170671 0.17785893
0.0053583998 -0.0026954254 0.17983453
0.0074355276 0.0358852 0.14936164
0.0077723395 0.033998214 0.15120327
0.0083071589 0.0320393 0.15215605
0.0085646585 0.027731787 0.15742448
0.0080914963 0.025419086 0.15934122
0.007451497 0.022566395 0.1600154
0.0073845359 0.020012407 0.16139346
0.010327961 0.014573777 0.1668461
0.0096779102 0.012094153 0.16824579
0.0096835513 0.0095380209 0.16916284
0.0097670713 0.0073676202 0.17072141
0.0090163862 0.0055548977 0.17290565
0.0076766014 0.0034448379 0.17614113
0.0086205509 -0.00057668658 0.17969514
0.0078163035 -0.0026829522 0.18123291
0.009973621 0.036313143 0.14955808
0.010401384 0.034413654 0.15056559
0.010667812 0.031618416 0.15308216
0.010385768 0.028085863 0.15781736
0.0099687856 0.025351893 0.15918139
0.0097897099 0.02263212 0.16018313
0.0093541378 0.01924435 0.16264105
0.012121649 0.014640159 0.16662452
0.011888232 0.011895626 0.16827101
0.012377704 0.0092855226 0.16951238
0.012596267 0.0074643665 0.17192741
0.011010737 0.0058525316 0.17314386
0.010240627 0.0034978602 0.17702127
0.012865656 -0.00099331606 0.17932568
0.012546226 0.036647111 0.14890687
0.013435001 0.034369972 0.14977847
0.012769064 0.030143619 0.1549321
0.014007119 0.027381035 0.15721375
0.012847818 0.025162345 0.15811399
0.01265547 0.021573773 0.16172947
0.013019184 0.016509065 0.16573274
0.014108987 0.014834666 0.16666764
0.014249371 0.012239153 0.16870189
0.013977742 0.009944113 0.16995519
0.014766258 0.008387519 0.17283134
0.012445344 0.0061008083 0.17372981
0.012414176 0.0033905278 0.17695668
0.014795593 -0.00056161749 0.1775521
0.015682166 0.036520664 0.14824326
0.017676596 0.034885116 0.15089622
0.01568084 0.029891521 0.15438765
0.01556353 0.025055163 0.15835766
0 0 0 1 0 0 0 1 0 0 0 1 0 0 0 0 0 239 1 0 0
