ply
format ascii 1.0
comment PCL generated
element vertex 239
property float x
property float y
property float z
element camera 1
property float view_px
property float view_py
property float view_pz
property float x_axisx
property float x_axisy
property float x_axisz
property float y_axisx
property float y_axisy
property float y_axisz
property float z_axisx
property float z_axisy
property float z_axisz
property float focal
property float scalex
property float scaley
property float centerx
property float centery
property int viewportx
property int viewporty
property float k1
property float k2
end_header
-0.028993694 0.033191793 0.14931026
-0.028377535 0.030802276 0.14902575
-0.02764106 0.028358873 0.15014639
-0.026846308 0.025833761 0.15118319
-0.026308369 0.023550915 0.15246966
-0.027805176 0.020600608 0.15544017
-0.032599572 0.01317351 0.15819478
-0.033095203 0.010666608 0.15962338
-0.032390326 0.007788409 0.16069907
-0.03163939 0.0050900672 0.16116118
-0.032807246 0.0020006143 0.16173021
-0.034653611 -0.0012502788 0.16304693
-0.03518372 -0.0039314134 0.16266488
-0.027087031 0.033349305 0.14822024
-0.025864881 0.030712347 0.14862117
-0.025000684 0.028257824 0.14910649
-0.024183452 0.025984617 0.15015139
-0.02400988 0.023713449 0.15184693
-0.024875013 0.020414835 0.15363517
-0.02632265 0.016523985 0.15815462
-0.02853724 0.012192457 0.15886286
-0.028780153 0.0089507587 0.1601637
-0.027604651 0.0056768432 0.16106717
-0.02700563 0.0023454442 0.16203226
-0.030538665 -0.00081081071 0.16287771
-0.032721337 -0.0045258254 0.16447999
-0.029256683 -0.0075593861 0.16610184
-0.024170116 0.033348877 0.14729235
-0.022297423 0.030996758 0.14797319
-0.021983014 0.028606106 0.14860477
-0.021818386 0.026264144 0.15000094
-0.021600522 0.023558462 0.15152788
-0.022524482 0.020418141 0.15471436
-0.023888236 0.016628012 0.15804735
-0.024813974 0.013102285 0.15909782
-0.025293844 0.01019553 0.15962267
-0.025101759 0.0063240519 0.16134708
-0.0243816 0.001377547 0.16447258
-0.026426474 -0.0017484762 0.16495521
-0.026966134 -0.005627369 0.16664982
-0.025914336 -0.0070366189 0.16834964
-0.025493162 -0.0089833904 0.16996278
-0.019000204 0.033191789 0.14773139
-0.019314403 0.031119743 0.14846256
-0.019387506 0.029067468 0.14876518
-0.019331809 0.026624179 0.15072174
-0.019410701 0.023616992 0.15148626
-0.019938586 0.021033976 0.15452524
-0.021510312 0.017083077 0.15835166
-0.02140229 0.013885422 0.15933985
-0.021896012 0.011333627 0.16057824
-0.021936223 0.0046287356 0.16341838
-0.02290828 0.00049061852 0.16502139
-0.023872877 -0.0017335179 0.16653578
-0.024665199 -0.0042302213 0.16794829
-0.023705883 -0.0059175515 0.16897054
-0.023556251 -0.007568961 0.17137416
-0.015665948 0.033187285 0.1484735
-0.016412104 0.030986885 0.14885129
-0.016530486 0.02908433 0.14898975
-0.016881766 0.025959764 0.15164146
-0.017067866 0.023464981 0.15270379
-0.017701244 0.021134811 0.154728
-0.018693581 0.017192036 0.15907402
-0.018839804 0.014662146 0.15986377
-0.019157002 0.011863247 0.16132745
-0.019849475 0.0046007307 0.16410306
-0.020331692 0.0013657477 0.16649418
-0.020779805 -0.0009508502 0.16789129
-0.02146351 -0.0035118307 0.16797554
-0.021119872 -0.0049943775 0.16975917
-0.020270931 -0.007405119 0.17133339
-0.012992038 0.032835472 0.14935088
-0.013284275 0.030674862 0.14964341
-0.013452095 0.028098188 0.15038694
-0.013877355 0.025488097 0.15203223
-0.014690576 0.023515735 0.15330164
-0.015282789 0.021277551 0.15457636
-0.015620706 0.018334258 0.15832779
-0.016247373 0.015176263 0.15995099
-0.016451741 0.011878301 0.16216588
-0.018306691 0.0057672653 0.16498147
-0.019584375 0.0011987201 0.16722851
-0.019626165 -0.00076286617 0.16791873
-0.019616015 -0.0021726654 0.16882388
-0.01943483 -0.0044856938 0.16946909
-0.017730387 -0.0068443613 0.16988571
-0.010915353 0.033034001 0.1494775
-0.010863918 0.030708347 0.15022889
-0.010938418 0.028243711 0.15142262
-0.01158179 0.025481617 0.15252158
-0.011632834 0.023824519 0.15375653
-0.011885662 0.021564452 0.15543069
-0.010608856 0.018475279 0.15812348
-0.012448068 0.0158027 0.15896888
-0.012352922 0.012511297 0.16241328
-0.012632903 0.0088056698 0.16606271
-0.017767986 0.0020606862 0.16663463
-0.017816888 0.00014589471 0.16776662
-0.01789107 -0.0023079133 0.16838208
-0.017435674 -0.0037562465 0.16876549
-0.015635557 -0.0064406558 0.17012981
-0.0081487801 0.033358987 0.14995681
-0.0088789035 0.030526508 0.15102719
-0.0089840107 0.028213643 0.15236312
-0.0088281017 0.026583171 0.15308718
-0.0086918501 0.024514794 0.15391961
-0.007978295 0.022006428 0.1570985
-0.0078074941 0.018650096 0.15916851
-0.0079679275 0.015563489 0.16010462
-0.0081998538 0.012695363 0.16266462
-0.007764739 0.0095678205 0.16740893
-0.014244803 0.0025900675 0.16803239
-0.015685951 0.00059073343 0.16894342
-0.016034288 -0.00091825804 0.16935503
-0.015208228 -0.0030568538 0.16967277
-0.014406142 -0.005468173 0.17145044
-0.0052160216 0.033778943 0.14921868
-0.0066873301 0.029610753 0.15207957
-0.0070768865 0.028495917 0.15266815
-0.0065196496 0.026737491 0.15352695
-0.0062136771 0.024223516 0.15528107
-0.0046557751 0.020965258 0.15876122
-0.0053023365 0.018972585 0.15984817
-0.0057491041 0.015936887 0.16127482
-0.0054562259 0.012680057 0.16429123
-0.0053397771 0.0095954593 0.16772939
-0.0067163063 0.0055501554 0.17061606
-0.011373914 0.0017531161 0.17088865
-0.012790761 -0.0008534735 0.17077781
-0.013267098 -0.0028040344 0.17101511
-0.0095414743 -0.0068044714 0.17421782
-0.0028258364 0.033513729 0.14926225
-0.0038509467 0.029983591 0.15109411
-0.0035706018 0.028459575 0.15196024
-0.0039030833 0.026391214 0.15296128
-0.0034597274 0.024056317 0.15525205
-0.0025408054 0.020886412 0.1592584
-0.0028917147 0.019018866 0.16046977
-0.0029223189 0.016368223 0.16285454
-0.0027653608 0.013210925 0.1652796
-0.0024654595 0.0092121353 0.16922408
-0.0029234888 0.0064947256 0.17126688
-0.0028802063 0.0042921836 0.17421934
-0.0036767055 0.0014694879 0.17475015
-0.0034410211 -0.00090438663 0.1756366
-0.0034617842 -0.006473287 0.17751689
-0.00045268552 0.031919178 0.15017413
0.0010480793 0.029796377 0.15083987
-0.00056841515 0.027349142 0.15243116
0.0014335244 0.025331475 0.15376283
0.0015183249 0.023066733 0.15655543
0.00060665008 0.021037292 0.15923735
1.6276492e-06 0.01922657 0.16176458
-0.00036880348 0.01637003 0.16350558
-0.00051527581 0.013548732 0.16538471
0.00036329695 0.009411619 0.16959408
0.00029782785 0.0066842986 0.17187099
-5.9170674e-07 0.0044110622 0.17448361
-0.00022609982 0.0021486939 0.1758565
8.5335443e-05 -0.00077224453 0.17759527
-0.00029666902 -0.0049589234 0.17831574
0.0023390332 0.034147967 0.15015736
0.0031265747 0.031874038 0.15153855
0.0039024067 0.028970182 0.15319866
0.0046804082 0.025655326 0.15529998
0.0045138053 0.023730973 0.15656438
0.0035697636 0.021376727 0.15803733
0.0029764529 0.019396016 0.15980165
0.0020513674 0.016289474 0.16373394
0.0016102529 0.013498176 0.16536656
0.0041910093 0.0099976221 0.16941695
0.0044054324 0.0076411567 0.17124797
0.0032118445 0.0049056225 0.17419171
0.0030413524 0.0023982397 0.17640322
0.0026394422 -0.00046912194 0.17806374
0.0028552064 -0.0039475248 0.17905848
0.0051665758 0.035677984 0.15010203
0.0053620567 0.033572692 0.1516514
0.00596481 0.03118833 0.15310416
0.0066268528 0.025889074 0.1554369
0.0063932706 0.024265846 0.15714605
0.0060727801 0.02178799 0.15877047
0.0057196082 0.019123532 0.1603523
0.0047674822 0.016922792 0.16255933
0.0077570151 0.012663994 0.16879302
0.0071882005 0.010065023 0.17042436
0.0066962405 0.0075169434 0.17210031
0.0062293373 0.0051827119 0.17503695
0.0055328254 0.0034086742 0.17746508
0.0052628545 -0.00075481267 0.17948021
0.0055891839 -0.003303081 0.18115763
0.007593208 0.036409855 0.1499567
0.0078531792 0.034481745 0.15165251
0.0083130552 0.032538794 0.15250872
0.0084077213 0.026892915 0.15698788
0.0077759153 0.024730751 0.15863547
0.0073916963 0.021649575 0.15926155
0.0075195464 0.019255385 0.16073379
0.010479851 0.014187026 0.16873755
0.0096049802 0.011832761 0.16996813
0.0096811363 0.0095031261 0.17130488
0.0095789991 0.0077014416 0.17339206
0.0087149506 0.0057718912 0.17544945
0.0072274716 0.0035924963 0.17849949
0.0089782476 -0.00093649031 0.18124388
0.0082409615 -0.0031927642 0.18247277
0.010184177 0.036355358 0.1499854
0.010498452 0.034507412 0.15090068
0.01064016 0.031426743 0.15341149
0.0098824501 0.027477652 0.15766934
0.0094036153 0.024848642 0.15893897
0.009437412 0.02210018 0.15999907
0.0093604038 0.018652014 0.16248268
0.01234509 0.014438884 0.16893335
0.011877491 0.011925038 0.17063291
0.012308367 0.0095924921 0.17216237
0.012397381 0.0081247929 0.17476468
0.010550847 0.0062475363 0.17597285
0.0097051617 0.0036859326 0.17962386
0.013363398 -0.0010163112 0.18083997
0.013008689 0.03620936 0.14922997
0.013871419 0.033830915 0.15013476
0.012783971 0.029528268 0.1561656
0.013530768 0.027174482 0.15857832
0.01218397 0.025190204 0.1596106
0.012152579 0.021445891 0.16252597
0.013268148 0.016342748 0.16777021
0.014384354 0.014858279 0.16922064
0.014135483 0.012438297 0.17138879
0.013683971 0.010388329 0.17257717
0.014396122 0.0092196632 0.17556286
0.011858979 0.006734353 0.17660156
0.011858383 0.0037903846 0.17972589
0.015039045 -0.00029247205 0.17940134
0.016537799 0.035567176 0.14860772
0.018265478 0.033963755 0.15195344
0.015686242 0.029506912 0.15550278
0.015038522 0.025055915 0.16002366
0 0 0 1 0 0 0 1 0 0 0 1 0 0 0 0 0 239 1 0 0
