ply
format ascii 1.0
comment PCL generated
element vertex 239
property float x
property float y
property float z
element camera 1
property float view_px
property float view_py
property float view_pz
property float x_axisx
property float x_axisy
property float x_axisz
property float y_axisx
property float y_axisy
property float y_axisz
property float z_axisx
property float z_axisy
property float z_axisz
property float focal
property float scalex
property float scaley
property float centerx
property float centery
property int viewportx
property int viewporty
property float k1
property float k2
end_header
-0.024504421 0.035053149 0.14663987
-0.024499683 0.03262211 0.14669207
-0.024713375 0.030528467 0.14843637
-0.024862202 0.028268376 0.15003902
-0.024924053 0.026139982 0.15184367
-0.025497485 0.024204263 0.15580224
-0.026376352 0.022374995 0.16176052
-0.026807861 0.01988535 0.16405752
-0.026988305 0.01716879 0.16476814
-0.027041402 0.014239872 0.16523352
-0.027131965 0.01135002 0.16574457
-0.027426947 0.0083501274 0.16730824
-0.027434152 0.0056450046 0.16701417
-0.022104504 0.034939274 0.14604463
-0.022033632 0.032572731 0.14687124
-0.022198688 0.030444462 0.14853957
-0.022317918 0.028260922 0.14999115
-0.022349205 0.025968704 0.15171106
-0.022714473 0.023936428 0.15462121
-0.023290275 0.021703171 0.158889
-0.023651307 0.019553915 0.16124071
-0.023820505 0.016997727 0.16318829
-0.024048576 0.014256734 0.1639173
-0.024065385 0.011443513 0.16452901
-0.024515297 0.0085073998 0.166687
-0.024926597 0.0055630738 0.16878948
-0.024986029 0.0026977691 0.17105806
-0.019423308 0.034786832 0.14595596
-0.019510681 0.032677047 0.14791477
-0.019641444 0.030415162 0.14886566
-0.019783933 0.028239626 0.15038438
-0.019842193 0.02610678 0.15171093
-0.020114576 0.023985492 0.15503903
-0.020746717 0.021744182 0.15918329
-0.020961836 0.01936732 0.16108866
-0.021024959 0.0169868 0.1626367
-0.021318881 0.014360487 0.16437025
-0.021476842 0.011189586 0.16656595
-0.02165889 0.007912524 0.16821106
-0.02224312 0.0050737909 0.17034291
-0.022254407 0.0023974208 0.17183708
-0.022432996 -0.00045277996 0.17353602
-0.016843444 0.034668528 0.1468364
-0.017090596 0.032616068 0.14827393
-0.017067451 0.03031349 0.14869469
-0.017247885 0.028470244 0.1510866
-0.017337082 0.026392465 0.15218228
-0.017608885 0.024165008 0.15510701
-0.018044772 0.021902084 0.15936752
-0.018119875 0.019182701 0.16024594
-0.01827791 0.016737539 0.16254628
-0.01825567 0.013907885 0.16492154
-0.018784428 0.010701677 0.16790755
-0.019049263 0.0080023427 0.16910043
-0.019609394 0.005461954 0.17177303
-0.019660773 0.0027574378 0.17359646
-0.019929916 0.00013229443 0.17536515
-0.014248274 0.034703083 0.14678262
-0.01450869 0.032576047 0.14811841
-0.014406013 0.030244868 0.14851852
-0.014826551 0.028593674 0.15120289
-0.014863082 0.026602201 0.15324524
-0.015088963 0.024405288 0.15563361
-0.015312549 0.022021685 0.16006573
-0.015421751 0.01923627 0.16035062
-0.015608576 0.016602181 0.16253771
-0.01560542 0.013557556 0.16509716
-0.015562244 0.010665464 0.16742206
-0.016238239 0.0083728032 0.17061965
-0.016975695 0.0059393602 0.1742882
-0.01706701 0.0030409568 0.17526345
-0.016639315 -0.0004504924 0.17480499
-0.011931516 0.034842152 0.14679663
-0.012008574 0.032710243 0.14820461
-0.011961491 0.030640552 0.1496952
-0.0120887 0.028533271 0.15184473
-0.012233394 0.026596969 0.1535313
-0.012407529 0.024230177 0.15576006
-0.012601218 0.021952221 0.15919328
-0.012672972 0.019358682 0.16050541
-0.012774075 0.016570415 0.16225488
-0.012940023 0.013528961 0.16591957
-0.013550358 0.01087498 0.1699052
-0.01404837 0.0086300885 0.1727206
-0.013965713 0.0059258528 0.17524791
-0.014277142 0.002999353 0.17468919
-0.013031646 -0.0011297904 0.17352083
-0.0096395239 0.034789678 0.14653477
-0.009587951 0.03296024 0.14809713
-0.0094894115 0.030963331 0.15045907
-0.0096534286 0.028287694 0.15202719
-0.0094199926 0.026056413 0.15372099
-0.0096720681 0.023987794 0.15603833
-0.0096870493 0.021767592 0.15927315
-0.0097430171 0.019363418 0.15952948
-0.0099517303 0.016557967 0.16234334
-0.010367512 0.013926333 0.16653122
-0.010837419 0.010830453 0.17037903
-0.010855496 0.0086040916 0.17310888
-0.011018868 0.0054952288 0.17359117
-0.011012143 0.0025152762 0.17379415
-0.010669542 -0.00072979461 0.17409566
-0.006999772 0.034909919 0.1466355
-0.0071194405 0.033060391 0.14857763
-0.0070794881 0.030928561 0.15086877
-0.0068359701 0.028234305 0.15169269
-0.0067571755 0.025956415 0.1532772
-0.0069534089 0.024189578 0.15690838
-0.0070902044 0.021907408 0.16024666
-0.0070129349 0.019135697 0.16014969
-0.007244261 0.016526084 0.16300282
-0.0077294027 0.013984392 0.1674211
-0.0076698512 0.010646171 0.16986594
-0.007990309 0.0082488386 0.17285502
-0.0081846658 0.0054861074 0.17374203
-0.0082247937 0.0027202046 0.17477883
-0.0085973386 0.00060885632 0.17746021
-0.0045523467 0.034783222 0.14672983
-0.0045736753 0.032868493 0.14891191
-0.0044811405 0.030999526 0.15066591
-0.0041841338 0.028416179 0.1526864
-0.0042929319 0.026373943 0.15522277
-0.0043310225 0.024800489 0.16013561
-0.0044341814 0.02215936 0.16114078
-0.0045113233 0.01944638 0.16182742
-0.004741163 0.016750658 0.16451417
-0.0049567902 0.014422506 0.16789143
-0.0048138928 0.010727576 0.17117985
-0.0049810936 0.0085369069 0.17393439
-0.005147629 0.0056655905 0.17435671
-0.0053349435 0.0029033413 0.17465843
-0.0050562629 7.251881e-06 0.17917322
-0.0020475658 0.034779895 0.1470322
-0.0021230315 0.032564558 0.14858232
-0.0017628426 0.030219642 0.15022552
-0.0015758595 0.02809564 0.15214922
-0.0015566816 0.026259298 0.15500984
-0.0016187204 0.024883607 0.15959914
-0.0017204395 0.022270698 0.16092977
-0.001862812 0.019675277 0.16308816
-0.0017576582 0.017235307 0.16536388
-0.0019640368 0.014484638 0.16923206
-0.0020088693 0.011206527 0.17208768
-0.0019742155 0.0090294639 0.17476761
-0.0021367003 0.006388525 0.176125
-0.0018887902 0.0033923225 0.17631848
-0.0018988191 0.00025729978 0.18067348
-0.00075924664 0.033985116 0.14890848
-0.00040580879 0.031716574 0.15021819
9.7383381e-05 0.029386189 0.15177722
0.001020902 0.028359173 0.15356028
0.0010845171 0.026417032 0.1563673
0.0010950714 0.024478216 0.15891968
0.0011709527 0.022242779 0.1612727
0.00095729518 0.019784067 0.16328666
0.00094455812 0.017230047 0.16532338
0.0010191259 0.014586958 0.16934159
0.00089679885 0.011825986 0.17231932
0.00098913757 0.0092144785 0.17463547
0.000965224 0.006563595 0.17613029
0.0010302549 0.0036733975 0.17751314
0.001047311 0.00057153293 0.17994499
0.0016501959 0.034581952 0.14939015
0.0019636056 0.032316234 0.15088931
0.0025044028 0.030075617 0.15227027
0.0036580919 0.028431946 0.15412289
0.0038094439 0.026372313 0.15637518
0.0038519355 0.024190223 0.15830073
0.0037556756 0.021836419 0.15958522
0.003814871 0.019478906 0.16288276
0.0036840916 0.01720891 0.1654868
0.0040139467 0.014954865 0.1693083
0.0040067057 0.012246183 0.17237106
0.0038877134 0.0092195543 0.1735411
0.0040958207 0.0065517239 0.17465107
0.0039469283 0.0039260094 0.17728396
0.0041699409 0.00069634459 0.17838062
0.0043011419 0.035040393 0.14908977
0.004506228 0.032910008 0.15075894
0.0050302972 0.030658916 0.15207922
0.0062109544 0.028787151 0.15434101
0.0063093477 0.026625574 0.15751728
0.0064564473 0.024173634 0.15921752
0.0064327824 0.021605482 0.1604594
0.0063963062 0.019244103 0.16227524
0.006734747 0.01726748 0.16508444
0.0069560795 0.014993444 0.17001018
0.0066315359 0.011887073 0.17132193
0.00666457 0.0093310066 0.17280363
0.0066577899 0.006973525 0.17537896
0.0069976086 0.00384963 0.17775245
0.0071035353 0.00073541165 0.17970362
0.0068018124 0.035506032 0.14922935
0.0071390141 0.033387668 0.1511995
0.0075522247 0.031096278 0.15166217
0.009220873 0.029039502 0.15611455
0.0090513863 0.026576696 0.1590371
0.009052516 0.024057493 0.15985838
0.0089529473 0.021633359 0.16196373
0.0097559728 0.019360881 0.16416387
0.0096315099 0.016960073 0.16612291
0.0095377248 0.01443324 0.1690817
0.0094094351 0.011545465 0.16991116
0.0093115829 0.0093956171 0.17179129
0.0094276937 0.0067720343 0.17563127
0.010142551 0.0031885954 0.17953426
0.010110482 0.00034149666 0.18135947
0.0094705233 0.035666011 0.14899731
0.0099019296 0.033515342 0.15031648
0.01043913 0.031016169 0.15234698
0.011894802 0.029097822 0.15701531
0.011705548 0.026611514 0.15929025
0.011765229 0.024228638 0.16001642
0.011410558 0.021327622 0.16203634
0.012382339 0.018923571 0.1640044
0.012315581 0.016504623 0.16610473
0.012137346 0.013849703 0.16736192
0.012050794 0.011071272 0.16832224
0.011788627 0.0092098908 0.17101994
0.012525236 0.0062685995 0.17595303
0.013433768 0.002634312 0.17868371
0.012026315 0.03569993 0.14767399
0.012583357 0.033337727 0.1491898
0.013864463 0.031349555 0.15379633
0.014406793 0.029143123 0.15868123
0.014338445 0.026796279 0.15981589
0.014368851 0.024226183 0.16059038
0.014406257 0.020589089 0.16283892
0.014990019 0.018360615 0.16376214
0.014928118 0.016046723 0.16538617
0.014759681 0.013513291 0.16676643
0.014700718 0.010844778 0.16764145
0.014464664 0.0088896006 0.17082626
0.015140761 0.0057960362 0.17439175
0.015518528 0.0027004362 0.17558637
0.014585583 0.035556387 0.14640218
0.015259907 0.033076555 0.14875072
0.016311852 0.031541318 0.15506259
0.016568845 0.027030149 0.16024236
0 0 0 1 0 0 0 1 0 0 0 1 0 0 0 0 0 239 1 0 0
