ply
format ascii 1.0
comment PCL generated
element vertex 239
property float x
property float y
property float z
element camera 1
property float view_px
property float view_py
property float view_pz
property float x_axisx
property float x_axisy
property float x_axisz
property float y_axisx
property float y_axisy
property float y_axisz
property float z_axisx
property float z_axisy
property float z_axisz
property float focal
property float scalex
property float scaley
property float centerx
property float centery
property int viewportx
property int viewporty
property float k1
property float k2
end_header
-0.029483613 0.032376435 0.14830071
-0.02862951 0.030049533 0.14809909
-0.027765006 0.027587662 0.14931887
-0.026802709 0.025082594 0.15037575
-0.026060101 0.022883048 0.15159664
-0.027546419 0.019677488 0.15416807
-0.032374576 0.01244192 0.1563877
-0.032927021 0.010034135 0.15798435
-0.032195915 0.0072106025 0.15928327
-0.031418797 0.0044597615 0.16009726
-0.032851815 0.0016054851 0.16154087
-0.034848608 -0.0014616101 0.16366404
-0.035475757 -0.0042392639 0.16369569
-0.027506612 0.032732986 0.14740184
-0.026087901 0.030191476 0.14798051
-0.02504033 0.027789557 0.1485769
-0.024088267 0.025581943 0.14964308
-0.023769706 0.023331376 0.1513201
-0.024452765 0.019843673 0.15262495
-0.0259842 0.015665568 0.15628706
-0.028298691 0.011575324 0.15702935
-0.02865711 0.008497363 0.15876642
-0.027127124 0.0047532455 0.15996984
-0.026441103 0.0013180124 0.16155739
-0.030588817 -0.0012795887 0.16310264
-0.032939523 -0.0047090501 0.16545478
-0.028861653 -0.0078703929 0.16646414
-0.024491036 0.03299614 0.14673807
-0.022442479 0.030791532 0.14767514
-0.022011025 0.028425679 0.1483479
-0.021771077 0.026095327 0.14976805
-0.021390991 0.023452103 0.15125504
-0.022216473 0.01987862 0.15390992
-0.023573853 0.015832022 0.15645041
-0.024421908 0.012384802 0.15675218
-0.024990531 0.0095715467 0.15761818
-0.024551556 0.0053431457 0.16026217
-0.023985498 0.00073264487 0.16457625
-0.025983108 -0.0023057947 0.16509175
-0.02651016 -0.0059259394 0.16698369
-0.025550095 -0.0073121013 0.16860779
-0.025130412 -0.0094526596 0.1698675
-0.019230779 0.033268541 0.14775299
-0.019504448 0.031168262 0.14843276
-0.019481655 0.02910934 0.14873716
-0.019412296 0.026667291 0.15074857
-0.019291764 0.023626585 0.15136671
-0.01974619 0.02080011 0.15416993
-0.02137058 0.016432306 0.15722801
-0.021048712 0.013235146 0.15753576
-0.021642288 0.010624832 0.15866603
-0.021502005 0.003951896 0.16355419
-0.022477826 2.1542899e-05 0.16572146
-0.023565091 -0.0021521645 0.16707985
-0.024380973 -0.0044891457 0.16840254
-0.023504807 -0.006229531 0.16936842
-0.023465378 -0.0082818381 0.17142847
-0.015801845 0.03332112 0.14852081
-0.016574468 0.031135121 0.14889523
-0.016666723 0.029261773 0.14905857
-0.016918056 0.026004961 0.15176871
-0.017009912 0.023404319 0.15260726
-0.017608372 0.020885129 0.15448382
-0.018884238 0.016945038 0.15878481
-0.018776901 0.014199723 0.15911083
-0.019252285 0.011375511 0.16055876
-0.019596543 0.0042930241 0.1653516
-0.020383177 0.0012665933 0.16803107
-0.020948501 -0.0011073266 0.16933051
-0.021553753 -0.0035939838 0.16923088
-0.021222668 -0.0052406788 0.1707803
-0.020238874 -0.0078611262 0.1718791
-0.013036996 0.032860726 0.14927855
-0.013367366 0.030725839 0.14948986
-0.013639281 0.028160971 0.15060335
-0.013970601 0.025619337 0.15238436
-0.01467645 0.023473563 0.15336069
-0.015177371 0.02110197 0.15453331
-0.01584732 0.018422665 0.15864614
-0.016404396 0.014975955 0.15991881
-0.016896704 0.011778458 0.16243792
-0.018393025 0.0057951394 0.16668671
-0.01978712 0.0011316758 0.16898616
-0.019889599 -0.00078976527 0.16975683
-0.019885987 -0.002294668 0.17051648
-0.019602286 -0.0046475506 0.17075421
-0.017753968 -0.0069078323 0.17074445
-0.010947318 0.032974318 0.14925514
-0.010899683 0.03056732 0.14991695
-0.01103257 0.028122758 0.15140273
-0.011724272 0.025539575 0.15285842
-0.011617746 0.023869643 0.15410051
-0.0118321 0.021549428 0.15575123
-0.010667564 0.018530367 0.15865412
-0.012603818 0.015816148 0.15962669
-0.012896973 0.012712811 0.16343787
-0.013397797 0.009369255 0.16743806
-0.018007144 0.0020611512 0.16880007
-0.018127134 0.00016746712 0.16994722
-0.01821775 -0.0023071412 0.17037272
-0.01767947 -0.0037326689 0.17028086
-0.015673237 -0.0064813951 0.17065625
-0.0082139047 0.033178348 0.14957133
-0.0089019183 0.030294061 0.1506509
-0.009004714 0.028028676 0.15217534
-0.0087708682 0.026401814 0.1529137
-0.0085781487 0.024369609 0.15371804
-0.008022069 0.022016363 0.15729383
-0.0079939067 0.018707143 0.15974018
-0.008194143 0.015610849 0.16044214
-0.0084301187 0.012695731 0.16311537
-0.0078006266 0.0095350835 0.16760236
-0.015000508 0.0026417496 0.16985534
-0.01615194 0.00049986097 0.17101441
-0.016448645 -0.0010952519 0.17142124
-0.01541561 -0.0031418081 0.17086972
-0.014274103 -0.0056492649 0.17181794
-0.0054161055 0.033666488 0.14893951
-0.0067207855 0.029352376 0.15176168
-0.0070750089 0.02825514 0.15239218
-0.006453516 0.026583813 0.15339261
-0.0062071057 0.024179084 0.15533535
-0.0048690275 0.021256043 0.15959941
-0.0055172513 0.019086843 0.16050038
-0.0059157987 0.015832257 0.16145742
-0.005561512 0.012525428 0.16441157
-0.0054885293 0.0094950832 0.16766874
-0.0069055306 0.0054196483 0.17016678
-0.011808026 0.0018179362 0.17119707
-0.013004442 -0.00088893768 0.17100979
-0.013269801 -0.0029485908 0.17124534
-0.0096007306 -0.0071002953 0.17408477
-0.003033201 0.033468336 0.14896785
-0.0038991817 0.029752284 0.15088648
-0.0035169933 0.028500782 0.15227555
-0.0037740082 0.026433656 0.15326707
-0.0035282813 0.024286987 0.15582441
-0.0027410621 0.021280784 0.16018778
-0.0030882678 0.019211428 0.16112886
-0.0030252549 0.016190821 0.16276005
-0.0028640665 0.012963224 0.16509545
-0.0026667451 0.009028458 0.16902277
-0.0030160383 0.0062051956 0.17061841
-0.00272561 0.0034797594 0.1730516
-0.003438473 0.00070770562 0.17365067
-0.003284076 -0.001415216 0.17496088
-0.0032523093 -0.0068997196 0.17720184
-0.00093691488 0.03182476 0.15048343
0.00041002105 0.029546445 0.15159483
-0.00072060194 0.027933758 0.15386555
0.0011671131 0.02641774 0.15528096
0.0014552803 0.023604488 0.15738983
0.00062820851 0.021405935 0.15991792
-2.2900425e-05 0.019137319 0.1619215
-0.00048673328 0.016131308 0.16329692
-0.000667963 0.013297454 0.16512959
0.00013393749 0.0092291469 0.16936837
0.0002413726 0.0062574921 0.17114553
0.00016979579 0.0035812967 0.1732422
5.9749487e-05 0.0013751059 0.17469296
0.00044195339 -0.001405331 0.17671716
-1.7411046e-05 -0.0055286936 0.17765722
0.0021729174 0.033666205 0.14948389
0.0029276363 0.031465787 0.15112248
0.0036126673 0.028731793 0.15336367
0.0047120624 0.026032044 0.15576695
0.0044835848 0.024090573 0.15686749
0.0036097846 0.021579593 0.15815468
0.0030167026 0.019513475 0.15990673
0.0019207631 0.015991187 0.16347013
0.0014205531 0.013210597 0.16502976
0.0038003945 0.0099183675 0.16896532
0.0041038869 0.0072998321 0.170286
0.0032992067 0.004030887 0.17278171
0.0033646591 0.0014547815 0.17491552
0.0029898109 -0.0012268596 0.17676356
0.0031857253 -0.0046415152 0.17790937
0.0051203445 0.034845438 0.14858299
0.0053662383 0.032899559 0.15038064
0.0059332796 0.030613815 0.15212725
0.0068783788 0.025956813 0.15556183
0.0065224008 0.024363555 0.15713224
0.0061823721 0.02174978 0.15855062
0.0057376465 0.018984588 0.16008322
0.0047073723 0.016704865 0.16219488
0.0074005211 0.012214398 0.16763195
0.0067755217 0.0096081048 0.16913685
0.0063073854 0.0069323508 0.17046641
0.0063002645 0.0044008135 0.17323047
0.0059940643 0.0024220555 0.17556344
0.0056883274 -0.0015317712 0.17783326
0.0061643431 -0.003977885 0.17957383
0.0075825579 0.035144798 0.1479052
0.0079224035 0.033471879 0.14977737
0.0082873655 0.031599555 0.15081285
0.0087802466 0.026846945 0.15693185
0.007985862 0.024617594 0.15852733
0.0074896994 0.021445129 0.15899569
0.0075218542 0.018955959 0.16046472
0.010198426 0.013379584 0.16685909
0.0092769722 0.011097156 0.16819739
0.0092276661 0.0087573621 0.16924478
0.009336967 0.0068612671 0.17105782
0.0087242918 0.004967792 0.17315763
0.0078377724 0.0026921215 0.17629504
0.0096710101 -0.0016820679 0.17882203
0.0090242689 -0.0038408758 0.18031451
0.010158752 0.034772176 0.1476167
0.010432087 0.033100907 0.14875247
0.010771524 0.030584969 0.15209211
0.010142467 0.027366882 0.15767948
0.0095604854 0.024703065 0.15878107
0.0095805302 0.021717744 0.15965308
0.0093275476 0.018225262 0.1621172
0.012084263 0.013392781 0.16649623
0.011566915 0.010885341 0.16810289
0.011845576 0.0085818153 0.16922966
0.012330527 0.0068213828 0.17144385
0.010584803 0.005196698 0.17307885
0.010484861 0.0025060712 0.17657712
0.013876448 -0.0020759099 0.17730205
0.012954797 0.034407627 0.14686404
0.013872036 0.032377016 0.14836545
0.013253267 0.029557556 0.15673994
0.013723939 0.027441369 0.15944333
0.012246976 0.025236223 0.15982109
0.012202549 0.021044588 0.16197483
0.013147725 0.015318996 0.16553825
0.014298053 0.013559455 0.16633126
0.01403967 0.011061504 0.16827843
0.013429505 0.0091004651 0.16932054
0.014607976 0.0074901851 0.17168912
0.012031539 0.0054016896 0.17319693
0.012528191 0.002433867 0.17600136
0.015120523 -0.0016046375 0.17534135
0.016610906 0.03390513 0.14673986
0.018320136 0.033474855 0.15125071
0.016276324 0.029742599 0.15661554
0.015079917 0.025441729 0.1612168
0 0 0 1 0 0 0 1 0 0 0 1 0 0 0 0 0 239 1 0 0
