ply
format ascii 1.0
comment PCL generated
element vertex 239
property float x
property float y
property float z
element camera 1
property float view_px
property float view_py
property float view_pz
property float x_axisx
property float x_axisy
property float x_axisz
property float y_axisx
property float y_axisy
property float y_axisz
property float z_axisx
property float z_axisy
property float z_axisz
property float focal
property float scalex
property float scaley
property float centerx
property float centery
property int viewportx
property int viewporty
property float k1
property float k2
end_header
-0.02980689 0.032527644 0.14828657
-0.029029043 0.030135561 0.14815517
-0.028118487 0.027777873 0.14967552
-0.027118836 0.025501436 0.1512216
-0.026342271 0.023449883 0.15289682
-0.027717603 0.020725422 0.15610722
-0.032669384 0.013643718 0.15937899
-0.033149526 0.011193722 0.1607707
-0.032448605 0.0082758525 0.1617143
-0.031708695 0.0056088502 0.16227207
-0.033030599 0.0030152677 0.16362493
-0.03480744 -7.2409544e-05 0.16520894
-0.035427034 -0.0028427206 0.16469768
-0.027885372 0.032785159 0.14726461
-0.026503831 0.03012076 0.14779308
-0.025529958 0.027617168 0.14851578
-0.024558684 0.025540998 0.14986129
-0.024121419 0.023574093 0.15210795
-0.024876822 0.020439897 0.15413249
-0.026082413 0.016542617 0.15851174
-0.028672908 0.012354985 0.1597127
-0.029110231 0.0092162266 0.1612169
-0.027665224 0.0057967473 0.16246992
-0.026916528 0.0025944912 0.1637198
-0.030676126 -7.2792885e-05 0.16475615
-0.032880835 -0.003543407 0.16631962
-0.02915293 -0.0069001238 0.16686252
-0.024893895 0.032944363 0.14645612
-0.02282596 0.030646693 0.14726886
-0.022441206 0.028268274 0.14801176
-0.02218912 0.025977986 0.14959012
-0.021806194 0.023375385 0.15146406
-0.022476083 0.020443227 0.15503874
-0.023744047 0.016641602 0.15828039
-0.024644369 0.012926718 0.15915929
-0.025355348 0.010166505 0.16008441
-0.025096389 0.0063714823 0.16280474
-0.024230715 0.0014917046 0.16617244
-0.026266932 -0.0014116003 0.16614006
-0.026866237 -0.0051156664 0.16731304
-0.025833344 -0.0067097456 0.16872184
-0.025493586 -0.0089856759 0.1698153
-0.019433917 0.033118535 0.14710687
-0.019759798 0.031022513 0.14782897
-0.019820815 0.028961355 0.14821443
-0.019722527 0.026507301 0.15022156
-0.019720936 0.023343187 0.1509935
-0.019890001 0.021101218 0.15448664
-0.021527668 0.017171238 0.15853924
-0.021277938 0.013826173 0.15923296
-0.021860622 0.011209687 0.16066007
-0.02176816 0.0048025348 0.1652406
-0.022787005 0.00066637964 0.16681889
-0.023881624 -0.0015422155 0.16786787
-0.024573136 -0.0040041823 0.16862592
-0.023792306 -0.0058353511 0.1693738
-0.023626257 -0.0079774279 0.17132019
-0.015863655 0.033158917 0.14776917
-0.01674331 0.030978087 0.14819247
-0.016916594 0.029087244 0.14836138
-0.017124115 0.025541818 0.15057383
-0.01727334 0.023119718 0.15182209
-0.017808352 0.021125779 0.15427458
-0.018860565 0.017495928 0.15937178
-0.018957442 0.014704364 0.16010562
-0.019322943 0.011794195 0.16166835
-0.019654481 0.004648421 0.16633882
-0.02040863 0.0014373376 0.16862731
-0.021077553 -0.0010351832 0.16970308
-0.02187006 -0.0034743976 0.16907792
-0.021363171 -0.0050419667 0.17053692
-0.020319931 -0.0077130287 0.17143777
-0.012893772 0.0326529 0.14827278
-0.013347716 0.030508041 0.14857234
-0.013655439 0.027953673 0.14965236
-0.014106414 0.0251095 0.15097141
-0.014869815 0.023204898 0.1523656
-0.015450173 0.021276871 0.15413514
-0.015923876 0.018925084 0.15867867
-0.016583212 0.015308595 0.1604422
-0.016769476 0.011779572 0.1628691
-0.018099159 0.0057574823 0.16708408
-0.01974131 0.0011756608 0.16933632
-0.019973548 -0.00079379318 0.1697626
-0.020014109 -0.0022938582 0.17007335
-0.019776706 -0.0045741103 0.17027023
-0.017962819 -0.0067618457 0.17014702
-0.01065277 0.032755483 0.14840224
-0.010681162 0.030371359 0.14917982
-0.011004227 0.027943414 0.15063101
-0.011749288 0.025216121 0.15176167
-0.011727301 0.023629025 0.15309264
-0.012053967 0.021865956 0.15535107
-0.010712155 0.018753268 0.15841034
-0.012755725 0.016048949 0.15947917
-0.012831878 0.01267659 0.16304697
-0.01288904 0.0089282533 0.16667789
-0.018076688 0.0020099634 0.16887026
-0.018151855 0.00011324517 0.16968864
-0.018480353 -0.0022645136 0.16953473
-0.017993497 -0.0036427903 0.16940287
-0.015916692 -0.0063403756 0.16979524
-0.007952041 0.03298125 0.14909819
-0.0088101253 0.030109543 0.15029298
-0.0090306494 0.02782681 0.15157674
-0.0087572839 0.026196163 0.15226568
-0.0085426923 0.024186024 0.15307036
-0.0081691705 0.022134906 0.1571499
-0.0081590014 0.01878383 0.15956631
-0.0080886399 0.015673615 0.1600607
-0.0085603297 0.012990227 0.16281736
-0.0081116604 0.00946627 0.16724038
-0.015043078 0.0024193439 0.16895439
-0.016225183 0.00036280495 0.17029516
-0.016619468 -0.0010863595 0.17052592
-0.015723232 -0.0029901059 0.16977897
-0.014404316 -0.0055088163 0.17078595
-0.0050108256 0.033112708 0.14860499
-0.0068143005 0.029245773 0.15176275
-0.0071103438 0.028110471 0.15207687
-0.0064324518 0.02642794 0.15302503
-0.0062567857 0.024053376 0.15502468
-0.0051143202 0.021395845 0.15966079
-0.0057782042 0.019224964 0.16053231
-0.0059750951 0.015917655 0.1612975
-0.005805437 0.012741413 0.16436318
-0.0056745838 0.0093072476 0.16760159
-0.0067349225 0.0048571839 0.16996886
-0.011775726 0.0016308208 0.16963099
-0.01312101 -0.00089043629 0.1698131
-0.013485423 -0.0028407085 0.17012504
-0.0095585389 -0.0070124757 0.17331123
-0.0026683246 0.032745738 0.14870812
-0.0038630848 0.029618694 0.15124868
-0.0034085447 0.028328385 0.15226255
-0.0037066122 0.026296427 0.15315104
-0.003602437 0.024137752 0.15575843
-0.0030243618 0.0212858 0.16025169
-0.0034307644 0.019297518 0.16130453
-0.0031914327 0.016327875 0.16294116
-0.0030978504 0.013105685 0.16527581
-0.0027728926 0.0088105854 0.16931388
-0.0030595353 0.006076376 0.17111021
-0.0027047014 0.0033831254 0.17381153
-0.0031366472 0.00041514597 0.1741448
-0.0028583149 -0.0016787829 0.17543128
-0.0032184566 -0.0069891964 0.17758606
-0.00068549666 0.031244196 0.15048295
0.00070923002 0.029180296 0.15191737
-0.00053607591 0.027539629 0.15384835
0.0015262302 0.025664778 0.15510413
0.0015567552 0.023332309 0.1577515
0.00027359434 0.021461003 0.16039024
-0.00050514383 0.019293372 0.16252142
-0.00075349672 0.016272917 0.16372335
-0.00092318538 0.013437259 0.1654827
1.7696306e-05 0.0090785846 0.1698126
0.00014360054 0.0063340859 0.17197382
0.00018677404 0.0036154336 0.17418391
0.0002145771 0.0013634462 0.17559402
0.00059772626 -0.0013563716 0.1778058
0.00017248956 -0.0055070883 0.17859852
0.0022341073 0.033373788 0.14992911
0.0030030455 0.031357553 0.15178549
0.0036830169 0.028714474 0.15405528
0.0048873499 0.025990825 0.15655012
0.0045403107 0.0242515 0.15790196
0.0034977726 0.022042235 0.1595865
0.0027000115 0.020062404 0.16134633
0.0015908168 0.016200894 0.16411746
0.0011394984 0.013383927 0.16550459
0.0037949907 0.010093449 0.16992329
0.0041120742 0.0076219086 0.17143565
0.0033243783 0.0042036315 0.17391138
0.0034168544 0.0017035254 0.17620976
0.0030781641 -0.0010145273 0.17810264
0.0033351656 -0.0044582901 0.17918813
0.0051168324 0.034735069 0.14921845
0.0053335894 0.032946799 0.15120235
0.0059028594 0.030845219 0.15319689
0.006866368 0.0263179 0.15695545
0.006417118 0.024849303 0.15850124
0.0058054086 0.022640254 0.16054048
0.0053021475 0.020027578 0.16232137
0.0041916068 0.017532988 0.16388172
0.0073692081 0.012860136 0.16965617
0.0067468439 0.010262863 0.1709509
0.0062936149 0.0076005948 0.17220142
0.0063198088 0.0048634941 0.17475826
0.0059306379 0.0027905919 0.17696388
0.0057089627 -0.0013057526 0.17925936
0.0061596339 -0.0037781501 0.18096465
0.0075674825 0.035171915 0.14870529
0.0078636371 0.033651903 0.15073046
0.0082579516 0.031927895 0.151989
0.0085966038 0.027359825 0.15832372
0.0077385171 0.025231892 0.15989821
0.0070179072 0.022285702 0.16097279
0.006975587 0.020196294 0.16294038
0.010074644 0.014240335 0.16916189
0.0092004137 0.011925546 0.17038667
0.0091890581 0.0095701488 0.17124164
0.0092915986 0.0076497686 0.17301232
0.0086962637 0.0056161112 0.17501174
0.0077157514 0.0031210743 0.17793651
0.0095633538 -0.0015630709 0.18006444
0.0089174034 -0.0037254824 0.181557
0.010103492 0.034878485 0.14847437
0.010368188 0.033275817 0.14966665
0.010573871 0.031012613 0.15327336
0.010001541 0.02776834 0.15873349
0.0093100835 0.025116613 0.15978059
0.0091801453 0.02226066 0.16114728
0.0088815587 0.019502318 0.16437784
0.011866829 0.01420711 0.16849947
0.011436757 0.011750004 0.17013252
0.011776548 0.0094404388 0.17119209
0.012235194 0.0077319206 0.17354946
0.010528973 0.0059719328 0.17514357
0.010326132 0.003039662 0.17841619
0.01366209 -0.0019965065 0.17834757
0.01277452 0.034383498 0.14742969
0.013592989 0.032199856 0.14862004
0.013135809 0.02936138 0.15662853
0.014138781 0.026643865 0.15816571
0.012264879 0.024860043 0.15911119
0.01211892 0.021466672 0.16261162
0.012930314 0.016020315 0.16691472
0.01392287 0.014122267 0.16761738
0.013833227 0.01171376 0.16979413
0.013289301 0.0098949615 0.17110777
0.014460427 0.0084208297 0.17369112
0.011975815 0.006348128 0.17526789
0.012411365 0.0030243949 0.17794198
0.014923694 -0.0013367947 0.17654119
0.016225686 0.033429988 0.14654504
0.018236758 0.032557797 0.15050983
0.016109364 0.02859927 0.15461482
0.015582216 0.024287844 0.1591949
0 0 0 1 0 0 0 1 0 0 0 1 0 0 0 0 0 239 1 0 0
