ply
format ascii 1.0
comment PCL generated
element vertex 239
property float x
property float y
property float z
element camera 1
property float view_px
property float view_py
property float view_pz
property float x_axisx
property float x_axisy
property float x_axisz
property float y_axisx
property float y_axisy
property float y_axisz
property float z_axisx
property float z_axisy
property float z_axisz
property float focal
property float scalex
property float scaley
property float centerx
property float centery
property int viewportx
property int viewporty
property float k1
property float k2
end_header
-0.029734926 0.032100163 0.1472715
-0.028812407 0.029787241 0.14731352
-0.027925828 0.027493766 0.14899296
-0.026932051 0.025195386 0.15053304
-0.026121987 0.023010992 0.15198213
-0.027601566 0.019886555 0.15463156
-0.032266892 0.013467877 0.1577206
-0.032824066 0.010993802 0.15901648
-0.032148819 0.0080930172 0.1599123
-0.031381197 0.0054753479 0.16019394
-0.032613181 0.0027280869 0.16091307
-0.034322958 -0.00043964252 0.16208446
-0.034863923 -0.0031369186 0.16141507
-0.027727736 0.032460436 0.14644448
-0.026268959 0.029934341 0.14725177
-0.025222795 0.027560592 0.1481631
-0.024253653 0.025523847 0.14955473
-0.023860708 0.02341816 0.15160942
-0.024509033 0.020003973 0.15308699
-0.025898369 0.015975494 0.15708531
-0.028299475 0.012200337 0.15840462
-0.028745623 0.0090862205 0.15990633
-0.027382491 0.0057679811 0.1607298
-0.026534306 0.0025512488 0.16139898
-0.030162705 -0.00036811392 0.16182695
-0.032381691 -0.0038620294 0.16312957
-0.028550174 -0.007130112 0.16380948
-0.024656946 0.03271139 0.14584604
-0.02257118 0.030516688 0.14695421
-0.022164658 0.028257007 0.14792013
-0.021943107 0.026076965 0.14959274
-0.021491282 0.023502411 0.15137213
-0.022264151 0.0201308 0.15433475
-0.02353986 0.016123779 0.15707029
-0.024387788 0.012722916 0.15807733
-0.025047313 0.010039316 0.15903737
-0.024909781 0.0064316341 0.16130967
-0.024058642 0.001443708 0.16400184
-0.025826929 -0.0015324757 0.16349517
-0.026297113 -0.0053101797 0.16438097
-0.025271436 -0.0069546062 0.16581546
-0.025000714 -0.009208383 0.16705655
-0.019332925 0.033151317 0.14708425
-0.019631078 0.031084156 0.14786664
-0.019634118 0.029041115 0.1483593
-0.019625092 0.02678138 0.15056284
-0.019408146 0.023637008 0.15128437
-0.019759079 0.021170868 0.15425143
-0.021372644 0.016687904 0.15756224
-0.021043973 0.013570982 0.15826689
-0.021637838 0.010999142 0.15957704
-0.021550566 0.0047604665 0.16313252
-0.022678174 0.00067097001 0.16449931
-0.023571316 -0.0016057603 0.16537388
-0.024081575 -0.004193407 0.16580285
-0.023299344 -0.0060622888 0.16663672
-0.023367025 -0.0080609871 0.16878125
-0.015889211 0.033437502 0.1482275
-0.016716762 0.031219974 0.14862934
-0.016829852 0.029330766 0.14887872
-0.017027128 0.026029484 0.15146056
-0.017105388 0.023514707 0.15245648
-0.017701766 0.021310508 0.15454336
-0.018786334 0.016994657 0.15865456
-0.018802453 0.014380304 0.15923944
-0.019154247 0.011438936 0.1604946
-0.019077575 0.0043905438 0.16346958
-0.01991603 0.0012460459 0.16567133
-0.020637879 -0.0011753844 0.16685753
-0.021394677 -0.0037349623 0.16633533
-0.021006545 -0.0051714047 0.16797039
-0.02011841 -0.0076934551 0.16940352
-0.012985465 0.033058539 0.14894356
-0.01343354 0.030907135 0.14930101
-0.013851526 0.028459333 0.15070401
-0.014154872 0.025776995 0.15222687
-0.014822301 0.02371848 0.15329672
-0.015378815 0.021553712 0.15465261
-0.015903249 0.018691825 0.15861511
-0.016510537 0.015041153 0.15989664
-0.016721023 0.011311765 0.16183861
-0.017454758 0.005233027 0.16412328
-0.019220337 0.00096799602 0.16628677
-0.019511322 -0.00099644414 0.16672434
-0.01960003 -0.0024654896 0.16717096
-0.019403782 -0.0046938001 0.16775545
-0.017613923 -0.0068697883 0.16820332
-0.010762626 0.032999191 0.1488346
-0.010910904 0.030644139 0.14971063
-0.011263988 0.028363932 0.15150715
-0.011993469 0.025704037 0.15280198
-0.011864684 0.024087654 0.15403056
-0.012016381 0.022094041 0.15591513
-0.010754835 0.018805295 0.15904798
-0.012780747 0.016113544 0.15984142
-0.012959884 0.012486718 0.16311808
-0.013059482 0.0084716761 0.16629575
-0.017476451 0.0017568546 0.16593221
-0.017669739 -8.4308143e-05 0.16684113
-0.018034443 -0.0024942504 0.16675189
-0.017543871 -0.0038579309 0.16696285
-0.015543865 -0.0064327507 0.16820511
-0.0079881418 0.033007666 0.14921135
-0.0089614382 0.030249383 0.15062352
-0.0092230402 0.028144946 0.15225163
-0.0089693693 0.026431898 0.15283158
-0.0087942844 0.024365464 0.15357554
-0.0081769312 0.02220417 0.15762734
-0.0082259113 0.0188754 0.16031435
-0.008317803 0.015684806 0.16114837
-0.008798779 0.013111346 0.16424498
-0.0084548108 0.010295832 0.16930325
-0.014700015 0.0022737025 0.16750872
-0.015994655 0.00021647051 0.16800074
-0.016353792 -0.0011591391 0.16797334
-0.015373135 -0.0031157483 0.16767982
-0.014256779 -0.0055005248 0.16939829
-0.0050365552 0.032910645 0.14852996
-0.0068985838 0.029296018 0.15194467
-0.00725593 0.028225577 0.15240084
-0.0065985844 0.026459364 0.1532325
-0.0063817883 0.024128122 0.15528552
-0.0051026843 0.021461712 0.16022326
-0.0057963035 0.019307412 0.16116625
-0.0061625261 0.015975591 0.16228355
-0.0060458858 0.013035466 0.1658197
-0.0059931469 0.01011598 0.16972466
-0.0070685842 0.005565132 0.17220017
-0.01188888 0.0014645148 0.16966103
-0.013077904 -0.0010367725 0.16900378
-0.013357782 -0.0029618412 0.1687867
-0.0096604126 -0.0068489686 0.1729732
-0.0027477266 0.032362189 0.14849652
-0.0040081418 0.02928824 0.15098245
-0.003554597 0.028102329 0.15206152
-0.0039013524 0.026110575 0.15305898
-0.0036951273 0.024128461 0.15587594
-0.0029835338 0.02137314 0.16081434
-0.0033946747 0.01934492 0.1618115
-0.0032624213 0.01639 0.16369559
-0.0032227703 0.013426436 0.16647911
-0.003034025 0.0096774604 0.17147473
-0.0032702922 0.0068020988 0.17313936
-0.0028052004 0.0040046643 0.17571345
-0.0033593464 0.00096531073 0.17575575
-0.0030706855 -0.0013110242 0.17680217
-0.0034168197 -0.0067771212 0.17835505
-0.00064910587 0.030686408 0.14988714
0.00073953735 0.028733758 0.15140773
-0.00059538434 0.027441479 0.15366992
0.0014692745 0.026135219 0.1557156
0.001636811 0.023514707 0.15809938
0.00037179628 0.021379836 0.16064575
-0.00040513618 0.019163962 0.16274813
-0.00077379006 0.016319852 0.16431873
-0.0010039021 0.013700408 0.16649736
-0.00026491249 0.0099363243 0.17192417
-4.94665e-05 0.0070153698 0.17387687
0.00010032755 0.0040821042 0.17576702
0.0001443036 0.0016740167 0.17686504
0.00059567206 -0.0011334195 0.1789096
6.5189932e-05 -0.0052492698 0.17968132
0.0023459296 0.032693971 0.14904457
0.0031435424 0.030762164 0.15094633
0.0037933367 0.028414709 0.15352677
0.0050886036 0.025966145 0.15671882
0.0047026989 0.024273479 0.15805683
0.0036505307 0.021849299 0.1595241
0.0028555377 0.019796211 0.16126908
0.0015879385 0.016192054 0.16460453
0.001102636 0.013546302 0.16645731
0.0034184512 0.010676316 0.1714856
0.0037465852 0.0079997266 0.17260426
0.0031292029 0.0044914405 0.17502628
0.0033782437 0.0018317651 0.17710672
0.0030951141 -0.00084071438 0.17901298
0.0033277178 -0.0042760023 0.18004884
0.0051573291 0.03429782 0.14853367
0.0054180454 0.032446634 0.15042037
0.0060519828 0.030320074 0.15233377
0.0071473522 0.026137361 0.15696301
0.0066067083 0.02474343 0.15855084
0.0059682159 0.022500969 0.16054131
0.0054900697 0.019759398 0.16219276
0.0043459232 0.017246656 0.1638435
0.0070799934 0.012831883 0.17015919
0.0064133992 0.010386697 0.17175075
0.0059395777 0.0076389425 0.17276844
0.0061209099 0.004837736 0.1751999
0.0059600235 0.0027359768 0.17743139
0.0058265943 -0.0011924184 0.17988831
0.0063841576 -0.0036847359 0.18152136
0.0076034726 0.035014279 0.14829352
0.0079042502 0.033415329 0.15020818
0.0083522853 0.03159504 0.15134364
0.0086667575 0.027354755 0.15835291
0.007739123 0.025310641 0.16003504
0.0070771524 0.022416189 0.16132629
0.0070269904 0.020163504 0.16306354
0.0096551171 0.013964829 0.16923989
0.0088346256 0.011729724 0.17055739
0.0087439511 0.0095088594 0.17155999
0.0089317635 0.0074324631 0.17304502
0.0084808581 0.0054199547 0.1750465
0.0077812327 0.0030080099 0.17809182
0.009748349 -0.00149972 0.18024255
0.0092101069 -0.0036667031 0.18180588
0.010188391 0.035101298 0.14846721
0.010503008 0.033482518 0.14962171
0.010722572 0.031050332 0.15313695
0.0099672303 0.027916985 0.1589113
0.0092956806 0.025344977 0.16017562
0.0090987533 0.022742134 0.16207635
0.0085689938 0.019922176 0.16506849
0.011298321 0.014179193 0.16898124
0.01091345 0.011616696 0.17033952
0.011191534 0.0093018627 0.17115797
0.011804442 0.0071868831 0.17301439
0.010276205 0.0056510391 0.17485699
0.01037894 0.0028737583 0.1782365
0.013697607 -0.0019292532 0.1782525
0.013034066 0.035241019 0.14809635
0.014005038 0.033299401 0.14951831
0.01316602 0.029682726 0.15738302
0.014019422 0.027349802 0.15954642
0.012287151 0.025359903 0.16014849
0.011662354 0.02237363 0.16432039
0.012282976 0.01645615 0.16820259
0.013395518 0.014707397 0.16901267
0.013241202 0.011994025 0.17067024
0.012707849 0.0098482063 0.17130589
0.014040291 0.0077330382 0.17302711
0.011715966 0.0058781323 0.17471254
0.012362032 0.0028406288 0.17755246
0.014779042 -0.0013476646 0.17629853
0.016739598 0.035112873 0.14806278
0.018422386 0.034079831 0.15233281
0.016397277 0.029365728 0.15633662
0.015398894 0.025368448 0.16122597
0 0 0 1 0 0 0 1 0 0 0 1 0 0 0 0 0 239 1 0 0
