ply
format ascii 1.0
comment PCL generated
element vertex 239
property float x
property float y
property float z
element camera 1
property float view_px
property float view_py
property float view_pz
property float x_axisx
property float x_axisy
property float x_axisz
property float y_axisx
property float y_axisy
property float y_axisz
property float z_axisx
property float z_axisy
property float z_axisz
property float focal
property float scalex
property float scaley
property float centerx
property float centery
property int viewportx
property int viewporty
property float k1
property float k2
end_header
-0.029597456 0.032070309 0.1468266
-0.028680718 0.029738391 0.14682131
-0.027797112 0.027467873 0.14854957
-0.026788112 0.025277024 0.15027234
-0.025918765 0.023155186 0.15191668
-0.027295664 0.020486226 0.15507632
-0.032176148 0.013445965 0.15725996
-0.032780696 0.011000333 0.15856183
-0.032115709 0.0080868145 0.15947443
-0.031342644 0.0054159262 0.15981013
-0.032692119 0.0027956937 0.16094987
-0.034553468 -0.00014348442 0.1628135
-0.035247035 -0.0028608977 0.16257851
-0.027592115 0.032449991 0.14603266
-0.026152626 0.029856313 0.1467303
-0.025136696 0.027428662 0.14761539
-0.024163241 0.025447877 0.14910622
-0.023693588 0.023378421 0.15133388
-0.024386782 0.020160209 0.15317705
-0.025734494 0.016420618 0.15746714
-0.028250182 0.012227211 0.15815705
-0.02873267 0.0090421326 0.15949005
-0.027278004 0.0055442038 0.16025002
-0.026540196 0.0022896149 0.16139077
-0.030369639 -0.00030021367 0.16232619
-0.03276043 -0.0035214955 0.16437344
-0.028977266 -0.0068623261 0.16549307
-0.024544328 0.032753356 0.14552093
-0.022490665 0.030509505 0.14650318
-0.02207097 0.028184984 0.14733367
-0.021842934 0.025966909 0.1489988
-0.021360524 0.023368092 0.15085994
-0.022020187 0.020210344 0.15417445
-0.023400808 0.016468128 0.15735717
-0.02435617 0.012845194 0.15816213
-0.025020545 0.010084153 0.15894009
-0.024800289 0.0061728382 0.16086838
-0.024193924 0.0014110762 0.16444625
-0.026167741 -0.0014028162 0.16461866
-0.026661376 -0.0050561801 0.16597268
-0.025566747 -0.0066830781 0.16726887
-0.025251146 -0.0089742225 0.16833432
-0.019326607 0.033186313 0.14697312
-0.01957736 0.031057246 0.1475298
-0.019538421 0.028996179 0.14783385
-0.019494103 0.026577782 0.14982907
-0.019294415 0.023427475 0.15058546
-0.019525787 0.021088954 0.15370777
-0.021258706 0.016930124 0.15778275
-0.021024957 0.013705293 0.15853484
-0.021688309 0.011079257 0.15980937
-0.0216527 0.0045595206 0.16352193
-0.022829458 0.00051543408 0.16544452
-0.023839338 -0.0015028807 0.16679168
-0.024365481 -0.0039439108 0.16725226
-0.023559606 -0.0058307098 0.16795647
-0.023573285 -0.0079344241 0.16998158
-0.015932314 0.033384483 0.14820388
-0.016701313 0.0311474 0.14837083
-0.016766204 0.029251672 0.14840822
-0.016880535 0.025771163 0.15053125
-0.016982988 0.023370117 0.1517453
-0.017574962 0.021343503 0.15405589
-0.018753344 0.01727776 0.15890218
-0.01881564 0.014521887 0.15957342
-0.019292139 0.011529658 0.16093752
-0.019500958 0.0043202089 0.16461681
-0.020254755 0.0012762991 0.16705713
-0.021001549 -0.00099936419 0.16846922
-0.021740727 -0.0034593774 0.16794418
-0.021278938 -0.0050259121 0.16939925
-0.020299297 -0.0076112296 0.17048016
-0.013053433 0.032945137 0.14875899
-0.013438585 0.030807525 0.14905952
-0.013695562 0.028114565 0.15001214
-0.014001971 0.025540626 0.15142468
-0.014712794 0.02366122 0.15265316
-0.015270378 0.021640467 0.15419669
-0.015757529 0.018788634 0.15842608
-0.016527815 0.015130714 0.16016074
-0.016999029 0.011474461 0.16248342
-0.018048435 0.0054423017 0.16546287
-0.019613015 0.0010881516 0.16774903
-0.019896498 -0.00081145921 0.16841467
-0.019989422 -0.0022362415 0.16895947
-0.019714119 -0.0045072949 0.16924798
-0.017857147 -0.0066645849 0.16930315
-0.010844923 0.032936845 0.14862788
-0.010937604 0.030613365 0.14956851
-0.011200347 0.028248994 0.15119158
-0.011909473 0.025630902 0.15250275
-0.011839776 0.024202315 0.15382603
-0.011916137 0.02226389 0.15553957
-0.010560943 0.018818546 0.15804742
-0.012625086 0.01592995 0.15926188
-0.01325906 0.012630675 0.16357297
-0.013599489 0.0089383312 0.16716628
-0.017984796 0.0019481197 0.16737925
-0.0181114 0.0001318256 0.16830768
-0.018443702 -0.0022219559 0.16846886
-0.01794078 -0.0035958614 0.16848256
-0.015803613 -0.006220289 0.16903855
-0.0080864476 0.033054873 0.14906064
-0.0090041831 0.030272601 0.15048233
-0.0092441943 0.028212724 0.15214545
-0.0089795161 0.026625846 0.15286678
-0.0087786112 0.024611771 0.15360251
-0.0081275608 0.022543816 0.15742165
-0.0081081428 0.018715335 0.15916571
-0.0082140472 0.015346248 0.15980007
-0.0087871142 0.012916106 0.16359329
-0.0080344044 0.009847478 0.16817723
-0.015198876 0.0025324314 0.16842937
-0.016315034 0.00042541383 0.16923194
-0.016640196 -0.00096476235 0.16938628
-0.015700975 -0.0029102487 0.16894211
-0.014357187 -0.0053476146 0.17005123
-0.0050967555 0.033314962 0.14881274
-0.0069381865 0.029350195 0.15178664
-0.007301583 0.028418779 0.15240979
-0.0066238227 0.02675142 0.15329093
-0.0063580344 0.02438939 0.15522495
-0.004980708 0.021394342 0.1595418
-0.0057238513 0.019054364 0.1601191
-0.0060931039 0.015572879 0.16100444
-0.0059188074 0.012761701 0.16496496
-0.0056157466 0.0095597422 0.16828249
-0.0064995228 0.004879578 0.1699594
-0.011994105 0.0018198036 0.16951956
-0.013229058 -0.00071336888 0.16915542
-0.013515173 -0.0026696767 0.1691857
-0.0094609624 -0.0068575335 0.1727425
-0.002783132 0.03290718 0.14894563
-0.0040492439 0.029487757 0.15089107
-0.003598135 0.028453609 0.15212744
-0.0039069955 0.026494907 0.15310869
-0.0036462385 0.024401233 0.15574251
-0.0028325622 0.021061942 0.15988854
-0.0033351819 0.018936248 0.16066663
-0.0032250285 0.016027141 0.16259971
-0.0031466514 0.013168826 0.16549669
-0.0028046584 0.0092085842 0.17008966
-0.0029374869 0.0062383786 0.17139253
-0.0025640104 0.003442914 0.17404537
-0.0030742765 0.0005282787 0.17438465
-0.0027873383 -0.0016284161 0.17556034
-0.003076697 -0.0070379311 0.17742081
-0.0007157845 0.030980106 0.15016492
0.0006562905 0.02877217 0.15140527
-0.0006189195 0.027653432 0.1536566
0.0015350487 0.025888501 0.15515132
0.0017214293 0.023049219 0.1571912
0.00052197254 0.020755522 0.15937151
-0.00030682917 0.018397924 0.16118392
-0.00071427226 0.01581295 0.1630365
-0.0009415634 0.013400563 0.16545047
-6.8913112e-05 0.0096147098 0.17079355
0.00018590939 0.0065549468 0.17245421
0.00031229475 0.0036552751 0.17438743
0.00034906066 0.0013334276 0.17566237
0.00079115323 -0.0014413185 0.17777032
0.00038247716 -0.005591088 0.17853169
0.0023011724 0.032724645 0.14932354
0.0030937777 0.030680241 0.151033
0.003794896 0.02815423 0.15327914
0.0052397791 0.025411956 0.15580744
0.0048104124 0.023646744 0.15703344
0.0037655183 0.021081608 0.1581213
0.0029428059 0.018927321 0.15966572
0.0016424218 0.015573573 0.16319332
0.0011583875 0.013189824 0.16535982
0.0037428248 0.010458349 0.17061166
0.004040001 0.0077154851 0.1716703
0.0033984727 0.0041434993 0.17389709
0.0035561107 0.00155622 0.17607635
0.003277567 -0.0010939286 0.17800534
0.0035827956 -0.0045092818 0.17910981
0.0051930635 0.033944506 0.14855105
0.0054318011 0.032140914 0.15043333
0.0060433904 0.029978925 0.15220094
0.0074143643 0.025471758 0.15600576
0.0067659076 0.024004379 0.15747701
0.0061678165 0.021532137 0.15909915
0.0056153666 0.018668555 0.16045633
0.0043908567 0.016250394 0.16210622
0.0075437929 0.012556331 0.1693483
0.0068215397 0.010186436 0.17098169
0.0063098944 0.0075008566 0.17211215
0.0063979663 0.004680139 0.17448215
0.0060805436 0.0026286347 0.17670952
0.0059304815 -0.001293982 0.17914145
0.0064612702 -0.0037256223 0.18087351
0.0076717758 0.034206368 0.14794418
0.0079705408 0.032706659 0.1499185
0.0083350902 0.030962443 0.15107329
0.0088765454 0.026597893 0.15750521
0.0078827804 0.024446813 0.15898673
0.0072795376 0.021344669 0.15982586
0.0072331685 0.018889302 0.16124076
0.01019385 0.013687531 0.16840355
0.0093083829 0.011485078 0.1698581
0.0091944905 0.0093008671 0.17092538
0.0093126046 0.0073259482 0.17252105
0.0087506874 0.0053342711 0.1744996
0.0078104343 0.0030116725 0.17754564
0.0098243998 -0.0011508424 0.18016164
0.0092477556 -0.0033918694 0.18162279
0.010262602 0.033794049 0.14773212
0.01050477 0.032242548 0.14896357
0.010809642 0.030105622 0.15262218
0.010046502 0.027210252 0.15822984
0.0093318019 0.02456582 0.15929314
0.0092861401 0.021592578 0.16060655
0.0088602426 0.018361215 0.16313086
0.011813576 0.013742247 0.1680142
0.011416062 0.011302481 0.16960496
0.011750947 0.0091070049 0.17074278
0.012228872 0.007282001 0.17293844
0.010537985 0.0056849313 0.17450635
0.01036522 0.003117067 0.17804785
0.014088969 -0.0011298418 0.17894642
0.013084127 0.033262156 0.14691727
0.013974613 0.031267297 0.14843133
0.013254869 0.029237449 0.15742137
0.013882079 0.026955413 0.15967692
0.012074912 0.024960442 0.16020176
0.01191661 0.02105722 0.16276155
0.012793605 0.015731273 0.16689542
0.01391257 0.013999592 0.16759546
0.013752849 0.011496226 0.16959211
0.01320509 0.0095982328 0.17073478
0.014432414 0.0079062376 0.1730855
0.011963119 0.0060561136 0.17458361
0.012414474 0.0032817209 0.17768912
0.015410243 -0.00051129918 0.17716184
0.016775031 0.032388352 0.14650203
0.018580157 0.032191046 0.15105502
0.016445039 0.029207448 0.15667698
0.015299433 0.024871159 0.16114527
0 0 0 1 0 0 0 1 0 0 0 1 0 0 0 0 0 239 1 0 0
