ply
format ascii 1.0
comment PCL generated
element vertex 239
property float x
property float y
property float z
element camera 1
property float view_px
property float view_py
property float view_pz
property float x_axisx
property float x_axisy
property float x_axisz
property float y_axisx
property float y_axisy
property float y_axisz
property float z_axisx
property float z_axisy
property float z_axisz
property float focal
property float scalex
property float scaley
property float centerx
property float centery
property int viewportx
property int viewporty
property float k1
property float k2
end_header
-0.030225366 0.032309897 0.14772372
-0.029202288 0.030017447 0.14769706
-0.028261859 0.027826397 0.14957748
-0.027192835 0.025785003 0.15153694
-0.026284678 0.023544032 0.15323554
-0.027558807 0.020143671 0.15577871
-0.03257028 0.013695576 0.15937386
-0.03311976 0.011299408 0.16076294
-0.032472566 0.0083975112 0.16175975
-0.03175696 0.0057672132 0.16233166
-0.033216879 0.0033615658 0.1638696
-0.035253607 6.5356297e-05 0.16527615
-0.03594137 -0.002829018 0.16464888
-0.028219422 0.032791 0.14698842
-0.026663203 0.030175466 0.14761014
-0.025604837 0.027732961 0.1485602
-0.024594408 0.025865931 0.15021756
-0.02407798 0.023905739 0.15277553
-0.024624472 0.020323578 0.15396491
-0.025834253 0.016010599 0.15773948
-0.028595749 0.01230694 0.15982571
-0.029106615 0.009183812 0.16140006
-0.027650217 0.0056278901 0.16239452
-0.026922466 0.0024068425 0.16375406
-0.030956816 1.0583723e-05 0.1649728
-0.033386875 -0.0035785199 0.16633052
-0.029154055 -0.0067424295 0.16771287
-0.025134098 0.033169616 0.1464849
-0.022939023 0.03083552 0.14731343
-0.022494858 0.028538203 0.1482019
-0.022249194 0.02639275 0.14996785
-0.021755679 0.023947153 0.15224747
-0.022264028 0.020386763 0.15494642
-0.023440808 0.01613931 0.157406
-0.024592161 0.012718728 0.15894948
-0.025334999 0.01005927 0.16020678
-0.025060147 0.0061285184 0.16273823
-0.024099901 0.0012676035 0.1663024
-0.026105097 -0.0015698837 0.16637722
-0.026688905 -0.0049859826 0.16795009
-0.025785612 -0.00639618 0.16934049
-0.025698217 -0.0086044902 0.17037596
-0.019608708 0.033641219 0.14765924
-0.019940743 0.031500742 0.14831585
-0.019957107 0.02947432 0.14866339
-0.019888937 0.027138239 0.15090123
-0.019707771 0.024130402 0.15192612
-0.019818 0.02162813 0.15484586
-0.021287398 0.016724622 0.15769325
-0.021072766 0.013585495 0.15876493
-0.021877827 0.011154382 0.16058719
-0.021647699 0.0042124237 0.16553201
-0.022406686 0.00022322546 0.16716485
-0.023617666 -0.0016595738 0.1682623
-0.024313293 -0.0038476076 0.16898169
-0.02382794 -0.0056019663 0.16989589
-0.023995548 -0.0077257296 0.17185351
-0.016155401 0.033823982 0.1487
-0.017004177 0.031626426 0.14901087
-0.017141506 0.029738737 0.14921498
-0.017268924 0.026520897 0.15197299
-0.017360982 0.023976373 0.15296148
-0.017888747 0.021807328 0.15506634
-0.018750697 0.017205238 0.15866973
-0.018857842 0.014447058 0.1595339
-0.019482302 0.01163323 0.16146412
-0.019576591 0.0039559319 0.16656211
-0.020394832 0.0010555768 0.1692172
-0.021193221 -0.0011112361 0.17050096
-0.021834269 -0.0034584301 0.16990773
-0.021593217 -0.0049232915 0.17146914
-0.020664286 -0.0076336088 0.172121
-0.013244657 0.033297371 0.14950386
-0.01368263 0.031208979 0.14964536
-0.014109056 0.028686561 0.15100823
-0.014356872 0.026052969 0.15253311
-0.015074 0.024051752 0.15363681
-0.015596017 0.021928735 0.15495303
-0.015900088 0.019054307 0.15878178
-0.016617846 0.015053716 0.16001074
-0.017090498 0.011463221 0.16268466
-0.018235357 0.0052724518 0.16707006
-0.019902958 0.00089321332 0.16995895
-0.02015367 -0.00093208189 0.17069839
-0.020273879 -0.0022736616 0.17121068
-0.020031342 -0.0045111189 0.17152078
-0.018257217 -0.0065925778 0.1712836
-0.011044452 0.03321993 0.1494396
-0.011185946 0.030870127 0.15024257
-0.011490318 0.028389907 0.15156431
-0.012188134 0.025737233 0.15276648
-0.012033167 0.024161505 0.15393288
-0.012050104 0.022268334 0.1557657
-0.010731329 0.018979965 0.15821312
-0.012828406 0.015956346 0.15928222
-0.013167798 0.012190628 0.16283254
-0.013353483 0.0084055979 0.16651377
-0.018404737 0.0017311154 0.16959272
-0.01854746 -2.0637084e-05 0.17060477
-0.018786851 -0.0022553564 0.17109352
-0.018322606 -0.0035644267 0.17093205
-0.016239118 -0.0061667627 0.17084259
-0.0082602417 0.033158563 0.14965099
-0.0092579545 0.030323202 0.15096197
-0.0094251642 0.028058384 0.15202715
-0.0091702994 0.026396574 0.15249923
-0.0090341801 0.024422823 0.15321189
-0.0081957094 0.022478731 0.15708977
-0.0084166676 0.019018345 0.15946648
-0.0084094442 0.015797464 0.16034128
-0.0087744193 0.012957694 0.16320756
-0.0084227789 0.0095909256 0.16776334
-0.015758336 0.0021877242 0.17025128
-0.016779399 0.00023572473 0.17151563
-0.017059609 -0.0011480897 0.17211312
-0.01617728 -0.0029421318 0.17138924
-0.014691725 -0.005383946 0.17174608
-0.0052494211 0.033076812 0.14893152
-0.0072125304 0.029068211 0.15185413
-0.0075019449 0.028095188 0.1519777
-0.0068199504 0.026392488 0.1526287
-0.0064848294 0.024140032 0.15469995
-0.0053743306 0.021748511 0.15978438
-0.0060942522 0.01951021 0.16057624
-0.0063853874 0.016120048 0.16165863
-0.006173098 0.012971316 0.16502552
-0.0061207246 0.0095013333 0.16831762
-0.007319835 0.0051316405 0.17091848
-0.012528389 0.0016226824 0.17079864
-0.013770137 -0.00086864707 0.17086329
-0.01404603 -0.0027517655 0.1711961
-0.0096862521 -0.0069594765 0.17363468
-0.0029875312 0.032497965 0.14874937
-0.0043603983 0.029196294 0.15089318
-0.0038412365 0.027887119 0.15131457
-0.0041747191 0.025961777 0.15222967
-0.0038252019 0.024115086 0.15511918
-0.0032348682 0.021480853 0.16037136
-0.0037141063 0.019485341 0.16135524
-0.0035550939 0.016622473 0.16339597
-0.0036349962 0.013649577 0.16614823
-0.0033471906 0.0090897335 0.17031732
-0.0035708072 0.0064587235 0.17197821
-0.0028696463 0.0035297563 0.1741766
-0.0032482201 0.00059756183 0.17443496
-0.0029288742 -0.0015572527 0.17573977
-0.0029750527 -0.0070854793 0.17751981
-0.00073731894 0.030813685 0.15003861
0.00079735246 0.028802795 0.15125036
-0.00065156468 0.02712179 0.1528428
0.0017554874 0.025827738 0.1550869
0.0017869594 0.023060275 0.1573474
0.00027150975 0.021182775 0.16009705
-0.00064089999 0.019264113 0.16244265
-0.0010820036 0.016593356 0.16423357
-0.00143222 0.013983388 0.16638874
-0.0005431911 0.0093994522 0.17090914
-0.00021428578 0.0066582044 0.1727775
8.6834916e-06 0.0037341586 0.1743874
0.00012341703 0.0014357897 0.17565383
0.00065850251 -0.0013942739 0.17776243
0.00035533783 -0.0055917101 0.1784154
0.0023272771 0.032984681 0.14932705
0.0031265819 0.031004868 0.15111703
0.0038468132 0.028497439 0.15348013
0.0051699933 0.025794312 0.15643904
0.0047896667 0.023929032 0.15753588
0.0036924849 0.021431953 0.15900832
0.0027397571 0.019709498 0.16104902
0.0012330032 0.0165514 0.16474867
0.00064797129 0.013915363 0.1665487
0.0033268894 0.010103683 0.17019981
0.0036370778 0.0076605389 0.17169335
0.0029434797 0.0044122245 0.17400086
0.0032290763 0.0017289335 0.17602439
0.0030742981 -0.001062263 0.17781124
0.0034377349 -0.0045312895 0.17872964
0.0051656882 0.034558419 0.14886929
0.0053858291 0.032683656 0.15068045
0.0059895054 0.030575046 0.15251753
0.0071935616 0.025905142 0.15667751
0.006612014 0.024409756 0.15807369
0.0060877926 0.021972207 0.15993048
0.0053918376 0.019517642 0.16189094
0.0039934358 0.017500309 0.16401556
0.0070460015 0.012477334 0.16914925
0.0063569485 0.010005548 0.17058679
0.0057126116 0.0076170634 0.17209627
0.00582409 0.0049721091 0.1745145
0.0056594438 0.0027750626 0.17655151
0.005786486 -0.0014607561 0.17852236
0.0064179194 -0.0039911843 0.18003401
0.0076211789 0.035278607 0.14870583
0.0078861108 0.033630449 0.15054195
0.0083030555 0.031845093 0.15160209
0.0088296719 0.026758755 0.1580981
0.0079974728 0.024589662 0.15943541
0.0072855554 0.021592984 0.16050836
0.0070689083 0.019592931 0.16240443
0.0097097596 0.013807041 0.16848186
0.0087852115 0.011555952 0.16973591
0.008702321 0.0093592899 0.17081593
0.0086757746 0.0076745134 0.17265211
0.0081222299 0.0056758374 0.17451605
0.0073809465 0.0030197264 0.17722918
0.0096844789 -0.001724162 0.17870586
0.0092026703 -0.0039526527 0.18015036
0.01021139 0.035344668 0.14898542
0.0104965 0.0336999 0.15004252
0.0107803 0.031036926 0.15340559
0.010186932 0.027281044 0.15864931
0.009379195 0.024628635 0.15952788
0.0093563031 0.021622887 0.16110477
0.0087624742 0.018858956 0.16405544
0.011462385 0.013820282 0.16820319
0.010922067 0.011439764 0.16964191
0.011218152 0.0094126472 0.17089964
0.011628984 0.007788525 0.17328224
0.0099050738 0.0060171988 0.17447455
0.00994753 0.0029917238 0.17750569
0.013650194 -0.001834538 0.17675756
0.013136501 0.035371654 0.14869848
0.01409194 0.033222247 0.14994086
0.013437595 0.028994722 0.15785891
0.01407609 0.02637759 0.15994388
0.012190962 0.024646435 0.16013722
0.012073263 0.020912206 0.16334778
0.012605474 0.015594565 0.16742805
0.013751522 0.013920826 0.16793293
0.013304046 0.011501799 0.16977564
0.012619974 0.0097966418 0.17088717
0.013810946 0.008350959 0.17341408
0.011298859 0.0064290236 0.17458391
0.011970362 0.0030906196 0.17699492
0.014723009 -0.0010139572 0.17500274
0.016980996 0.034791276 0.14852168
0.018697636 0.03317707 0.15287971
0.016712347 0.028396735 0.1570154
0.015311901 0.024162931 0.16152754
0 0 0 1 0 0 0 1 0 0 0 1 0 0 0 0 0 239 1 0 0
