ply
format ascii 1.0
comment PCL generated
element vertex 239
property float x
property float y
property float z
element camera 1
property float view_px
property float view_py
property float view_pz
property float x_axisx
property float x_axisy
property float x_axisz
property float y_axisx
property float y_axisy
property float y_axisz
property float z_axisx
property float z_axisy
property float z_axisz
property float focal
property float scalex
property float scaley
property float centerx
property float centery
property int viewportx
property int viewporty
property float k1
property float k2
end_header
-0.030435767 0.031908013 0.1464999
-0.029450191 0.029612223 0.14698075
-0.028488111 0.027684446 0.14936307
-0.027443668 0.02592013 0.15173352
-0.026440002 0.02360063 0.15400012
-0.027489699 0.020887962 0.15772323
-0.032686453 0.014277059 0.16237234
-0.033243477 0.011898339 0.16379274
-0.03276829 0.0088960854 0.16461995
-0.032252386 0.0061253882 0.16509379
-0.033744104 0.0037811946 0.16689146
-0.035698228 0.00073208433 0.168943
-0.036805123 -0.002035446 0.16887245
-0.028442906 0.032217335 0.14570661
-0.026915634 0.029728133 0.14696683
-0.02585268 0.027427042 0.14843158
-0.024835669 0.025763417 0.15037608
-0.02421527 0.023664061 0.15316638
-0.024836924 0.020461535 0.15546289
-0.025628969 0.01674629 0.16041292
-0.028760543 0.012659475 0.16233493
-0.029490294 0.009382952 0.16356649
-0.028142737 0.0053112288 0.16458538
-0.027319655 0.0017137463 0.16627637
-0.031507473 -6.662745e-05 0.16778366
-0.033996347 -0.0030485354 0.17009652
-0.029668361 -0.0070944079 0.17146015
-0.025372699 0.032529309 0.14532627
-0.023188921 0.030496214 0.14689374
-0.022767378 0.028306797 0.14803219
-0.022536976 0.026324319 0.15003598
-0.021895865 0.023664221 0.15247555
-0.02237314 0.020542685 0.15606028
-0.023345079 0.016782267 0.15942465
-0.024536364 0.013041292 0.16116458
-0.025544466 0.010222132 0.16215852
-0.025457665 0.00556345 0.16470151
-0.024374034 0.00047256783 0.16915801
-0.026299221 -0.0026106494 0.16895461
-0.027094757 -0.0057016397 0.17098533
-0.026094405 -0.0069454187 0.17226262
-0.025937216 -0.009081291 0.17329343
-0.019855807 0.033364363 0.14707249
-0.020182744 0.031275492 0.14789952
-0.02020653 0.029282615 0.14840791
-0.020175206 0.027100494 0.1508189
-0.019899899 0.023935009 0.15205461
-0.019911805 0.021642741 0.15524359
-0.021227883 0.01718195 0.15903734
-0.021028301 0.01378408 0.16016372
-0.021665771 0.011209828 0.16202703
-0.02204917 0.0034179599 0.16781738
-0.023012625 -0.00053795293 0.16964893
-0.023858082 -0.0026665903 0.17049026
-0.024481202 -0.0047225892 0.17124566
-0.024085702 -0.0062468331 0.17225467
-0.023925422 -0.0083176438 0.17417097
-0.016408505 0.033754904 0.14816943
-0.017249163 0.031553462 0.14869045
-0.017377364 0.029670455 0.14905567
-0.017502449 0.026438298 0.15191598
-0.017553423 0.023916213 0.15307221
-0.0180209 0.021785403 0.15533836
-0.018600876 0.017358996 0.15906093
-0.018740959 0.01445455 0.16043398
-0.019214414 0.011468703 0.16259098
-0.020230561 0.0030929684 0.16874354
-0.020596717 0.00013675123 0.17122211
-0.021199688 -0.0020514932 0.17250338
-0.022154257 -0.0042201392 0.17178184
-0.021595417 -0.0055938661 0.17324768
-0.020571336 -0.0083066318 0.1736667
-0.013421597 0.033364639 0.14895098
-0.01388436 0.03132898 0.1492561
-0.014400317 0.028841585 0.15124597
-0.014629615 0.026100274 0.1526207
-0.015289437 0.024056364 0.15378697
-0.015752461 0.021872327 0.15509592
-0.01576069 0.019002771 0.15872195
-0.016494956 0.014912635 0.16061287
-0.016840044 0.01103761 0.16360363
-0.018625746 0.0042960583 0.16850966
-0.020011611 -7.0811351e-05 0.17176382
-0.02022426 -0.0018921918 0.17241967
-0.020224309 -0.0032385685 0.17265284
-0.020111386 -0.0054592192 0.17270257
-0.018405648 -0.0072802897 0.17216936
-0.01120482 0.03321372 0.14890771
-0.01145616 0.030917512 0.1499515
-0.011836977 0.02845663 0.1516578
-0.012466673 0.025727274 0.15278216
-0.012227706 0.024018064 0.15382268
-0.012174726 0.022037182 0.1556883
-0.01055998 0.018899363 0.15819481
-0.012761535 0.015927419 0.1597098
-0.013078048 0.011886117 0.16393174
-0.013204285 0.0076872627 0.16733086
-0.018678883 0.00070968148 0.17115942
-0.018757982 -0.0010253638 0.1721008
-0.019054525 -0.0032337541 0.17204373
-0.018736649 -0.0044556889 0.17174049
-0.016536828 -0.0066948039 0.17144874
-0.0084276544 0.033051889 0.14920731
-0.0096540283 0.030381555 0.15099412
-0.0097848624 0.028099637 0.1520842
-0.0093896138 0.026378687 0.15250966
-0.0091077909 0.024377694 0.15319411
-0.0081724357 0.022399114 0.15694267
-0.0081984075 0.018916499 0.15942156
-0.0084693842 0.015808878 0.16099299
-0.0087731928 0.013061447 0.16435167
-0.0082245031 0.0099106766 0.16883568
-0.016330371 0.0012381329 0.17153524
-0.017083328 -0.00083413278 0.17252409
-0.01727666 -0.0020472168 0.17283168
-0.01656661 -0.0036440101 0.17184047
-0.014910812 -0.0058922414 0.17210038
-0.0052890889 0.032942649 0.14894852
-0.0077229505 0.029152023 0.15220997
-0.0078657577 0.028164914 0.15224043
-0.0070316056 0.026519248 0.15294418
-0.0066423523 0.02425791 0.15501112
-0.0051840832 0.021622146 0.1597061
-0.0058355047 0.019330991 0.16043824
-0.0063473037 0.015964445 0.16210465
-0.0060625891 0.012952104 0.16588181
-0.0060425582 0.0096082473 0.16913418
-0.0072747767 0.0052979337 0.17167658
-0.013315368 0.00084494683 0.17208761
-0.014542242 -0.0014741817 0.17192799
-0.014755297 -0.0033184292 0.17185245
-0.0097355042 -0.0071495227 0.17375682
-0.0030510237 0.032368984 0.14895578
-0.0047047413 0.029308787 0.15156767
-0.004066803 0.028218877 0.1520513
-0.0043355348 0.026328929 0.15291488
-0.00398973 0.024437547 0.15576564
-0.003149779 0.021352775 0.16056517
-0.0035107294 0.01921083 0.16122606
-0.0034070648 0.016068093 0.16336538
-0.0034455014 0.013324657 0.16644835
-0.0032086959 0.0088474704 0.17082286
-0.0033971467 0.0064112768 0.17239437
-0.0025839754 0.003274098 0.17433566
-0.0029969264 0.00054564973 0.17477246
-0.0029278195 -0.0015250507 0.17628494
-0.0029737763 -0.0073345886 0.17796358
-0.00056251587 0.030442139 0.15022723
0.001051416 0.028490478 0.15172827
-0.00072613487 0.027402986 0.15360978
0.0019900145 0.025987031 0.15547219
0.0018964034 0.023254713 0.15771945
0.00028215995 0.021225888 0.16063976
-0.0005443574 0.018974744 0.16252623
-0.00090932194 0.016202051 0.16416125
-0.0012250622 0.013642388 0.16651452
-0.00029549093 0.0088386666 0.17124353
3.8071008e-05 0.0062530986 0.17327873
0.00020699091 0.003532286 0.17494318
0.00027033349 0.0013432237 0.17625037
0.00065192732 -0.00167429 0.17820175
0.0002815451 -0.0059328033 0.17872062
0.0025900551 0.032350816 0.14943793
0.0034054574 0.030531244 0.15133063
0.0041534035 0.028303355 0.15387122
0.0053618811 0.025742514 0.15691012
0.0048827091 0.024084385 0.15809827
0.0037127859 0.021526003 0.15949158
0.0027230263 0.019701755 0.16149305
0.0014158803 0.016265407 0.16462867
0.00085507095 0.013602368 0.16658361
0.003733834 0.0091553116 0.17027411
0.0040560593 0.0067532947 0.17186444
0.0031207993 0.0042177024 0.17479098
0.0032997369 0.0015373545 0.17677583
0.003073409 -0.0014414164 0.17825305
0.0033802358 -0.0049332706 0.17916784
0.0054058507 0.033576958 0.14866637
0.0056341612 0.031955283 0.1506571
0.0062576397 0.030089065 0.15269795
0.007319083 0.02587611 0.15736754
0.0065873507 0.024572313 0.1588091
0.0059775636 0.022155605 0.16070598
0.0053096949 0.019586785 0.16247749
0.0039747348 0.017387314 0.16420792
0.0070664282 0.011941263 0.16955744
0.0066819568 0.0090969587 0.17053317
0.0062097413 0.0066791014 0.17217851
0.0061128214 0.0043868348 0.17489012
0.0057588834 0.0024095431 0.17706376
0.0057597891 -0.0018718056 0.17909743
0.0062918537 -0.0043680253 0.18070343
0.0078297118 0.033901479 0.14811474
0.0081044817 0.032549921 0.15019444
0.0084808627 0.030971272 0.15153044
0.008703866 0.026906611 0.15871906
0.0077222153 0.024992902 0.16027328
0.0069951084 0.021894174 0.16161755
0.006799405 0.019748366 0.16318592
0.0096266186 0.013338353 0.16873048
0.0088292863 0.011075862 0.16979833
0.0091806306 0.0084494967 0.17078984
0.0091394028 0.0069247726 0.17299414
0.0084558753 0.0049730218 0.17491211
0.0074075977 0.0025122173 0.17759381
0.0095666004 -0.0017594519 0.18032622
0.0089676781 -0.004009271 0.18161248
0.010296929 0.033547498 0.14800236
0.010526449 0.032137476 0.14934045
0.010810249 0.030258972 0.15330592
0.00997457 0.027490431 0.1592519
0.0090988195 0.024995079 0.16045228
0.008911496 0.022052886 0.16258886
0.0082132695 0.018995723 0.16499893
0.011628727 0.01309947 0.16820098
0.011166931 0.010717941 0.16950731
0.012045181 0.0083704041 0.17130481
0.012061628 0.0071471483 0.17423087
0.010201385 0.005370168 0.17510606
0.009769191 0.0026674177 0.17841214
0.013821914 -0.0016098538 0.17974795
0.012988223 0.033006974 0.14716104
0.013825833 0.031121941 0.14865004
0.013271526 0.028951019 0.15809904
0.01397272 0.026413297 0.15992421
0.012005467 0.024910565 0.16093479
0.011578227 0.021248206 0.16479802
0.01267697 0.015101619 0.16759585
0.014254398 0.01324096 0.16819288
0.013890018 0.010819004 0.17017899
0.013359277 0.0089613711 0.17147219
0.014181775 0.0079388311 0.17469917
0.01147237 0.0059310067 0.17547671
0.011729392 0.0029633688 0.17852563
0.015308794 -0.0010228102 0.17820185
0.016585326 0.031955916 0.14650413
0.018571865 0.03157302 0.15092061
0.016627679 0.027955925 0.15664645
0.015174784 0.024331167 0.16161934
0 0 0 1 0 0 0 1 0 0 0 1 0 0 0 0 0 239 1 0 0
