ply
format ascii 1.0
comment PCL generated
element vertex 239
property float x
property float y
property float z
element camera 1
property float view_px
property float view_py
property float view_pz
property float x_axisx
property float x_axisy
property float x_axisz
property float y_axisx
property float y_axisy
property float y_axisz
property float z_axisx
property float z_axisy
property float z_axisz
property float focal
property float scalex
property float scaley
property float centerx
property float centery
property int viewportx
property int viewporty
property float k1
property float k2
end_header
-0.030874647 0.03198633 0.14657013
-0.029799221 0.029714301 0.14689586
-0.028696923 0.027752785 0.14910184
-0.02757494 0.025938338 0.15135139
-0.026505327 0.023644457 0.15351346
-0.027535455 0.021151857 0.15739885
-0.032997273 0.013558308 0.1623449
-0.03350009 0.011012658 0.16344593
-0.032918509 0.0079657612 0.16388591
-0.032196373 0.0052648741 0.16394782
-0.033512101 0.0024398519 0.16482483
-0.035316896 -0.0014229328 0.16575991
-0.036083985 -0.0043195314 0.1650895
-0.02891282 0.03238409 0.14581095
-0.027275216 0.029860178 0.14692557
-0.026105482 0.027542919 0.14822346
-0.025019512 0.025805105 0.15006253
-0.024291966 0.023674278 0.15258823
-0.024890538 0.02067454 0.15504505
-0.02576711 0.01684727 0.16007824
-0.029059133 0.012186492 0.1622992
-0.029770581 0.0086548831 0.16308554
-0.028027309 0.0045973952 0.16359586
-0.026747098 0.0006318852 0.16447134
-0.030736132 -0.001562341 0.16500512
-0.03328776 -0.0052335775 0.16648827
-0.028640198 -0.0085306149 0.16844708
-0.025882144 0.032760654 0.14556663
-0.023625761 0.030623173 0.1471211
-0.02314142 0.028391616 0.14802243
-0.0228479 0.02629995 0.14983849
-0.021958016 0.023742199 0.15191017
-0.022470234 0.020692574 0.15562227
-0.023481548 0.016907716 0.15897667
-0.024759348 0.013049625 0.1612981
-0.025807681 0.0099523757 0.16206138
-0.025494928 0.0048889141 0.1638047
-0.023379462 -0.00073838764 0.16668332
-0.025026109 -0.0043703872 0.16593614
-0.026133232 -0.0069743874 0.16833656
-0.025542134 -0.0076724566 0.17001431
-0.025607701 -0.0095746201 0.17130844
-0.020371528 0.033510942 0.14779197
-0.020627921 0.031334426 0.14829698
-0.020597812 0.029305682 0.14852351
-0.020460678 0.026865134 0.15047181
-0.01996978 0.023854572 0.15134236
-0.019988611 0.021776028 0.15470079
-0.021409882 0.017342778 0.15846708
-0.021250039 0.013785556 0.15985042
-0.021823 0.011047301 0.16181535
-0.021503335 0.0026954073 0.16605666
-0.020949842 -0.0016212115 0.16643617
-0.022791386 -0.0038875497 0.16762845
-0.023780383 -0.0056281025 0.1689738
-0.023652518 -0.006824702 0.17021537
-0.023837859 -0.0086805858 0.17229845
-0.016848756 0.033837553 0.14881007
-0.017675301 0.031589158 0.14910339
-0.017766021 0.029687565 0.14925249
-0.017533679 0.02617801 0.15098368
-0.017612396 0.023746975 0.15230735
-0.018091064 0.022013957 0.15488926
-0.01880941 0.017455829 0.15812303
-0.018985419 0.014272786 0.15964901
-0.019412398 0.01108009 0.16205369
-0.019581284 0.0023467368 0.16682705
-0.020064643 -0.00045174931 0.16899145
-0.020766517 -0.0027003554 0.16991284
-0.021696076 -0.0048101987 0.16974576
-0.021461848 -0.0059016189 0.17146485
-0.02046939 -0.0085862754 0.17237139
-0.01365568 0.033139355 0.14912882
-0.01417709 0.031261504 0.1494294
-0.014378273 0.028328359 0.15074122
-0.01468302 0.025875429 0.15204819
-0.015353817 0.024021186 0.15322816
-0.015846608 0.022167133 0.15485515
-0.015877489 0.019287242 0.15835132
-0.016732864 0.014537384 0.1595598
-0.017107971 0.010467449 0.16299628
-0.018398548 0.0037513573 0.16719449
-0.019746205 -0.00069313537 0.16966389
-0.01996273 -0.0024589549 0.17019439
-0.020047192 -0.0036178611 0.1707577
-0.019946078 -0.0057771201 0.17127553
-0.018262008 -0.0075488347 0.17103878
-0.011411369 0.032656029 0.14884484
-0.011680663 0.030404706 0.15003312
-0.011901819 0.028071862 0.15167359
-0.012626854 0.025607359 0.15312184
-0.012405136 0.024196964 0.15431081
-0.012240228 0.022459554 0.15592676
-0.010360764 0.019229515 0.15758601
-0.012681071 0.015938198 0.15871267
-0.013356963 0.01112567 0.16338404
-0.013720542 0.0070432443 0.16702496
-0.018561598 -2.4674471e-06 0.16919445
-0.018703522 -0.0017582541 0.16993576
-0.018896963 -0.0037189475 0.17037448
-0.01850439 -0.004853718 0.17049059
-0.016356092 -0.0069062077 0.17074248
-0.0086906264 0.032225672 0.14896487
-0.0099135293 0.029823979 0.15094474
-0.0099511994 0.02789953 0.15254197
-0.0095050996 0.026354125 0.15336667
-0.0092520341 0.024451217 0.15427923
-0.0083200373 0.02279778 0.15755057
-0.0079502249 0.019099215 0.15862019
-0.0083285868 0.015822764 0.15994029
-0.0088126287 0.012594423 0.16352341
-0.0082550878 0.0094818389 0.16813013
-0.016449723 0.00052718061 0.17003876
-0.017152956 -0.0015047531 0.17041938
-0.017430281 -0.002351908 0.17081247
-0.016552599 -0.0037949216 0.17088759
-0.014942538 -0.0059836707 0.17167793
-0.0055800369 0.031846158 0.14892897
-0.0079871174 0.02876956 0.15248656
-0.0080350479 0.02798645 0.15286011
-0.0071385526 0.026468767 0.15382783
-0.0068480833 0.024453698 0.15608963
-0.0051895892 0.021844489 0.15984426
-0.0057478286 0.019509071 0.15999825
-0.0064843483 0.015993647 0.16144909
-0.0062312717 0.012518797 0.16521794
-0.006184049 0.0091878576 0.16848783
-0.0075481287 0.0054294975 0.17141536
-0.013546363 0.00018835398 0.17120659
-0.014866531 -0.0018488336 0.17081818
-0.01503991 -0.0034400176 0.17092703
-0.010229002 -0.0072428151 0.17351906
-0.0033746467 0.031211281 0.14897291
-0.0049816673 0.028718201 0.15197335
-0.0040306253 0.027934741 0.15282366
-0.0043720338 0.026171682 0.15391017
-0.0042189709 0.024652509 0.15688565
-0.0031479164 0.021466367 0.16075602
-0.0034871495 0.019268231 0.16098404
-0.0036387003 0.016097197 0.16324534
-0.0037552004 0.012780732 0.16589284
-0.0033953853 0.0082122264 0.17002781
-0.0036562236 0.00621595 0.17178854
-0.0027130162 0.0030283262 0.17285864
-0.0032498233 0.00046681854 0.17330135
-0.003181603 -0.0014938515 0.17522568
-0.0031229481 -0.0073009538 0.17723154
-0.00060690753 0.030093849 0.15073673
0.0012225435 0.028655203 0.15252708
-0.00050834456 0.027563043 0.15487212
0.0019652555 0.026372014 0.15648527
0.0019129796 0.023434456 0.15850754
0.00042647126 0.021532815 0.16132423
-0.0005079548 0.019031575 0.162598
-0.0010356642 0.016220599 0.16405435
-0.0014877508 0.01320942 0.16611481
-0.00043989441 0.0078872675 0.17015311
-0.0001199577 0.0057262117 0.17218021
3.741699e-05 0.0031113485 0.17342982
0.00013136156 0.0011166906 0.17479214
0.00041370836 -0.0018195526 0.17712615
0.00012586228 -0.0060387212 0.1778826
0.0028305503 0.031985555 0.14938267
0.0036513219 0.030341454 0.15146871
0.0044392743 0.028496601 0.15442863
0.0053678495 0.025839884 0.15731795
0.004893309 0.02416268 0.15847445
0.0037653088 0.021612231 0.15972158
0.0028690943 0.01985829 0.16176696
0.0013303816 0.016298015 0.16452123
0.00063953671 0.013289922 0.16613041
0.0037822318 0.0082189757 0.16906697
0.0040659709 0.0060940073 0.17076774
0.0029845757 0.0036294004 0.17333035
0.0030983598 0.0011341145 0.17549153
0.0027853767 -0.0015566899 0.17726479
0.0031302066 -0.0049543502 0.17841797
0.0056765783 0.03333921 0.148588
0.0058588162 0.03170003 0.15056202
0.0065225936 0.029946279 0.15272178
0.0074302247 0.02577346 0.15744257
0.0066714529 0.024400793 0.15878919
0.0062005152 0.021868553 0.16028088
0.0055311001 0.019364808 0.16215573
0.0041152947 0.017430302 0.16421959
0.0068620788 0.011359779 0.16892512
0.0064758346 0.0085672969 0.16972813
0.0059245308 0.0063508693 0.17115788
0.0058514164 0.0041004987 0.17383423
0.0055558099 0.0021118007 0.17595483
0.0053723808 -0.0018236962 0.17831846
0.0058823503 -0.0041792872 0.18012415
0.0082050348 0.03388501 0.14829428
0.0084255459 0.032466695 0.15023822
0.0086995354 0.03083713 0.15150747
0.0088274851 0.026526535 0.15865123
0.0079609565 0.024438286 0.15997006
0.0072633433 0.021323273 0.16068104
0.0070963111 0.019344419 0.16250473
0.0092673535 0.013089334 0.16848342
0.0085383439 0.010654353 0.16937575
0.0087457048 0.0083468808 0.17029764
0.0086235171 0.0068980283 0.17218417
0.0080069415 0.0050304313 0.1742077
0.0070786453 0.0027398136 0.1770089
0.0092880065 -0.0012731036 0.18000954
0.0085865613 -0.0034804689 0.18137093
0.010779231 0.033705894 0.14851788
0.010983961 0.032287207 0.14975822
0.011048215 0.030187095 0.15351981
0.0099863745 0.02703242 0.15920043
0.00917379 0.02442486 0.16011338
0.0092113465 0.021053629 0.16121325
0.0086286515 0.018411517 0.16398439
0.011284214 0.012888438 0.16794944
0.010762306 0.010628996 0.1692777
0.01128545 0.0086592184 0.17038402
0.011488636 0.0070633688 0.17300265
0.0096126068 0.0055407044 0.17435414
0.0094224475 0.003154468 0.1777963
0.013637575 -0.0011940346 0.17938559
0.013809654 0.033575766 0.14826131
0.014643607 0.031792462 0.14988694
0.013145066 0.028857268 0.15930079
0.014147428 0.026464254 0.16128288
0.011676501 0.024578651 0.16124651
0.012014001 0.020025451 0.16301584
0.012579244 0.014445385 0.16680093
0.013979667 0.012767747 0.16740131
0.01339297 0.010613522 0.16950789
0.012656049 0.0090276171 0.17056769
0.013702678 0.0076487795 0.17320956
0.010863215 0.0060465373 0.17444558
0.011404642 0.0035239358 0.17774029
0.015016488 -0.00079973962 0.17772783
0.017770214 0.033092719 0.14846553
0.01927942 0.032605395 0.15357852
0.017401295 0.028881848 0.15888898
0.015603637 0.024167839 0.16264342
0 0 0 1 0 0 0 1 0 0 0 1 0 0 0 0 0 239 1 0 0
