ply
format ascii 1.0
comment PCL generated
element vertex 239
property float x
property float y
property float z
element camera 1
property float view_px
property float view_py
property float view_pz
property float x_axisx
property float x_axisy
property float x_axisz
property float y_axisx
property float y_axisy
property float y_axisz
property float z_axisx
property float z_axisy
property float z_axisz
property float focal
property float scalex
property float scaley
property float centerx
property float centery
property int viewportx
property int viewporty
property float k1
property float k2
end_header
-0.024928667 0.034877054 0.14636321
-0.024841763 0.032568742 0.14666829
-0.024984743 0.030648613 0.14855805
-0.025070507 0.028432867 0.1501883
-0.025079664 0.026424268 0.15217274
-0.025651455 0.023993075 0.15582021
-0.027137754 0.021725155 0.16087031
-0.027566144 0.019364582 0.16323194
-0.027604977 0.016755639 0.16424023
-0.027559131 0.013987038 0.16531843
-0.027609512 0.011217578 0.16603719
-0.027858809 0.008414723 0.16776523
-0.027845224 0.0057554021 0.16767193
-0.022590859 0.034673288 0.14559391
-0.022373419 0.032479569 0.14682467
-0.022499353 0.03051885 0.14855105
-0.022512531 0.028351914 0.15004173
-0.022545027 0.026367707 0.15198585
-0.022944812 0.023860065 0.15459999
-0.023468491 0.021063363 0.15835138
-0.024024198 0.018987179 0.16066913
-0.024219679 0.016641408 0.16289683
-0.02442985 0.014087763 0.16420671
-0.024514848 0.011454743 0.1653239
-0.024990551 0.0085568838 0.16735457
-0.025370231 0.0056796186 0.16952126
-0.025246816 0.0028344821 0.1715782
-0.01983393 0.034649622 0.14575987
-0.019778296 0.032844152 0.14814675
-0.019863538 0.030545786 0.14907186
-0.020008598 0.028331643 0.1504696
-0.020077797 0.026316715 0.15183787
-0.020298809 0.023891311 0.15503559
-0.020939514 0.021250024 0.15871252
-0.021205736 0.018962441 0.16060007
-0.021320537 0.016720384 0.16245002
-0.021769138 0.014393011 0.16480856
-0.022112926 0.011488208 0.16798759
-0.022124037 0.0083596054 0.16951644
-0.022507085 0.0051530432 0.17104192
-0.022009697 0.0021571449 0.17159146
-0.02217379 -0.0008828218 0.17282219
-0.017092306 0.034794036 0.14730702
-0.017317344 0.032743439 0.14863741
-0.01730811 0.030514486 0.14903334
-0.017453907 0.028581254 0.15112266
-0.017619459 0.026380051 0.15186849
-0.017741995 0.024065938 0.15482979
-0.018286265 0.021690544 0.15916328
-0.018250857 0.019048296 0.16022171
-0.018511016 0.01676395 0.16270794
-0.01867207 0.014152437 0.1660776
-0.019252198 0.011001769 0.16945593
-0.019327153 0.0082525089 0.17039178
-0.01967426 0.00529692 0.17229047
-0.019457253 0.0023370953 0.17341267
-0.019842472 -0.00032446379 0.17502169
-0.01444649 0.034881614 0.14740211
-0.014660664 0.032695204 0.14854608
-0.014569042 0.03042553 0.14885136
-0.01503842 0.028521709 0.15095988
-0.015007055 0.026241187 0.15254946
-0.015235638 0.02404893 0.15496115
-0.015483228 0.021940866 0.15981236
-0.015580008 0.019236315 0.1605074
-0.015813023 0.01678329 0.1629632
-0.015845854 0.013811895 0.1661132
-0.01572453 0.010819816 0.16873693
-0.016366931 0.0082162442 0.17162476
-0.016951915 0.0054910695 0.17455761
-0.017115887 0.0025561564 0.17548198
-0.016538396 -0.0007818733 0.17491205
-0.012108115 0.034986693 0.14726044
-0.01217701 0.032774229 0.14860788
-0.01210516 0.030585995 0.14974254
-0.012252602 0.028205594 0.15126963
-0.01240979 0.026107263 0.15257506
-0.012503842 0.023907499 0.15500498
-0.012705435 0.021798631 0.15879826
-0.012817318 0.019258467 0.16055295
-0.012983702 0.016554037 0.16264816
-0.013118396 0.013673209 0.16675067
-0.013322524 0.01056468 0.17102261
-0.013979333 0.0083783763 0.17386545
-0.014255718 0.0056276848 0.1761048
-0.014282658 0.0026965071 0.17558931
-0.012586961 -0.0011718238 0.17406537
-0.0098207938 0.034942258 0.14684688
-0.009740172 0.03301312 0.14832357
-0.0096854493 0.030927325 0.15057719
-0.0098239752 0.028107792 0.15176718
-0.0095398258 0.025965579 0.15339623
-0.0098075625 0.023981525 0.1555095
-0.0097448369 0.021671355 0.15857679
-0.0098453537 0.018999951 0.15921834
-0.010064549 0.01643022 0.16237134
-0.010469979 0.014138826 0.16696391
-0.010430019 0.010765609 0.17252316
-0.010943939 0.0085728187 0.17520633
-0.011130364 0.0055577629 0.17539969
-0.010914708 0.0025838106 0.17507404
-0.010427718 -0.00072976301 0.17512771
-0.0071329926 0.035150938 0.14711367
-0.0072825188 0.033072196 0.14876357
-0.0072909882 0.030973043 0.15111019
-0.006945977 0.028282404 0.15173282
-0.0068159695 0.026110468 0.15334632
-0.0070310812 0.024415905 0.1566641
-0.0071265162 0.021818448 0.15962186
-0.0068253684 0.018858958 0.15988988
-0.0072721848 0.016451646 0.16313083
-0.0079387473 0.014150126 0.1677967
-0.007190512 0.010826819 0.17264046
-0.0080630174 0.0085204057 0.1753962
-0.0083568608 0.005877736 0.1760591
-0.008416729 0.0029304451 0.17683224
-0.0091654081 0.00033578795 0.17877299
-0.0046383603 0.035128906 0.14738175
-0.0047315159 0.032888826 0.14926097
-0.0046635661 0.031066811 0.15093504
-0.0043182913 0.028639175 0.15277858
-0.0044590021 0.02670129 0.15544853
-0.0045292103 0.024882406 0.15987359
-0.0046049193 0.022184601 0.16086273
-0.0046078712 0.019506268 0.16199721
-0.0049649384 0.0169455 0.1649643
-0.0052492432 0.014684407 0.16888812
-0.0048850761 0.011354954 0.17377397
-0.0051190415 0.0089602591 0.17652512
-0.005423693 0.0061114728 0.17710479
-0.0056202272 0.0032876022 0.17755949
-0.0052787485 0.00018438476 0.18102172
-0.002153978 0.035179671 0.1477856
-0.0022165263 0.032771662 0.14906423
-0.0017502315 0.030352751 0.1503298
-0.0016512433 0.028275179 0.15234353
-0.0017273616 0.026566936 0.15541711
-0.0018083996 0.024977114 0.15997069
-0.0019587569 0.022400251 0.16122027
-0.0021546299 0.019927187 0.16361368
-0.0020152733 0.017658034 0.16629733
-0.0022044529 0.014920074 0.17110784
-0.0021018467 0.011761368 0.17468916
-0.0019557246 0.0095011946 0.177083
-0.0020768507 0.0067129666 0.17842163
-0.0021722522 0.0037512113 0.17847812
-0.0018678413 0.000577636 0.18260963
-0.00056570669 0.034202214 0.14923319
-8.9609697e-05 0.031908032 0.15027808
0.00027775168 0.029511336 0.15191117
0.0010691545 0.028444454 0.15386684
0.0010843007 0.026499325 0.15677534
0.00098482124 0.024550807 0.15937449
0.00094772712 0.022471905 0.16204679
0.00071528816 0.020236658 0.16433407
0.00067097758 0.017811501 0.16687699
0.00072627381 0.01502722 0.17127703
0.00089166191 0.01221406 0.17463027
0.0010673699 0.0094640357 0.17660497
0.00098274078 0.0066280365 0.17778578
0.00092419313 0.0037283232 0.17907575
0.00094278727 0.00073333993 0.18160197
0.0018076696 0.034948841 0.14975362
0.002147832 0.032655131 0.15111166
0.0027163464 0.030429451 0.15252811
0.0037157654 0.028448824 0.15453731
0.0037927739 0.026424687 0.15684249
0.0037957148 0.024251696 0.15890998
0.0036851321 0.022123151 0.16065565
0.0036533612 0.020033058 0.16426814
0.0033931753 0.017904954 0.16724584
0.0038463525 0.015231662 0.17091316
0.0040362687 0.012256098 0.17383833
0.0039219651 0.0093295109 0.17510387
0.0039248709 0.006481607 0.17590545
0.0038010681 0.0037461207 0.17854844
0.0038262687 0.00061328313 0.17982772
0.0045089973 0.035657547 0.14978892
0.0046593635 0.033492085 0.15140355
0.0051960107 0.031247225 0.1527489
0.0060863108 0.029046971 0.15512018
0.0063028494 0.026762068 0.15806244
0.0064496822 0.024269145 0.15994728
0.0064060003 0.021842908 0.16150817
0.0062428461 0.019721868 0.16370508
0.0068091555 0.017397659 0.16653387
0.0069799889 0.015046539 0.17121114
0.0065795942 0.011707386 0.17244351
0.0066393446 0.0091276169 0.17395729
0.0065651671 0.0065276669 0.17610963
0.0068678916 0.0034748409 0.17875196
0.0069499896 0.00049257517 0.18092144
0.0069631878 0.036245301 0.15008155
0.0072179502 0.034090471 0.15197752
0.0077404929 0.031880263 0.15255627
0.0090882089 0.029300572 0.15703261
0.0089917965 0.026658226 0.1596438
0.0090890201 0.023996763 0.16050939
0.0090427073 0.021630801 0.16242196
0.0097790137 0.01926077 0.16537444
0.0096759712 0.016909152 0.16746347
0.0094947107 0.014308648 0.17038952
0.0094653228 0.01150555 0.17118451
0.0092922281 0.0092986189 0.17305452
0.0092396429 0.0064489427 0.1764807
0.010283502 0.0028209859 0.18051101
0.010250767 2.3181901e-05 0.18248038
0.0096240081 0.036483452 0.15020891
0.010082989 0.034295641 0.15138744
0.010665192 0.031638566 0.15338789
0.011766171 0.029361932 0.15808764
0.011624115 0.02669601 0.16028471
0.011823213 0.024100374 0.16077206
0.011500009 0.021208683 0.16296867
0.012393202 0.01905893 0.16559578
0.012221068 0.016572593 0.16770643
0.012155774 0.013907973 0.16903448
0.012447376 0.011204791 0.17039275
0.011781996 0.0092759617 0.17261033
0.012483539 0.0059262831 0.17694001
0.013605607 0.0022225732 0.17957371
0.012286225 0.036644153 0.14916077
0.012877462 0.03414702 0.15041327
0.013878309 0.031401515 0.15462947
0.014320552 0.029033994 0.15928881
0.014238761 0.026814783 0.16074526
0.014381898 0.024306517 0.16186933
0.014352241 0.021046445 0.16478939
0.015039189 0.018963668 0.16606928
0.014867566 0.016528649 0.16751498
0.014724042 0.013907221 0.16892116
0.015144571 0.011144393 0.17014647
0.014291354 0.0093726171 0.17260545
0.01507819 0.0057541397 0.17561135
0.015535789 0.0021794937 0.17669275
0.015017278 0.036603749 0.14830898
0.015763959 0.033954017 0.15020712
0.016323101 0.030925412 0.15534766
0.016446181 0.027043981 0.16115738
0 0 0 1 0 0 0 1 0 0 0 1 0 0 0 0 0 239 1 0 0
