ply
format ascii 1.0
comment PCL generated
element vertex 239
property float x
property float y
property float z
element camera 1
property float view_px
property float view_py
property float view_pz
property float x_axisx
property float x_axisy
property float x_axisz
property float y_axisx
property float y_axisy
property float y_axisz
property float z_axisx
property float z_axisy
property float z_axisz
property float focal
property float scalex
property float scaley
property float centerx
property float centery
property int viewportx
property int viewporty
property float k1
property float k2
end_header
-0.031457387 0.031883396 0.14702089
-0.030317461 0.029596737 0.14753959
-0.029051431 0.027767129 0.14995894
-0.027826359 0.026109966 0.15240404
-0.026700402 0.023999752 0.1554219
-0.027314525 0.021786364 0.15980084
-0.033378877 0.014562197 0.16552219
-0.033909488 0.012313285 0.16720334
-0.03340409 0.0093883825 0.16820461
-0.032769501 0.0067381812 0.16869426
-0.034093507 0.0041355202 0.17014845
-0.035897836 0.00076363666 0.17223395
-0.037120633 -0.0021216213 0.17233336
-0.029534839 0.032213744 0.14618787
-0.027770141 0.029633293 0.14747976
-0.026502101 0.027348079 0.14901027
-0.025351344 0.025750965 0.15102899
-0.024586197 0.02353945 0.15407801
-0.025076181 0.021157388 0.15719847
-0.025810458 0.017194668 0.16188125
-0.029526129 0.012905186 0.16521449
-0.030340552 0.0096754758 0.16702235
-0.028942412 0.0056317211 0.16816141
-0.028623467 0.0019385669 0.16960764
-0.031626426 0.00076122151 0.17147639
-0.034009028 -0.0031340534 0.17343102
-0.029182516 -0.0057187164 0.17582756
-0.026495142 0.032444187 0.14580958
-0.02406932 0.030124739 0.14737621
-0.023568967 0.028023208 0.14849348
-0.023207055 0.026153279 0.15057792
-0.022297231 0.023823669 0.1534209
-0.022651143 0.020993058 0.15738784
-0.023570893 0.017237756 0.16072544
-0.025272777 0.01343677 0.16346198
-0.026375318 0.010472258 0.16502665
-0.026928479 0.0053913184 0.16731714
-0.024456318 -0.0005065577 0.16984747
-0.02704688 -0.0023833027 0.17172153
-0.027085759 -0.0050852071 0.17397508
-0.025995763 -0.0063573639 0.17442329
-0.026004754 -0.00854667 0.17497343
-0.020757882 0.032869767 0.1471341
-0.020991364 0.030824075 0.14805016
-0.020993926 0.028846862 0.14861424
-0.020817893 0.026715856 0.15101409
-0.020449104 0.024147633 0.15295479
-0.020277239 0.022156378 0.15641491
-0.021643322 0.017623115 0.16019508
-0.021619994 0.014245586 0.16226049
-0.022277893 0.011317741 0.16494431
-0.022285957 0.0025866462 0.16857664
-0.021354258 -0.0016919242 0.16887975
-0.023791078 -0.0032637822 0.17103313
-0.024580976 -0.0046407972 0.17270346
-0.024123497 -0.0060600098 0.17327413
-0.023927433 -0.0081948824 0.17492679
-0.017227301 0.033389892 0.14764623
-0.018063424 0.031210165 0.14842944
-0.018138889 0.029329157 0.14901432
-0.017986188 0.026279509 0.15197074
-0.01803994 0.0240811 0.15373136
-0.018380657 0.022629648 0.15642083
-0.019154519 0.017881485 0.15994434
-0.019424208 0.014783591 0.1623649
-0.019987574 0.011210165 0.16575746
-0.020071048 0.0025200155 0.16969857
-0.020331115 -0.00029744211 0.1714755
-0.020966562 -0.0025507731 0.1722558
-0.021967599 -0.0043773153 0.17191868
-0.021498766 -0.0057717822 0.17332424
-0.020563412 -0.0083807837 0.1739904
-0.013974256 0.032687258 0.14844331
-0.014423937 0.030978573 0.14880548
-0.014901555 0.028053185 0.15135998
-0.015130612 0.025930192 0.15303083
-0.015706902 0.024320986 0.15441714
-0.016097344 0.022619687 0.1561145
-0.016051451 0.019868391 0.15977091
-0.017267995 0.015021592 0.16261417
-0.017855128 0.010566562 0.16740622
-0.019053075 0.0039074467 0.17101055
-0.020050896 -0.00058093446 0.17209311
-0.020169247 -0.0022950615 0.1723989
-0.020169357 -0.0034453371 0.17272022
-0.020035472 -0.0056454306 0.17285205
-0.018012116 -0.0069897855 0.17215085
-0.011679289 0.032287389 0.14877984
-0.012097517 0.030085854 0.15013301
-0.012483702 0.027673176 0.15209505
-0.013160166 0.025612563 0.15410143
-0.012783231 0.024377119 0.15533161
-0.012409212 0.02280522 0.15679199
-0.010775412 0.019647876 0.15875183
-0.013225698 0.016719909 0.16120046
-0.014337885 0.011469415 0.16850927
-0.015130457 0.0076277955 0.17258729
-0.019001445 0.00022720546 0.17195369
-0.019072702 -0.0015624603 0.1723804
-0.019117143 -0.003446545 0.1723493
-0.018608335 -0.0044684894 0.17214325
-0.016166519 -0.0060314508 0.17218003
-0.0090737203 0.032022636 0.14968929
-0.010522363 0.029393867 0.1513458
-0.010527141 0.027407732 0.15281312
-0.010013343 0.025968941 0.15379645
-0.009752241 0.024245663 0.15495475
-0.008770274 0.022789957 0.15781944
-0.0084167086 0.019144528 0.1598165
-0.0092907576 0.016373087 0.16298574
-0.010042775 0.013108511 0.16784808
-0.0089715682 0.011042183 0.17330474
-0.016842255 0.00094305864 0.1737546
-0.017453624 -0.0011600447 0.1731956
-0.017743658 -0.0021065767 0.1732116
-0.016749963 -0.0032495765 0.17280386
-0.0149736 -0.0052949763 0.17345218
-0.0058191414 0.031370036 0.15073372
-0.0087068509 0.028088637 0.15277642
-0.0086301165 0.027372176 0.15306708
-0.0075949579 0.025991233 0.15412688
-0.0074230423 0.024254698 0.15647079
-0.005367782 0.021366403 0.1596041
-0.0060076234 0.019280666 0.16075207
-0.0073248879 0.016269475 0.1645409
-0.0075413533 0.013463367 0.1695562
-0.0069350777 0.010639856 0.17383292
-0.0074745831 0.0069979918 0.17685394
-0.013863868 0.0011086351 0.17544919
-0.014942735 -0.00077457319 0.17411403
-0.015032156 -0.0023054259 0.17351089
-0.010227042 -0.006287701 0.17524624
-0.0036676808 0.030569343 0.15089096
-0.0057373103 0.028085737 0.15278761
-0.0044805468 0.027465576 0.15338399
-0.0048234137 0.025811629 0.1545458
-0.0047715413 0.024307985 0.15724273
-0.0034512421 0.020746101 0.16046278
-0.0038591542 0.018835844 0.16174209
-0.0045802868 0.016037939 0.16611899
-0.0052100969 0.013952548 0.17019269
-0.0037964927 0.009695136 0.17568731
-0.0036969013 0.0077328784 0.17692655
-0.0026572975 0.0044936305 0.17804699
-0.0034491706 0.0020873719 0.17839399
-0.0028935375 -2.8416736e-05 0.17999242
-0.0028296334 -0.0065899915 0.17958765
-0.00066138874 0.029811941 0.15221785
0.0015781145 0.028501295 0.15365869
-0.00054479542 0.027146185 0.15568033
0.0021276032 0.025952518 0.15701461
0.0018628947 0.023132812 0.15903738
0.00014940499 0.020744236 0.16151765
-0.0011222864 0.018790431 0.16380064
-0.0019215676 0.016381547 0.16654131
-0.0028105727 0.014484082 0.17026517
-0.00089279574 0.0093547888 0.17587569
-0.00017234447 0.007035282 0.17720088
-7.1281116e-05 0.0043057036 0.17758316
0.0001582204 0.0021990687 0.17854586
0.00086622586 -0.0010378878 0.18025495
0.00028889466 -0.0053405329 0.18013044
0.0035518899 0.032235142 0.15063918
0.004074946 0.030381009 0.15270421
0.0044919294 0.02805298 0.15552643
0.0052005961 0.025120838 0.15750323
0.0047905422 0.023513379 0.15861361
0.003709513 0.020910764 0.16034536
0.0027876787 0.019654803 0.16284001
0.00053579244 0.016425917 0.1665473
-0.00054504944 0.014409066 0.1699359
0.0030006312 0.0094848527 0.17367235
0.0034301693 0.0074047707 0.17466176
0.0026810542 0.0048801056 0.17665474
0.0031212254 0.0020145888 0.17834496
0.0030214346 -0.00092842325 0.17959273
0.0032493926 -0.0045056078 0.17986928
0.0064254976 0.033760022 0.15021522
0.0063049477 0.031878494 0.15201473
0.0066241631 0.029858645 0.15403131
0.0070001706 0.024931544 0.15748838
0.0064026816 0.02356359 0.15878771
0.0060494244 0.021333668 0.1604431
0.0056180134 0.01938295 0.1630865
0.0038756994 0.017821681 0.1657043
0.0060534468 0.011812313 0.17220534
0.0055929101 0.0094259474 0.17321788
0.0051030377 0.0075315582 0.17444044
0.0054017613 0.00489579 0.17594405
0.0055010249 0.0025309094 0.17758667
0.0056366203 -0.0016308769 0.17947555
0.0064417571 -0.0043489463 0.18046112
0.0089884521 0.034310371 0.15043747
0.0089049693 0.032689158 0.15204701
0.0088653173 0.030954901 0.1531688
0.008474729 0.025577923 0.15838508
0.007769072 0.023419451 0.15970652
0.0070406683 0.020819381 0.16098677
0.0071629309 0.019257583 0.16304134
0.0085121663 0.01331269 0.17114477
0.0077291341 0.011014946 0.17211026
0.0079382891 0.0088655641 0.17295448
0.0080726435 0.0076876748 0.17441301
0.0077311187 0.0054994822 0.17601658
0.0073572979 0.0027373733 0.17822908
0.009894711 -0.0019091988 0.17894632
0.0094079208 -0.0041714283 0.18026805
0.011629778 0.034130413 0.15108556
0.011596973 0.032650355 0.15211846
0.010985761 0.029994775 0.15479726
0.0095856003 0.026038162 0.15872775
0.0087553905 0.023411766 0.15960948
0.0088913878 0.020628762 0.16140299
0.0086330762 0.018433077 0.16432889
0.010816951 0.012956995 0.17012899
0.01015714 0.010869966 0.1715288
0.01070515 0.0091469968 0.17219226
0.011096111 0.0070621781 0.17399973
0.0092774676 0.0058697173 0.17566223
0.0097541763 0.0028186785 0.17830808
0.013502479 -0.0023753999 0.17599319
0.015024433 0.034269668 0.15143669
0.015808534 0.032528132 0.15283202
0.012720983 0.027856998 0.15875079
0.014418224 0.025634075 0.16081697
0.011082802 0.023481598 0.16011162
0.011728465 0.01976194 0.16320817
0.012089018 0.014490774 0.1681831
0.013370465 0.01254985 0.16829281
0.012983166 0.010483424 0.17063773
0.012195811 0.0091532245 0.17187393
0.013429578 0.0070631355 0.17343515
0.010446298 0.0061182841 0.17525482
0.011663821 0.0029875697 0.17758423
0.014129384 -0.0015950047 0.1742035
0.019450603 0.034195554 0.15229236
0.020153649 0.032583792 0.15711692
0.01817015 0.028061636 0.15893285
0.015943952 0.023308344 0.16246521
0 0 0 1 0 0 0 1 0 0 0 1 0 0 0 0 0 239 1 0 0
