ply
format ascii 1.0
comment PCL generated
element vertex 239
property float x
property float y
property float z
element camera 1
property float view_px
property float view_py
property float view_pz
property float x_axisx
property float x_axisy
property float x_axisz
property float y_axisx
property float y_axisy
property float y_axisz
property float z_axisx
property float z_axisy
property float z_axisz
property float focal
property float scalex
property float scaley
property float centerx
property float centery
property int viewportx
property int viewporty
property float k1
property float k2
end_header
-0.031347126 0.031800054 0.14651966
-0.030200051 0.029553661 0.14715888
-0.029000947 0.027698858 0.14966291
-0.027843919 0.025921814 0.15207829
-0.02661253 0.023740811 0.15493198
-0.027162671 0.021314897 0.15923698
-0.032864887 0.013868058 0.16437021
-0.03345336 0.011409349 0.16560405
-0.033100262 0.0082476903 0.16589296
-0.032632768 0.0054787588 0.1658062
-0.033866778 0.0032186757 0.16747434
-0.035561804 0.00010933196 0.16976109
-0.036822885 -0.0028986281 0.16983943
-0.029402135 0.032153893 0.14576244
-0.027675003 0.02966032 0.14728729
-0.026423164 0.027410023 0.14891198
-0.025313817 0.025766796 0.15089858
-0.024449056 0.023330821 0.15353434
-0.024887437 0.02094825 0.15657029
-0.025490424 0.016804071 0.16106723
-0.02907072 0.012134856 0.16359158
-0.030003414 0.0085652936 0.16454324
-0.029378403 0.002962403 0.16393347
-0.028800428 2.3754508e-05 0.16569111
-0.03098963 0.00071974931 0.16868973
-0.033651166 -0.0038303325 0.1708838
-0.028706126 -0.0048437468 0.17331943
-0.026377505 0.032429181 0.14556943
-0.024043536 0.030215079 0.14749625
-0.02355106 0.028131893 0.14862622
-0.023232991 0.026261367 0.15069117
-0.022199985 0.023821319 0.15312012
-0.02246882 0.020815721 0.15678161
-0.02328868 0.01692489 0.15981975
-0.024855964 0.013020459 0.16216023
-0.0260513 0.0097075095 0.16271676
-0.027971195 0.0012784912 0.16235019
-0.024312956 -0.0032437209 0.16623276
-0.026506642 -0.0031955927 0.16856264
-0.026639162 -0.0050776666 0.17138389
-0.025619173 -0.0061526131 0.17220296
-0.025753079 -0.008063985 0.17338555
-0.020835163 0.033020739 0.14772175
-0.021044856 0.030947974 0.14846636
-0.021023419 0.028957553 0.14890929
-0.020919027 0.026904574 0.15128009
-0.020426901 0.024309855 0.15290967
-0.020201206 0.022033215 0.15602657
-0.021395918 0.017320555 0.15919238
-0.021260338 0.013922147 0.16090268
-0.021568106 0.010470515 0.16237471
-0.022326933 -0.0022396562 0.16308425
-0.021406906 -0.0055418531 0.16599669
-0.023434684 -0.0045713773 0.16828643
-0.024179596 -0.0052102492 0.17002399
-0.023802549 -0.0063392655 0.17098658
-0.023691051 -0.0079161106 0.17314637
-0.017360851 0.033599366 0.1485952
-0.018172976 0.031359233 0.14916751
-0.018228576 0.029465944 0.14959361
-0.018092452 0.026615433 0.1522768
-0.018062275 0.024241535 0.15375201
-0.018368052 0.022562286 0.15619184
-0.01893398 0.017524082 0.15862243
-0.019049458 0.014345889 0.16079704
-0.019057257 0.010072373 0.16237861
-0.019180629 -0.002806745 0.16325054
-0.019668717 -0.0030470057 0.16645353
-0.020514699 -0.0036784916 0.16871387
-0.021566108 -0.0054478222 0.16915922
-0.021189051 -0.0061500994 0.17101131
-0.02031574 -0.0085276542 0.17238243
-0.014054617 0.032835606 0.14895456
-0.014530411 0.031115077 0.1492545
-0.015029808 0.028232489 0.1514966
-0.015225896 0.026116489 0.1531273
-0.015741549 0.024396721 0.15436065
-0.016090827 0.022571776 0.15579033
-0.01596885 0.019694291 0.15890612
-0.016844556 0.014453667 0.16071993
-0.016864523 0.0091026956 0.16337988
-0.017611753 -0.0014007583 0.16306862
-0.019339755 -0.002818092 0.16703899
-0.019677799 -0.0035531023 0.16856578
-0.019758908 -0.0043380624 0.16954388
-0.019692939 -0.0062488317 0.17064197
-0.017594708 -0.0078608012 0.17036006
-0.011724686 0.032315467 0.14878659
-0.012139624 0.029977337 0.14986652
-0.01256304 0.027494013 0.15164833
-0.01320973 0.025372406 0.15361622
-0.012769455 0.024047745 0.15466832
-0.012386991 0.022571092 0.15614159
-0.010554044 0.019153511 0.15722552
-0.012935428 0.016105333 0.15946089
-0.01355399 0.010283714 0.16497251
-0.013957882 0.0050733224 0.16684769
-0.018196199 -0.0025156762 0.16644849
-0.018464798 -0.0032723064 0.16807026
-0.018688582 -0.004493962 0.1692825
-0.018192885 -0.0055026049 0.16952476
-0.015755508 -0.0070369942 0.17009667
-0.0090629458 0.031890474 0.14945017
-0.010529343 0.029091949 0.15075547
-0.010556171 0.027045429 0.15208204
-0.010020892 0.025542209 0.1528696
-0.0097044427 0.023795018 0.15390094
-0.0086974334 0.022339066 0.15641293
-0.0079801986 0.018400244 0.15765619
-0.008642205 0.015376261 0.16064167
-0.0093683572 0.012522013 0.16503622
-0.008183198 0.0099344673 0.16964422
-0.015746951 -0.00081610563 0.16767409
-0.016786303 -0.0024498908 0.16860572
-0.01718148 -0.0030722739 0.16927283
-0.016319498 -0.0042379345 0.1695603
-0.014559731 -0.0059130001 0.17098929
-0.0058179358 0.031185348 0.15046385
-0.008686007 0.027625069 0.15187275
-0.008633987 0.026952943 0.15215422
-0.0075725392 0.025662642 0.15319575
-0.00737656 0.023870036 0.15536524
-0.0051256525 0.020937921 0.15785514
-0.0056071985 0.018606359 0.15874866
-0.0066584325 0.015402828 0.16212866
-0.0068772403 0.012655516 0.16672066
-0.0061281235 0.009697848 0.17012614
-0.0064858892 0.005772518 0.1715934
-0.012711147 6.8706082e-05 0.16943139
-0.014052903 -0.0020363138 0.16934326
-0.014375497 -0.0034975335 0.16971095
-0.0098187262 -0.0066401414 0.1730019
-0.003677109 0.030379063 0.15056613
-0.0057422589 0.027824719 0.15199122
-0.0045049712 0.027383678 0.15269423
-0.0047936332 0.025684673 0.15373312
-0.0047244574 0.024028258 0.1561543
-0.0032091632 0.020365577 0.15897773
-0.0035193737 0.018259063 0.16000533
-0.0039534704 0.01529039 0.16373564
-0.004623259 0.013101093 0.16747363
-0.0033500178 0.0091117313 0.17250687
-0.0032168059 0.0070187477 0.17319389
-0.0018550577 0.0039710803 0.17369288
-0.0023936995 0.0015582177 0.17346391
-0.0026128171 -0.00055145001 0.17550956
-0.0026697977 -0.0067446409 0.17742361
-0.00073236536 0.029371178 0.15131392
0.001501735 0.028033661 0.15248379
-0.0005944221 0.026863294 0.15479305
0.0021357902 0.025211679 0.15566796
0.0019683444 0.022323571 0.15755343
0.00037653573 0.020419689 0.16041979
-0.0007957234 0.018305387 0.16231632
-0.0014688617 0.015803123 0.16459401
-0.0023770861 0.013768869 0.16790995
-0.0005113181 0.0091350209 0.17381562
5.1809286e-05 0.0066897674 0.17491704
0.00053192367 0.004047256 0.17479649
0.00050204445 0.0018733796 0.17565003
0.00070989085 -0.0012922188 0.17793249
0.0003699073 -0.0055715307 0.17792831
0.0032856269 0.032004591 0.14932798
0.0039471611 0.029985284 0.15130283
0.0044412981 0.027643612 0.15431254
0.0051290118 0.02456321 0.15640378
0.0048326119 0.022780707 0.15724614
0.0038880631 0.020184945 0.158878
0.0030405305 0.019004812 0.16143663
0.00089366833 0.016050199 0.16498482
-0.00019534206 0.013952532 0.16801442
0.0039171381 0.0095174108 0.17324741
0.0042116875 0.0073382026 0.17392142
0.0032322833 0.0047427379 0.17536505
0.0032728477 0.0018132172 0.17687504
0.0029650999 -0.001120389 0.17798407
0.0032759437 -0.0046646283 0.17844811
0.0060480791 0.033772599 0.14892116
0.0060675521 0.031679701 0.15054692
0.0065323822 0.029473385 0.15252849
0.0068722363 0.024547072 0.15644777
0.0063809366 0.022959933 0.15751946
0.0061830631 0.020550091 0.15890642
0.0058210436 0.018711407 0.16161449
0.0041528875 0.017225347 0.16427897
0.0068763783 0.011703287 0.17223912
0.0064361147 0.009352495 0.17322847
0.0058659888 0.0073725353 0.17411081
0.0059160576 0.0048226928 0.17573912
0.005719095 0.0025196017 0.17739435
0.0054985811 -0.0016551666 0.17882311
0.0060556009 -0.0042912397 0.18014312
0.008529637 0.034510344 0.14925995
0.0085593155 0.032696027 0.15060557
0.0086620515 0.030753199 0.1515568
0.0083447015 0.025130248 0.15739776
0.0077686971 0.022747112 0.15835258
0.0071612452 0.020033339 0.15940379
0.0073495284 0.018647855 0.1616063
0.0092960028 0.013180029 0.17123431
0.0085463393 0.01090283 0.17226028
0.0087751793 0.0088159228 0.17324154
0.0088257119 0.0075444812 0.17467073
0.0082136476 0.0053932117 0.17623784
0.0074157086 0.0026325926 0.17834109
0.0097639849 -0.0012767505 0.18057515
0.0089101708 -0.0036532246 0.18149227
0.011127648 0.03442055 0.14994067
0.011189627 0.032831367 0.15078905
0.010752458 0.029875446 0.15342422
0.0094649307 0.025543762 0.15775174
0.0087261992 0.022762366 0.15818019
0.0090082977 0.019728538 0.15963311
0.0088586919 0.017906152 0.16289198
0.011628632 0.012481197 0.17010145
0.01103397 0.01066578 0.17178799
0.011794426 0.008971964 0.17298418
0.011881156 0.007511735 0.17559454
0.0097580496 0.0058982098 0.17642021
0.0095376512 0.0030132653 0.17931946
0.014397188 -0.001023342 0.1798583
0.014363794 0.034894481 0.15063933
0.015207076 0.033188678 0.15203029
0.012597678 0.027320405 0.15794468
0.014405601 0.024626167 0.1595175
0.011082969 0.022679351 0.1584093
0.011959069 0.018793771 0.16132432
0.012733084 0.013734413 0.16769134
0.014222461 0.011691176 0.16824073
0.013925084 0.010236713 0.17120993
0.013239219 0.0091439597 0.17290519
0.014254968 0.0079370607 0.17570949
0.010928181 0.0064366399 0.17659473
0.011451196 0.0035591971 0.17958361
0.015660498 -0.00019806114 0.1784547
0.018650971 0.035286814 0.15191755
0.019595273 0.032855634 0.15673143
0.018065376 0.027377114 0.15791173
0.016015232 0.021949291 0.1606724
0 0 0 1 0 0 0 1 0 0 0 1 0 0 0 0 0 239 1 0 0
