ply
format ascii 1.0
comment PCL generated
element vertex 239
property float x
property float y
property float z
element camera 1
property float view_px
property float view_py
property float view_pz
property float x_axisx
property float x_axisy
property float x_axisz
property float y_axisx
property float y_axisy
property float y_axisz
property float z_axisx
property float z_axisy
property float z_axisz
property float focal
property float scalex
property float scaley
property float centerx
property float centery
property int viewportx
property int viewporty
property float k1
property float k2
end_header
-0.031583663 0.031958129 0.14716209
-0.030448543 0.029663155 0.14769046
-0.02918409 0.027743457 0.15008159
-0.02797986 0.025968635 0.1524772
-0.026794646 0.023707433 0.15556085
-0.027321761 0.021502184 0.16014127
-0.033163521 0.014101999 0.16670024
-0.033692438 0.011846987 0.16842841
-0.033222798 0.0087847039 0.16944255
-0.032669898 0.006067093 0.16999094
-0.03403781 0.003656242 0.17119764
-0.035772603 0.00038331954 0.17298491
-0.03706656 -0.0025521193 0.17281383
-0.02965752 0.032287162 0.14634494
-0.02790286 0.029704928 0.14768432
-0.026644122 0.02739721 0.14922813
-0.025515057 0.025734939 0.1512177
-0.024697881 0.023215014 0.15411456
-0.025122421 0.020903651 0.15744956
-0.025805742 0.017017301 0.1624085
-0.0293005 0.012431369 0.16633558
-0.030049814 0.0090800067 0.1682492
-0.028953601 0.0043446687 0.17042731
-0.028520562 0.0013469569 0.17158113
-0.031317018 0.00059126742 0.17316484
-0.033938851 -0.003690361 0.1737843
-0.029232217 -0.0067037782 0.17570084
-0.026607545 0.032497257 0.14599177
-0.024202574 0.030164409 0.14765188
-0.023757126 0.028078292 0.14880753
-0.023430584 0.026212893 0.15090679
-0.022427507 0.023565134 0.15349869
-0.022709886 0.020734917 0.15761402
-0.023572627 0.017108312 0.16121635
-0.025225442 0.013283695 0.1644026
-0.026174961 0.010097562 0.16611516
-0.027006889 0.0040506399 0.16982277
-0.024997942 -0.0019119997 0.17084444
-0.027023083 -0.0029318132 0.17227709
-0.027188526 -0.0059126299 0.17387348
-0.026074937 -0.0071745347 0.1742117
-0.0259388 -0.0093992399 0.17462315
-0.020756457 0.032802183 0.14749655
-0.021058625 0.030769167 0.14835516
-0.02114426 0.028807752 0.14891414
-0.021040933 0.02670945 0.15130873
-0.020612281 0.023963738 0.15310809
-0.020413682 0.02195077 0.15654922
-0.021695495 0.017541129 0.16063109
-0.021610834 0.014259566 0.16316499
-0.022039844 0.011067788 0.16602856
-0.023118526 0.0012749395 0.16944659
-0.02214038 -0.0028785036 0.16931276
-0.024033537 -0.0040943907 0.17133197
-0.024717603 -0.0053224587 0.17262472
-0.024209464 -0.0067104902 0.17314303
-0.023893556 -0.0088751409 0.17467082
-0.017258916 0.03340229 0.14845257
-0.018108901 0.031139066 0.14897925
-0.018249078 0.02926629 0.1494202
-0.018176045 0.026143922 0.15212722
-0.018241163 0.023976972 0.153873
-0.01857486 0.022617755 0.1566091
-0.019271232 0.01784236 0.16025704
-0.019427292 0.01487065 0.16323149
-0.019700799 0.010621663 0.16672248
-0.021079112 0.0014117437 0.16939947
-0.02103363 -0.00092824234 0.17151046
-0.021414286 -0.0030881213 0.17255674
-0.022143776 -0.0048942138 0.17189848
-0.021658899 -0.00617981 0.17340486
-0.020480918 -0.0086501911 0.17391159
-0.014064643 0.032827187 0.14952517
-0.014528823 0.031068206 0.14971842
-0.01497979 0.027816214 0.15143874
-0.015295895 0.025761828 0.15314139
-0.015891843 0.024236329 0.15460832
-0.016325939 0.022655835 0.15636078
-0.016328895 0.0199045 0.15984286
-0.017255029 0.015038318 0.16341221
-0.017648589 0.0095255198 0.16820142
-0.01976818 0.0028213453 0.17018737
-0.020665949 -0.0010953178 0.17211418
-0.020637464 -0.0026842915 0.17265892
-0.020574132 -0.0037368599 0.17283496
-0.020176066 -0.0058788168 0.1730642
-0.017887948 -0.0067874752 0.17228869
-0.011795208 0.032316934 0.14958844
-0.012181651 0.029958894 0.15064348
-0.012515262 0.027362067 0.15216182
-0.013290161 0.02536625 0.15415332
-0.012969846 0.024281655 0.15551937
-0.012668312 0.022839094 0.15707599
-0.010834352 0.019532459 0.15854968
-0.013402193 0.016549956 0.16124828
-0.014173669 0.01040571 0.16900532
-0.014926926 0.0064140409 0.17335224
-0.019684779 -0.00020127188 0.1718193
-0.019583287 -0.0018106989 0.17252105
-0.019487694 -0.0035378889 0.17266721
-0.018837284 -0.0044260519 0.1724737
-0.016233299 -0.00562421 0.17262155
-0.0091463588 0.031815764 0.15015046
-0.010571432 0.029099664 0.1515822
-0.010574637 0.027124798 0.1529357
-0.010074616 0.025776621 0.15398562
-0.0098485444 0.024179759 0.1552712
-0.0089314617 0.02285319 0.15790133
-0.0083739273 0.018975828 0.15958992
-0.0093543511 0.016183691 0.16305345
-0.010015478 0.012710308 0.16765288
-0.0088004535 0.01034436 0.17224088
-0.017156417 0.0012517424 0.17385167
-0.018104713 -0.00106273 0.17351064
-0.018385489 -0.0019894647 0.17368858
-0.017322062 -0.0029130846 0.17348684
-0.015296713 -0.0048078587 0.17406046
-0.0059514008 0.031008946 0.15097935
-0.0087576685 0.027784714 0.15293142
-0.008677152 0.027130723 0.15325236
-0.0076355371 0.025885247 0.15445054
-0.0075525371 0.024322009 0.15682369
-0.0054923277 0.021509446 0.15971245
-0.0060946587 0.019259425 0.16084756
-0.0073788525 0.016197812 0.1645284
-0.0075244969 0.0130799 0.16921154
-0.0068567134 0.010106884 0.17238744
-0.0072264019 0.0061070211 0.17416282
-0.013783943 0.0017838996 0.17574333
-0.015027891 -0.00016798134 0.17464256
-0.015313609 -0.0017024428 0.17429861
-0.01050274 -0.0056933207 0.17560554
-0.0038398921 0.030191291 0.15118898
-0.005762158 0.027888525 0.15315081
-0.0044488795 0.027349571 0.15383291
-0.0048276614 0.025775721 0.15505356
-0.0049324483 0.024459958 0.15772457
-0.0036815451 0.021011261 0.16100155
-0.0040754112 0.019006038 0.16224931
-0.0046064076 0.016076086 0.16603698
-0.005296506 0.013694406 0.16980825
-0.0038701885 0.0093066944 0.17401189
-0.0036246602 0.0072503206 0.17473343
-0.0025257333 0.0042057345 0.17520876
-0.0033162504 0.0018390386 0.17544909
-0.0029489263 -0.00023883191 0.17739102
-0.0026808791 -0.0066987672 0.17778113
-0.00088041171 0.029774798 0.15270379
0.0013444518 0.028745884 0.15438882
-0.00065177557 0.027278015 0.15637121
0.0019559297 0.026220646 0.15782483
0.0016747757 0.023350617 0.159823
-8.2810686e-05 0.021259734 0.162541
-0.0013654836 0.019263543 0.16471952
-0.0020549532 0.01657884 0.1668953
-0.0030220421 0.014402571 0.17012429
-0.00094950799 0.0092113577 0.17449699
-0.00024401239 0.0067827357 0.17518507
2.950712e-05 0.0040987874 0.17521004
0.00014317995 0.0019461453 0.17619948
0.00062033325 -0.0012741419 0.17822553
0.00018457466 -0.0055588661 0.17806923
0.0030023372 0.032191262 0.15083703
0.0037147384 0.03052094 0.15302454
0.004308138 0.028454054 0.15623865
0.004948155 0.025491955 0.15847746
0.0045771929 0.023831803 0.15955462
0.0035050907 0.021338444 0.16126876
0.0026527962 0.020029346 0.16374202
0.00035710633 0.016829329 0.16726132
-0.00078241568 0.014560603 0.17017038
0.0029948272 0.0095002595 0.17255482
0.0033759885 0.0072755381 0.17320856
0.0027106248 0.0046882494 0.17500775
0.0030055679 0.0017588268 0.17658964
0.002762913 -0.0011393704 0.17784506
0.0030401365 -0.0046887393 0.17817286
0.0057456209 0.033675659 0.15009201
0.0057960511 0.031861108 0.15198493
0.0063288952 0.03003874 0.15428375
0.0066879457 0.025285913 0.15834953
0.0060983412 0.023883039 0.15972018
0.0058467998 0.021665292 0.16124094
0.0054683611 0.019574516 0.16369426
0.0037596975 0.018099893 0.16648221
0.0059072766 0.011831195 0.17118479
0.0054843035 0.0093433335 0.17209399
0.005010095 0.0073075853 0.17315575
0.0053064441 0.0048173042 0.17493303
0.0053889784 0.0025833671 0.17673691
0.0053231497 -0.0017441674 0.17822228
0.006046026 -0.0044270791 0.17933907
0.0082522146 0.034307413 0.1502281
0.0082906717 0.032683358 0.15177692
0.0084015625 0.030960152 0.15299532
0.0082552768 0.025805004 0.1590099
0.0075185834 0.023772456 0.16048828
0.0068552932 0.021199076 0.16177027
0.0069994633 0.019417008 0.16359369
0.0083010672 0.013384799 0.17009617
0.0075739375 0.011035004 0.17103529
0.0078334603 0.0088485284 0.17188473
0.0079982746 0.0075501855 0.17338359
0.0076057273 0.0054660589 0.17514308
0.0071103056 0.0029128967 0.17758735
0.0095922938 -0.0015837923 0.17894959
0.0089423768 -0.0039424859 0.18003471
0.010895706 0.034138102 0.15073392
0.010938764 0.032651715 0.15173006
0.0105908 0.030016033 0.15461875
0.0094320746 0.026137987 0.15916958
0.0084799463 0.023678938 0.16026874
0.0087307077 0.021169744 0.16235368
0.0084621646 0.018598344 0.16490217
0.010646508 0.012893002 0.16926216
0.01001887 0.010861897 0.17047811
0.010660924 0.0090606725 0.17133971
0.011096434 0.0071878131 0.17352206
0.0091441916 0.005883221 0.17498384
0.009399944 0.0031549893 0.1780072
0.013765723 -0.001807687 0.17688684
0.014278749 0.034272507 0.15094781
0.015159401 0.032441065 0.15220739
0.012697226 0.027557354 0.15877299
0.014346788 0.024930842 0.16046564
0.010802846 0.023608413 0.16064067
0.011563011 0.020391967 0.16420309
0.012028337 0.014558186 0.16796941
0.013416227 0.012561989 0.16794385
0.012883606 0.010462884 0.17008853
0.012116173 0.0091197081 0.17122227
0.013442234 0.0073530595 0.17316021
0.010334884 0.0062334216 0.17476068
0.01136128 0.003434544 0.17765862
0.014678166 -0.0010439833 0.17524654
0.018820152 0.033946801 0.15135743
0.020144943 0.031473763 0.15583488
0.01805843 0.026718 0.1578486
0.015745342 0.022648279 0.16240183
0 0 0 1 0 0 0 1 0 0 0 1 0 0 0 0 0 239 1 0 0
