ply
format ascii 1.0
comment PCL generated
element vertex 239
property float x
property float y
property float z
element camera 1
property float view_px
property float view_py
property float view_pz
property float x_axisx
property float x_axisy
property float x_axisz
property float y_axisx
property float y_axisy
property float y_axisz
property float z_axisx
property float z_axisy
property float z_axisz
property float focal
property float scalex
property float scaley
property float centerx
property float centery
property int viewportx
property int viewporty
property float k1
property float k2
end_header
-0.025086265 0.034930348 0.14645648
-0.024839563 0.032608077 0.1466341
-0.024974301 0.030598983 0.14830397
-0.025045089 0.028359 0.14990133
-0.025014233 0.026126094 0.15180556
-0.02573509 0.023608685 0.155396
-0.027343862 0.021413706 0.1605534
-0.027797027 0.019007301 0.16288488
-0.027748043 0.016378835 0.16383536
-0.02752801 0.013731229 0.16513315
-0.027622856 0.011109857 0.16629441
-0.027835647 0.0085028866 0.1683751
-0.027942359 0.0058914861 0.16856305
-0.022739526 0.034927912 0.14592163
-0.022419795 0.032692578 0.14697148
-0.02250606 0.030661365 0.14857155
-0.022518089 0.028470509 0.15008222
-0.022484768 0.026164625 0.15187101
-0.022912852 0.023650466 0.15440993
-0.023595536 0.020893319 0.15815112
-0.024118541 0.018688779 0.16028413
-0.024335509 0.016239131 0.16242583
-0.024423607 0.013640082 0.16374156
-0.024436185 0.011100847 0.16512388
-0.024962129 0.0084637459 0.16762684
-0.02531513 0.0057826485 0.17012717
-0.025200272 0.0029181095 0.17224926
-0.019994294 0.035075337 0.1461928
-0.0198656 0.033037141 0.14821373
-0.019901237 0.030763891 0.14919518
-0.020021986 0.028561002 0.15068023
-0.020020934 0.02629259 0.15194702
-0.020337848 0.023860704 0.1551038
-0.021104828 0.021193774 0.1587202
-0.021324309 0.018740261 0.16033809
-0.021425871 0.016423853 0.16204412
-0.021732284 0.013887063 0.16417293
-0.021793608 0.011220274 0.16758113
-0.021976076 0.0081533007 0.16928861
-0.022521093 0.0050342581 0.1712202
-0.022114342 0.0021877405 0.17187081
-0.022095731 -0.00085119635 0.17300104
-0.017139731 0.035219759 0.1475302
-0.017343288 0.033079736 0.14875647
-0.017358556 0.030798852 0.14915654
-0.017480358 0.028865438 0.15135756
-0.017539686 0.026560949 0.15221627
-0.017810253 0.024191512 0.1551374
-0.018549448 0.021781994 0.1595149
-0.018392317 0.01901594 0.1602691
-0.018646862 0.016616222 0.1626136
-0.0186307 0.01394874 0.16562322
-0.019209784 0.011016732 0.16934158
-0.01926462 0.0082486747 0.17025001
-0.019662302 0.0052230251 0.17223428
-0.019444872 0.0023924594 0.17332231
-0.019589854 -0.00039281527 0.17478509
-0.014467114 0.035472538 0.1478842
-0.014687725 0.033184122 0.14882696
-0.014559534 0.030862812 0.14907517
-0.015073856 0.028972534 0.15159778
-0.015067167 0.026744083 0.15333217
-0.015368631 0.02449635 0.15569685
-0.015807528 0.022171238 0.16043809
-0.015741095 0.01937617 0.16083236
-0.015924316 0.016846787 0.16309795
-0.015926246 0.014047625 0.16638985
-0.015780618 0.011283481 0.16894491
-0.016321277 0.0084138159 0.17162178
-0.01689703 0.0055828034 0.17444608
-0.016889527 0.0025575547 0.17509383
-0.01633079 -0.00078528532 0.17413378
-0.012146113 0.035674591 0.14810097
-0.0121852 0.033381868 0.14917412
-0.012173444 0.031135367 0.15038601
-0.012368724 0.028914971 0.15235211
-0.012507714 0.026838934 0.1536859
-0.012625839 0.024437638 0.15583727
-0.012870289 0.022116337 0.15950499
-0.012927068 0.019489346 0.16093671
-0.013026481 0.016755996 0.16290608
-0.013202582 0.014031545 0.1671233
-0.013545266 0.010948204 0.17104368
-0.014027672 0.008487328 0.17340481
-0.013983218 0.0056442516 0.17554876
-0.014058681 0.0026964284 0.17506836
-0.012466283 -0.0010874596 0.17278785
-0.0098094614 0.035636567 0.14786176
-0.0097948536 0.033654455 0.14929134
-0.0097872661 0.031467244 0.15145494
-0.0099640368 0.028721474 0.15275402
-0.009718447 0.026551759 0.15438049
-0.0099003278 0.024370754 0.15631528
-0.0098553775 0.021942703 0.15917613
-0.0099172471 0.019268233 0.15960093
-0.010133729 0.016716935 0.16274241
-0.010480621 0.014351283 0.16727918
-0.010726741 0.011048399 0.17188007
-0.010856043 0.0086447876 0.17429005
-0.010947332 0.0055594845 0.17439407
-0.010651436 0.0026000775 0.1739701
-0.010221478 -0.00072669343 0.17375869
-0.0070923162 0.035676535 0.14800709
-0.0073246844 0.033632256 0.14969319
-0.0073694466 0.031471185 0.15196696
-0.0071336119 0.028684078 0.15255298
-0.0069997846 0.026423944 0.15404901
-0.0071541378 0.024599321 0.15719688
-0.0073015806 0.022095853 0.16014892
-0.0071256664 0.019236812 0.16041465
-0.0074017346 0.01675781 0.16349556
-0.0078752823 0.014239033 0.16789867
-0.0073510068 0.011010415 0.17173424
-0.007986052 0.0085033784 0.17439173
-0.0081707034 0.0057967696 0.17497414
-0.0081203198 0.0027951391 0.1755586
-0.0087618269 9.3494498e-05 0.17738658
-0.0045671319 0.035412308 0.14794008
-0.0047889459 0.033241265 0.14991122
-0.0047598868 0.031393807 0.15164912
-0.0044457354 0.028805498 0.15335356
-0.0045053633 0.026787072 0.15585491
-0.004611467 0.024985781 0.16029479
-0.0047247843 0.022364777 0.16126011
-0.0047626849 0.019794645 0.16239251
-0.0050136554 0.017131774 0.16518083
-0.0052436115 0.014719298 0.16875629
-0.0048832837 0.011216464 0.17274325
-0.0050767791 0.0088234041 0.1754766
-0.0052426993 0.00595346 0.17587972
-0.0053714928 0.0030902752 0.17616631
-0.0053012869 3.948106e-05 0.17970341
-0.0020877994 0.0353393 0.14833434
-0.0022505084 0.032920312 0.14957781
-0.0019274108 0.0304932 0.15076883
-0.0018035639 0.028274506 0.15260677
-0.0017705214 0.026515637 0.15565442
-0.0019294473 0.024992768 0.16015947
-0.0020034644 0.022494601 0.16142443
-0.002247493 0.020103266 0.16376474
-0.0020731997 0.017716227 0.16631779
-0.0022431798 0.014868353 0.17054854
-0.002132715 0.011609398 0.17363952
-0.0020159464 0.0093491822 0.17611849
-0.0021599839 0.0065596737 0.17727914
-0.0021686223 0.0036024111 0.17721894
-0.0019563001 0.00030862447 0.18138999
-0.00053534843 0.034511846 0.14995196
-0.00012591285 0.032240648 0.15103033
0.00018039768 0.029711254 0.15241949
0.0010299376 0.028461227 0.15415131
0.00099966128 0.026637217 0.15710083
0.00086776953 0.024690418 0.15967011
0.00081972679 0.02260619 0.16235052
0.00061558909 0.020328844 0.16447081
0.00057750859 0.017823292 0.16678984
0.00068692974 0.014919802 0.17062803
0.00080716005 0.012074165 0.17364576
0.00099147344 0.0094016558 0.17575423
0.00093498017 0.0065567261 0.17688827
0.00087179517 0.0036252015 0.17799333
0.00088957394 0.00042862367 0.18034196
0.0018734614 0.035207719 0.15052801
0.0021572765 0.032867465 0.1518034
0.0026688306 0.030573547 0.15317751
0.0036809579 0.028556049 0.15496384
0.0037129542 0.026640039 0.15727627
0.0036952496 0.024521496 0.15937984
0.0035335631 0.022323415 0.16096941
0.0034990914 0.019954132 0.164391
0.003311733 0.017804403 0.16703628
0.0038518254 0.014994483 0.17015667
0.0039824294 0.01213122 0.17298922
0.0038553185 0.0093555404 0.17442796
0.0039242203 0.0065603331 0.17522913
0.0037567245 0.0037201832 0.17757966
0.0038026799 0.00044013784 0.17853174
0.0046308544 0.035802733 0.15046409
0.0047231829 0.033596784 0.15202485
0.0051721898 0.03132315 0.15335459
0.0058889878 0.02898225 0.15528829
0.006155957 0.026879568 0.1583004
0.0063038245 0.024550822 0.16034944
0.0062599694 0.022004617 0.16176701
0.006127282 0.019697677 0.16375479
0.0068727853 0.017291175 0.16621751
0.0069162296 0.014801867 0.17048167
0.0065436321 0.011635104 0.17180935
0.0066282931 0.0091919284 0.17354104
0.0065320148 0.0068006488 0.17579758
0.0068059759 0.0035165511 0.17775968
0.0067926394 0.00038540311 0.17968024
0.0071276105 0.036340456 0.150702
0.0073289429 0.034107078 0.15250847
0.0077875722 0.031871628 0.15306641
0.0088321511 0.029326499 0.1568159
0.0089026168 0.026807085 0.15953369
0.0089638242 0.02426086 0.1606809
0.0089669926 0.02203072 0.16273662
0.0098286429 0.0193574 0.16527747
0.0097545767 0.017006304 0.16722582
0.0095629655 0.014325247 0.17008899
0.0095965508 0.01157 0.17098044
0.0092727235 0.009481512 0.1728231
0.0091315759 0.0068255127 0.17630236
0.0099513615 0.0026433168 0.17936523
0.0098763984 -0.00025191988 0.18119159
0.0097932527 0.036644604 0.1509431
0.010234445 0.034439858 0.1520036
0.010782092 0.031832702 0.15394571
0.011515132 0.029503709 0.15746255
0.01162551 0.02670911 0.15949367
0.011718951 0.024223581 0.16045344
0.011456285 0.021650538 0.16303873
0.012376771 0.019196438 0.16546151
0.012278568 0.016649265 0.16752331
0.012287287 0.013993926 0.16893891
0.012641284 0.011461124 0.1704805
0.011753997 0.0095941303 0.17246816
0.012225416 0.006232826 0.17658627
0.013034756 0.0018851762 0.17808445
0.012484478 0.036972459 0.15003905
0.013086978 0.034518812 0.15118624
0.013571866 0.031935874 0.15474485
0.014283556 0.029087249 0.15833814
0.014290072 0.026686266 0.15950909
0.01437619 0.024148202 0.16081546
0.014449849 0.021084191 0.16418053
0.015039631 0.018926634 0.16557021
0.014893041 0.016507104 0.167146
0.014777677 0.013988349 0.16871697
0.015326609 0.011501136 0.17044349
0.014331305 0.0097965188 0.17273861
0.014854692 0.0060858671 0.1752691
0.014738292 0.0018890277 0.17515002
0.015254921 0.037157644 0.14938031
0.016032387 0.034715734 0.1513761
0.015882934 0.031559765 0.15485857
0.016545566 0.026737781 0.15963227
0 0 0 1 0 0 0 1 0 0 0 1 0 0 0 0 0 239 1 0 0
