ply
format ascii 1.0
comment PCL generated
element vertex 239
property float x
property float y
property float z
element camera 1
property float view_px
property float view_py
property float view_pz
property float x_axisx
property float x_axisy
property float x_axisz
property float y_axisx
property float y_axisy
property float y_axisz
property float z_axisx
property float z_axisy
property float z_axisz
property float focal
property float scalex
property float scaley
property float centerx
property float centery
property int viewportx
property int viewporty
property float k1
property float k2
end_header
-0.024824932 0.035020564 0.14652193
-0.024670511 0.032665998 0.14667381
-0.024834869 0.030678075 0.1483549
-0.024924826 0.028447278 0.14995603
-0.024850173 0.026193982 0.15176433
-0.025469676 0.024048917 0.15557405
-0.027012879 0.021838879 0.16092104
-0.027463198 0.019339824 0.16310546
-0.027531579 0.016636055 0.16397144
-0.027332988 0.013859268 0.16514504
-0.027437912 0.011109373 0.16611716
-0.027708353 0.0083623007 0.16798517
-0.027799414 0.0057030935 0.16807181
-0.022523647 0.034933921 0.14584304
-0.02226132 0.032629989 0.14684272
-0.022348437 0.03056711 0.14841162
-0.02238185 0.028355801 0.14991181
-0.022315945 0.025924383 0.1514983
-0.022728985 0.02376885 0.15432528
-0.023398118 0.021301476 0.1583139
-0.023960333 0.018969258 0.16032346
-0.024183625 0.016434064 0.16236435
-0.024284104 0.013774086 0.1636458
-0.02428876 0.011182687 0.16500114
-0.024810363 0.008373172 0.16735741
-0.025280977 0.0056185909 0.16981952
-0.025318213 0.0029311676 0.1722074
-0.019777751 0.034934118 0.14599831
-0.01968354 0.032896679 0.148123
-0.019727463 0.030592469 0.14903307
-0.019861646 0.028359149 0.15046604
-0.019857159 0.02599805 0.1515303
-0.020092001 0.023777215 0.15488024
-0.020901369 0.021421416 0.15873955
-0.02118434 0.018941449 0.1603283
-0.021300862 0.016555345 0.16192944
-0.021588571 0.013948028 0.16402484
-0.021591587 0.011101745 0.16738562
-0.021851955 0.0080437679 0.16927339
-0.022561882 0.0051069264 0.17149329
-0.022080287 0.0021947948 0.17199261
-0.022164896 -0.00084753701 0.17302722
-0.016945537 0.034913525 0.14709182
-0.017158275 0.032813657 0.14847839
-0.017208304 0.030586835 0.14894027
-0.017279791 0.028594617 0.15105942
-0.017367078 0.026242094 0.1518169
-0.017589461 0.023941094 0.15475927
-0.018305665 0.021829296 0.15930586
-0.018249594 0.019093674 0.16014351
-0.018532973 0.016640976 0.16241191
-0.018365957 0.013664262 0.1653063
-0.01887414 0.010622411 0.16910475
-0.019133812 0.00799374 0.17036708
-0.019721393 0.005202217 0.17261943
-0.019502904 0.0023226244 0.17364749
-0.019844411 -0.00045713285 0.17504159
-0.014246752 0.034918174 0.14709342
-0.0144986 0.032727517 0.14816643
-0.01442109 0.030485863 0.14854188
-0.01485019 0.028553475 0.15101989
-0.014825271 0.02631494 0.15273318
-0.015139481 0.024204878 0.15529753
-0.015567188 0.022156721 0.16014464
-0.015595549 0.019374728 0.1606154
-0.015815651 0.016747631 0.16278626
-0.015651429 0.013412847 0.16584298
-0.015358078 0.010487724 0.16878049
-0.016212061 0.0080318535 0.17176557
-0.017026667 0.0054748687 0.17510697
-0.017143849 0.0024542147 0.17574754
-0.016573897 -0.00095427345 0.17487448
-0.011903814 0.034934618 0.14690314
-0.011942312 0.03272349 0.14813644
-0.011914026 0.030477047 0.14928864
-0.012098333 0.028294869 0.15137544
-0.012277503 0.026295371 0.15291335
-0.012435323 0.024196994 0.15546207
-0.012768305 0.02221051 0.15935351
-0.012829273 0.019522538 0.16082108
-0.012944535 0.016635811 0.16256516
-0.012966654 0.013334513 0.16662912
-0.013241896 0.010200295 0.17121193
-0.014000352 0.0081118317 0.17412208
-0.014280128 0.0054478897 0.17664061
-0.014394328 0.0024911831 0.1760862
-0.012824739 -0.0015543444 0.17434542
-0.0095576579 0.034741409 0.14653628
-0.0095332842 0.032846835 0.1481047
-0.0095653012 0.030845242 0.15033406
-0.0097322147 0.028113222 0.15167183
-0.0095084934 0.026167534 0.15370186
-0.0098135155 0.024301788 0.15620723
-0.0098571656 0.02206891 0.15938206
-0.0098388987 0.01939638 0.15968654
-0.010023577 0.016621927 0.16257699
-0.010373897 0.014026309 0.16691096
-0.010532864 0.010072178 0.17223969
-0.010871884 0.0080683334 0.17504007
-0.011191859 0.005105007 0.17585351
-0.011019937 0.0020997729 0.17534319
-0.010636965 -0.0012138877 0.17529929
-0.0068586068 0.034900345 0.14680111
-0.0070701484 0.032911103 0.14858682
-0.0072087422 0.030949073 0.1510208
-0.0068952101 0.028475571 0.15200722
-0.0068096197 0.026365364 0.15380107
-0.0071856799 0.02455176 0.15724511
-0.0072657042 0.021962721 0.16038178
-0.0070353271 0.019034786 0.16052935
-0.0072328872 0.01661765 0.16346577
-0.0077311047 0.014052034 0.16782431
-0.0076105231 0.010195581 0.17198585
-0.0081286449 0.0078866296 0.17496969
-0.0083520114 0.0052260025 0.17563669
-0.008392808 0.0022465752 0.1766126
-0.0090926625 -0.00017213238 0.17876689
-0.0043810355 0.03502449 0.14722295
-0.004573856 0.032872636 0.14925754
-0.0045746933 0.031150395 0.15110156
-0.0043168329 0.028879736 0.15334514
-0.0044769677 0.026841704 0.15591145
-0.0045551537 0.024838299 0.16040812
-0.0046521774 0.022156298 0.16133581
-0.0045903479 0.019587031 0.16239448
-0.0048053567 0.016977089 0.16511245
-0.0050694919 0.014570416 0.16856667
-0.0050625703 0.010832692 0.17224857
-0.0051020016 0.0082745571 0.17500834
-0.0052881767 0.0053240648 0.17555293
-0.0055102529 0.0024405709 0.17632239
-0.005072745 -0.00052981509 0.17995676
-0.0019787042 0.035247799 0.14796899
-0.0020476088 0.032895967 0.14935243
-0.0018045786 0.030794315 0.15110861
-0.0016638049 0.028589733 0.15288681
-0.0017318248 0.026707675 0.15588805
-0.0018678821 0.024798552 0.16014645
-0.00192023 0.022287961 0.16137841
-0.0020583407 0.01991158 0.16369469
-0.0018556376 0.017523982 0.16620669
-0.0021780697 0.014686144 0.17013937
-0.0021662808 0.011222732 0.17294568
-0.0019775634 0.008848357 0.17531769
-0.0020952811 0.0058795353 0.17611878
-0.001938206 0.0028568504 0.17618096
-0.0015677974 -0.00027232635 0.18103683
-0.00058730168 0.033667292 0.14902744
-0.00024028825 0.031438731 0.15039515
1.4172634e-05 0.02975102 0.1527531
0.0009646244 0.028661013 0.15449613
0.0010189444 0.026548337 0.15721036
0.00092594203 0.024562702 0.15969811
0.00093568268 0.022511955 0.1623653
0.00078617688 0.020216107 0.16441931
0.00077908905 0.017687401 0.16666909
0.00075321685 0.014710178 0.17015471
0.0007838888 0.011618393 0.17273629
0.0010168179 0.0088340677 0.17475469
0.0010083397 0.0059462958 0.17582482
0.0010629386 0.0030744667 0.17730111
0.0011560504 1.8017415e-07 0.17995887
0.0019779254 0.033947889 0.14896086
0.0021395681 0.032004956 0.15082584
0.002555155 0.030146053 0.15283211
0.003592263 0.028585516 0.15505926
0.003723714 0.026603321 0.15730327
0.0037398671 0.0244991 0.15942386
0.0036174397 0.0223136 0.16110493
0.0036765598 0.019938583 0.16440657
0.0035013019 0.01772075 0.166924
0.0039370465 0.014643212 0.16946167
0.0039833798 0.011592115 0.17187755
0.003918407 0.0087913675 0.17342091
0.0040763151 0.0060235471 0.1743118
0.0039549968 0.0033375518 0.17726457
0.0041958224 0.00025084027 0.17867814
0.0047567822 0.034278721 0.1487456
0.0047725844 0.032545108 0.15077168
0.0050892928 0.030684119 0.15266964
0.0058672144 0.028936854 0.15525134
0.0062109968 0.026811969 0.1582334
0.0064219092 0.024446705 0.16028342
0.0063612075 0.021977818 0.16178024
0.0063004671 0.019698003 0.16379414
0.0071011665 0.017351484 0.16613738
0.007013272 0.014418753 0.16986772
0.0067592575 0.01118491 0.17099969
0.0068210326 0.008780146 0.17284258
0.0066631446 0.0063685053 0.1750804
0.0070199091 0.0035244983 0.17794028
0.0072098002 0.00063333934 0.18019192
0.007273674 0.034741092 0.14888234
0.0074147899 0.032981843 0.15110268
0.0077624205 0.030925263 0.15219627
0.0088617606 0.029217426 0.15661351
0.0089636138 0.026737282 0.15940583
0.0090402663 0.024205333 0.16069417
0.009037382 0.02207835 0.16283393
0.010027724 0.019618554 0.16564114
0.0099646701 0.01710687 0.16735624
0.0097544072 0.014137438 0.16977051
0.009874749 0.011348998 0.17053658
0.0095256502 0.0092329271 0.1725015
0.0092091439 0.0066459901 0.17597458
0.010352182 0.0034038187 0.18019928
0.010350319 0.00070488197 0.18229178
0.009920151 0.035108745 0.14921495
0.010309552 0.03322174 0.15075704
0.010818519 0.031229561 0.15340067
0.011573914 0.029378522 0.15715408
0.011676045 0.026733711 0.15939672
0.011813031 0.024327096 0.16070396
0.011483363 0.021931123 0.16346213
0.01261462 0.019482046 0.16590086
0.012503324 0.016767204 0.16771042
0.012531125 0.013963656 0.16871509
0.012900708 0.01130484 0.17007674
0.012072138 0.009576519 0.17248224
0.012377379 0.0066657448 0.17701717
0.013737787 0.0032394982 0.17973472
0.012603872 0.035326187 0.14843617
0.013179367 0.033323277 0.1502336
0.013620741 0.031687852 0.15439229
0.014357993 0.029115712 0.15820639
0.01439567 0.026789336 0.15957502
0.014495847 0.024406889 0.16119294
0.0145218 0.0215612 0.16483901
0.015222597 0.019308643 0.16607073
0.015129471 0.016703987 0.16736066
0.015034343 0.014012183 0.1685926
0.015587836 0.0113545 0.17004149
0.01454368 0.0098107504 0.17277239
0.01513627 0.0067965873 0.17620255
0.01602022 0.0033507764 0.17719623
0.015377637 0.035627332 0.14803325
0.016113907 0.033820458 0.15065028
0.015976001 0.031469874 0.15472649
0.01662989 0.026939156 0.15981698
0 0 0 1 0 0 0 1 0 0 0 1 0 0 0 0 0 239 1 0 0
