ply
format ascii 1.0
comment PCL generated
element vertex 239
property float x
property float y
property float z
element camera 1
property float view_px
property float view_py
property float view_pz
property float x_axisx
property float x_axisy
property float x_axisz
property float y_axisx
property float y_axisy
property float y_axisz
property float z_axisx
property float z_axisy
property float z_axisz
property float focal
property float scalex
property float scaley
property float centerx
property float centery
property int viewportx
property int viewporty
property float k1
property float k2
end_header
-0.025195949 0.03461593 0.14660427
-0.024969075 0.032260414 0.14671065
-0.025107689 0.030290093 0.14828883
-0.025215818 0.028148383 0.14993869
-0.025114708 0.026078848 0.15239599
-0.025804866 0.02369383 0.15632306
-0.027145462 0.021153007 0.16223589
-0.027458536 0.018570874 0.1641831
-0.027504234 0.015659243 0.16482116
-0.027501635 0.012578655 0.16476384
-0.027557023 0.0096335402 0.16484034
-0.028088288 0.006742313 0.16632339
-0.02809611 0.0041040969 0.16650711
-0.022845203 0.034594089 0.14606749
-0.022589654 0.03232047 0.14705011
-0.022629568 0.030311616 0.14846182
-0.022620209 0.02827516 0.1502073
-0.022619858 0.026148213 0.15240446
-0.023028592 0.023671439 0.15521342
-0.023612468 0.020952083 0.15923905
-0.024004402 0.018722268 0.16153106
-0.024110675 0.016008802 0.16350026
-0.024170261 0.013101639 0.16391565
-0.024181873 0.010188379 0.16424909
-0.025037037 0.0068542785 0.16611528
-0.02587752 0.0040837466 0.16860762
-0.02626498 0.0011287533 0.17109396
-0.020049728 0.034634028 0.14615922
-0.019964842 0.032705035 0.14815463
-0.020022649 0.030455332 0.14912847
-0.020182148 0.028364316 0.1507481
-0.020167921 0.026240788 0.1524009
-0.020438777 0.023853423 0.1558875
-0.02115366 0.021136124 0.15954138
-0.021204781 0.018749997 0.16124596
-0.021204663 0.01633822 0.16295768
-0.021642616 0.013474572 0.16448101
-0.021654844 0.0097657116 0.16683708
-0.02224314 0.0060524489 0.16792703
-0.023646714 0.0028500895 0.17059879
-0.023085661 6.1607345e-05 0.17124933
-0.022740936 -0.0029618405 0.17217572
-0.017203603 0.034838073 0.14746745
-0.017414557 0.032718442 0.14870848
-0.017453816 0.030472931 0.14908805
-0.017537273 0.028509209 0.15131895
-0.017593199 0.026281392 0.15233964
-0.017834408 0.024031842 0.15536413
-0.01850291 0.021604497 0.15994366
-0.018393839 0.018928008 0.16098069
-0.018519148 0.016722236 0.16333652
-0.018566575 0.013339782 0.16601609
-0.019466858 0.009236278 0.16850621
-0.019725149 0.0063559734 0.16929941
-0.020944254 0.0031830829 0.17189573
-0.020527402 0.00046105176 0.17278178
-0.020576978 -0.0023555912 0.17413487
-0.014391782 0.034959577 0.14773259
-0.014681512 0.032673173 0.14861913
-0.014652845 0.030478664 0.14892828
-0.01506296 0.02849702 0.15147001
-0.015118781 0.026363632 0.1533722
-0.015367378 0.024122994 0.15576622
-0.015750814 0.022047708 0.16067284
-0.015757732 0.019404 0.1611861
-0.015980154 0.017051643 0.16354342
-0.016023079 0.013923689 0.16735388
-0.016219122 0.010117754 0.16954996
-0.017254382 0.0070216302 0.17167504
-0.018270951 0.0039774068 0.17420784
-0.018215939 0.00086621311 0.1745728
-0.017224796 -0.0024752927 0.17442618
-0.011966413 0.035061084 0.14761658
-0.012066076 0.032811172 0.14877976
-0.012096207 0.030655067 0.15012172
-0.01223384 0.028417179 0.1521984
-0.012517444 0.026368082 0.15362352
-0.012709748 0.024109198 0.15585223
-0.012925089 0.022167623 0.15976749
-0.013054783 0.019629523 0.16131464
-0.013241126 0.017023493 0.16341966
-0.013444141 0.014091601 0.1683702
-0.014467764 0.0096814679 0.17197089
-0.015287478 0.0070717367 0.17362553
-0.015607912 0.0041509029 0.17572252
-0.015510302 0.0012829817 0.17502539
-0.013689217 -0.0025067509 0.17423022
-0.0096488008 0.034952778 0.14706559
-0.0095797414 0.032930065 0.1486223
-0.0095590949 0.031022802 0.15104426
-0.0098827407 0.028221814 0.15238082
-0.0095829265 0.026040938 0.15397842
-0.0098931063 0.024078052 0.15639617
-0.0098601812 0.021946374 0.15954611
-0.01009642 0.019278662 0.16002296
-0.010316056 0.016958805 0.16325445
-0.010588435 0.014911505 0.1679797
-0.011603745 0.0095785791 0.17285843
-0.012066371 0.0072097555 0.17491682
-0.012365801 0.0041054487 0.17510067
-0.012010371 0.0013396713 0.17467314
-0.011475518 -0.002071358 0.17511189
-0.006917194 0.034781411 0.1468318
-0.0071361451 0.032817673 0.14880539
-0.0071609854 0.030858567 0.15143989
-0.0068980632 0.028228408 0.15190974
-0.0067389491 0.026039021 0.15334973
-0.0071428991 0.024257591 0.15701763
-0.007195814 0.021940732 0.16035135
-0.0072038886 0.01905554 0.1603753
-0.0074344664 0.016867787 0.16362956
-0.0076967585 0.014731416 0.16825832
-0.0086500607 0.0099636102 0.17326042
-0.0094872899 0.0070748329 0.17550518
-0.0096987141 0.0043918034 0.17570537
-0.0095582716 0.0015536604 0.17620431
-0.010259883 -0.00086969003 0.1778779
-0.004365141 0.034554612 0.146512
-0.0045534391 0.032511096 0.1491316
-0.0045882026 0.030824985 0.15104841
-0.0041609942 0.028470309 0.15280168
-0.0043443046 0.026385594 0.15534
-0.0042852582 0.024619455 0.16011846
-0.0045385705 0.022056744 0.16092546
-0.004640602 0.019457083 0.16188224
-0.0047544832 0.017013475 0.16491731
-0.0050876834 0.014779702 0.16831242
-0.0059179286 0.010792181 0.17290901
-0.0060756775 0.0073864562 0.17553388
-0.006658446 0.0043187323 0.17570823
-0.0068533835 0.0017156884 0.17604111
-0.0054862131 -0.0018555876 0.17910595
-0.0018990458 0.034685805 0.1469225
-0.0019503705 0.032292083 0.14858152
-0.0014469785 0.030381342 0.15031716
-0.0015216664 0.028133113 0.1522429
-0.0015296874 0.026335608 0.15514214
-0.001732057 0.024594069 0.1596788
-0.0018275729 0.02204795 0.16083537
-0.001939051 0.019686531 0.16301022
-0.0018692336 0.01704165 0.16575193
-0.0025214604 0.014454174 0.16990185
-0.0028690964 0.01112372 0.17328624
-0.0026406627 0.0085707344 0.17531838
-0.0028926388 0.0054420256 0.17612405
-0.002653166 0.0023595989 0.17594284
-0.0016986612 -0.0015793103 0.18009482
0.0005072896 0.033433739 0.14822732
0.0009936702 0.03127785 0.14962621
0.00062045583 0.029362103 0.15176119
0.0013764477 0.028187297 0.15371086
0.0013667439 0.026364807 0.15670098
0.0010913782 0.024364589 0.15924504
0.00086256542 0.022107974 0.1615587
0.00069154229 0.019788513 0.16371243
0.00071157509 0.017107043 0.16592464
0.00034641617 0.014247187 0.1699038
0.00016504357 0.01144449 0.17282802
0.00032397074 0.0085446825 0.17469127
0.00031248067 0.0056350548 0.17555289
0.00053803466 0.0026232288 0.17687407
0.0008836239 -0.00081864797 0.17902198
0.0030790381 0.034148071 0.1489393
0.003205321 0.032074247 0.15062323
0.0034536095 0.030037291 0.15257317
0.0042135264 0.02814959 0.15455574
0.0041574663 0.026286107 0.15677199
0.0039892113 0.024232309 0.15899111
0.0036745726 0.021968259 0.16050237
0.003440626 0.019601854 0.16382959
0.0033554228 0.017114084 0.16620013
0.0035924509 0.014270352 0.16951464
0.0035928681 0.011652981 0.1722642
0.0033124723 0.0087403124 0.17335388
0.0033914137 0.0058954516 0.17391367
0.0034622443 0.0029943716 0.17654747
0.0038611721 -0.00021519577 0.17773801
0.0057987263 0.034879636 0.14944234
0.0056694206 0.032921188 0.15114829
0.0058739311 0.030910321 0.15290776
0.006737323 0.028456425 0.15503205
0.0066371816 0.026627345 0.15816209
0.0064131711 0.024512105 0.16047741
0.0061829309 0.021863921 0.16179347
0.0059419703 0.019617768 0.163692
0.006958738 0.017121993 0.16670701
0.0067201285 0.014349202 0.17048384
0.0063443989 0.01121225 0.17143022
0.0063895844 0.0087695736 0.17317203
0.0061049415 0.0065308246 0.17535831
0.0065661911 0.0031467602 0.17725457
0.0068248906 7.64406e-05 0.17915966
0.0082476968 0.035553064 0.15018126
0.0082009211 0.033631019 0.1521114
0.0086219078 0.031513713 0.1531482
0.0094904779 0.029127089 0.15728587
0.0088885138 0.027026698 0.16027865
0.008865484 0.024426097 0.16182211
0.0084974421 0.022017052 0.16360225
0.010016482 0.019539494 0.16658607
0.0097788684 0.016900487 0.16804014
0.0095352381 0.013813802 0.17007433
0.0094275242 0.011098809 0.1707868
0.0090360688 0.0091189938 0.17270379
0.0086917393 0.0064855129 0.17597486
0.0098212361 0.0023043193 0.17903624
0.0097966194 -0.00049338798 0.18087101
0.010826021 0.036020234 0.15117028
0.011174592 0.034023855 0.1525798
0.011382006 0.031704098 0.15519482
0.011765271 0.029531682 0.15859285
0.011457344 0.0271504 0.16112198
0.01155935 0.024494566 0.16237566
0.011092333 0.021524832 0.16440697
0.012577457 0.019296993 0.16680443
0.012322663 0.01647995 0.16833471
0.012303095 0.013422974 0.16897453
0.012435251 0.010650606 0.16998993
0.011438251 0.0092038661 0.17229903
0.011853416 0.0058774622 0.17622526
0.013079884 0.0016566478 0.17797062
0.013646852 0.036340903 0.15100361
0.014147773 0.034114201 0.15265572
0.01400427 0.031733681 0.15657264
0.014315693 0.029300477 0.16011311
0.01416882 0.027033474 0.16168968
0.014229138 0.024419528 0.16305333
0.014266605 0.02099365 0.16570789
0.015147344 0.01890656 0.16672415
0.0149889 0.016203677 0.167982
0.014755143 0.013399849 0.16885051
0.015074704 0.010384616 0.16988157
0.013749039 0.0090296706 0.17216681
0.014429137 0.0056923092 0.17489797
0.014948407 0.0017215523 0.17526858
0.016563257 0.036511395 0.15099588
0.017080233 0.034738347 0.15388231
0.016374325 0.03160895 0.15713231
0.01639306 0.027156075 0.16209842
0 0 0 1 0 0 0 1 0 0 0 1 0 0 0 0 0 239 1 0 0
