ply
format ascii 1.0
comment PCL generated
element vertex 239
property float x
property float y
property float z
element camera 1
property float view_px
property float view_py
property float view_pz
property float x_axisx
property float x_axisy
property float x_axisz
property float y_axisx
property float y_axisy
property float y_axisz
property float z_axisx
property float z_axisy
property float z_axisz
property float focal
property float scalex
property float scaley
property float centerx
property float centery
property int viewportx
property int viewporty
property float k1
property float k2
end_header
-0.025274603 0.035018899 0.14732926
-0.025060263 0.032610107 0.14707215
-0.025143761 0.030462854 0.14834397
-0.025216475 0.028199039 0.14976703
-0.025045855 0.026279945 0.15225257
-0.025659608 0.023940563 0.15619072
-0.027122334 0.021021685 0.16167687
-0.027427128 0.018437114 0.16362023
-0.027520547 0.015568014 0.16431703
-0.027567083 0.012618909 0.16460975
-0.027742779 0.0097342366 0.16494884
-0.028290251 0.0069017839 0.16651432
-0.028369825 0.0042548925 0.16674317
-0.022972828 0.035047695 0.14673877
-0.022659199 0.03260557 0.1473064
-0.022638448 0.030408353 0.14836121
-0.022599015 0.028212547 0.14987089
-0.022610482 0.026076645 0.15202321
-0.022972403 0.023732258 0.15487123
-0.023576457 0.020765753 0.15861131
-0.024029575 0.018431548 0.16067636
-0.024155147 0.015702093 0.16260861
-0.024303012 0.012907116 0.1632666
-0.024429867 0.010134225 0.16414565
-0.025284475 0.0069399378 0.16614814
-0.026001016 0.004191468 0.16862302
-0.026226856 0.0011763831 0.17109083
-0.020160422 0.035011869 0.14669454
-0.019964859 0.032797724 0.14833941
-0.019993683 0.030435719 0.14896892
-0.020138817 0.028152242 0.15028098
-0.020151738 0.02591013 0.15176004
-0.020342516 0.02364454 0.15537275
-0.021121612 0.020848883 0.158839
-0.021212168 0.018426485 0.16038239
-0.02122122 0.015965153 0.16196765
-0.021740289 0.013170877 0.1636347
-0.021813799 0.0098098051 0.16658968
-0.022477079 0.0061831167 0.16781056
-0.023672814 0.0028920502 0.17036019
-0.023015445 -4.1148223e-06 0.17091537
-0.022617057 -0.0030184474 0.17198062
-0.017273093 0.034883909 0.14778903
-0.01744438 0.032682173 0.14885658
-0.017438784 0.030452117 0.14899985
-0.01747263 0.028190587 0.15084928
-0.017507492 0.02585349 0.15165101
-0.017746322 0.023621786 0.15471473
-0.018487368 0.02134457 0.15937553
-0.018402804 0.018677112 0.16032723
-0.018594291 0.016333403 0.162507
-0.018643308 0.013026563 0.16514865
-0.019575505 0.0093036341 0.16805895
-0.019830525 0.0064239032 0.16884129
-0.020824701 0.0031692281 0.17142519
-0.020367745 0.00042600505 0.17227754
-0.020374443 -0.0023088299 0.17384595
-0.014505391 0.034961876 0.14799169
-0.01473682 0.032646723 0.14876924
-0.014644837 0.030460587 0.14889717
-0.01495223 0.028133012 0.15095304
-0.015031059 0.025988678 0.15281893
-0.015318616 0.023836222 0.15535742
-0.015749574 0.021775397 0.16020595
-0.015780708 0.019159332 0.16070515
-0.016012695 0.016640984 0.16283625
-0.016072292 0.013267044 0.16635488
-0.016225887 0.01010354 0.16878913
-0.017144732 0.0070304652 0.17096823
-0.018014347 0.0039593494 0.17325424
-0.01796235 0.00090104714 0.17385434
-0.01701572 -0.0024190648 0.17404701
-0.01213549 0.035120539 0.14788201
-0.01216109 0.032818433 0.14896353
-0.01217235 0.030618846 0.15023358
-0.012197459 0.02818808 0.1519593
-0.012454664 0.026105611 0.15330318
-0.012672677 0.023941537 0.15566409
-0.01296177 0.021956094 0.15953515
-0.013074806 0.019397603 0.16095105
-0.013263116 0.016604604 0.16275245
-0.013486372 0.013390164 0.16732682
-0.014315036 0.0096314158 0.17096992
-0.015127824 0.0070894114 0.17266446
-0.015394855 0.0042486452 0.17470831
-0.015289642 0.0013688138 0.17417039
-0.013449446 -0.0024116703 0.17385253
-0.0098294439 0.035143387 0.14740637
-0.0097337915 0.033089824 0.14891461
-0.0097083775 0.03109441 0.15128125
-0.009965146 0.028276671 0.15257873
-0.0096819187 0.026183931 0.15426467
-0.0099047543 0.024134133 0.15652713
-0.0099333469 0.021970859 0.15963612
-0.010069346 0.019274633 0.15986128
-0.010297884 0.016679974 0.16286477
-0.010665665 0.014297792 0.16742356
-0.011456793 0.0095883766 0.17189355
-0.011946446 0.0073467661 0.17401892
-0.012196079 0.004260662 0.17414939
-0.011819433 0.0014917013 0.17407526
-0.011294395 -0.0018850057 0.17485091
-0.0070933485 0.03517355 0.14734161
-0.0072987061 0.03303168 0.14912558
-0.0073085651 0.030984519 0.15169513
-0.0070717437 0.028390566 0.15218416
-0.0069711781 0.026184168 0.1535951
-0.0072134985 0.024277585 0.15713392
-0.0072394344 0.021926874 0.16038024
-0.0071946662 0.018981459 0.16060118
-0.0074248943 0.016862761 0.16383216
-0.0077764154 0.014728949 0.16846232
-0.0085841557 0.010174166 0.17280565
-0.0094641075 0.0073332447 0.17501956
-0.0096478127 0.0046844659 0.175264
-0.0095098931 0.0018831129 0.17585909
-0.010315196 -0.00049018709 0.17762595
-0.0045387833 0.035212584 0.14725681
-0.0047192634 0.032667004 0.14935584
-0.004745461 0.030942667 0.15124397
-0.0043332474 0.028497642 0.15289041
-0.0044466006 0.026319029 0.15533444
-0.0043044216 0.024579685 0.16004069
-0.0045738309 0.022026131 0.16092835
-0.0046726917 0.019502234 0.16213237
-0.0048057269 0.017192658 0.16534114
-0.0051219207 0.014958068 0.16881134
-0.0058375653 0.01100608 0.17331044
-0.0061412379 0.0077653672 0.17577463
-0.0066420259 0.004701288 0.17565836
-0.006800001 0.0020926227 0.17594789
-0.0056294161 -0.0013729919 0.17951751
-0.0021209121 0.035464853 0.14785233
-0.0021191176 0.032720972 0.1490328
-0.0017274643 0.030322272 0.15022188
-0.0017717815 0.028004484 0.15208705
-0.0016582703 0.026095523 0.15490857
-0.0017577896 0.024399696 0.15949836
-0.0018715668 0.021947738 0.16083278
-0.0020065119 0.019793214 0.16336226
-0.00194898 0.017416181 0.166399
-0.0024691229 0.014658946 0.17048775
-0.0027933398 0.01136592 0.17379537
-0.0025951527 0.0088316267 0.17583114
-0.0028820385 0.0057352632 0.17658703
-0.0025869498 0.0026580498 0.17644216
-0.0019040043 -0.0010207003 0.18089998
7.8903489e-05 0.033507798 0.14816175
0.00057020981 0.031174295 0.14930882
0.00034467236 0.02923331 0.15148549
0.0012630974 0.027604401 0.15315571
0.0013212655 0.025750142 0.15614857
0.0010484679 0.023988424 0.15890306
0.00080390251 0.022106409 0.1615966
0.00061098614 0.020081718 0.16415444
0.0006351117 0.01766366 0.1667216
0.00042339851 0.014550501 0.17056733
0.00027270822 0.011728159 0.17345886
0.0004016 0.0088229729 0.17530186
0.00035515349 0.0059086834 0.17611749
0.00057464716 0.002977812 0.17764226
0.00080935395 -0.00029883638 0.1800486
0.0027155082 0.033978056 0.14842808
0.0028958311 0.031899754 0.15009138
0.0032403255 0.029817278 0.15200755
0.0040873215 0.027500261 0.15387599
0.0040772338 0.025737798 0.15623969
0.0039448924 0.023858678 0.15867102
0.0036253016 0.021865899 0.16056865
0.0033861871 0.01996894 0.16431785
0.0033106974 0.017804656 0.16707815
0.0037385407 0.014639089 0.1702338
0.0037193287 0.011904499 0.17293057
0.0034073719 0.0089922622 0.17394803
0.0034570412 0.0061431755 0.17446995
0.0035207768 0.0033579974 0.17744921
0.0038937202 0.00025343263 0.178928
0.00554393 0.034579579 0.14864302
0.005425124 0.03264948 0.15040317
0.0056844996 0.030646358 0.15217422
0.0063043959 0.028388765 0.15471981
0.0064432803 0.026409833 0.15771136
0.0064651426 0.024190513 0.15996541
0.0061832382 0.021818895 0.16171312
0.0059585627 0.019840686 0.16396929
0.0073480634 0.016882438 0.16693485
0.0069719502 0.014619771 0.17118938
0.0064963778 0.011515914 0.17232752
0.0064621721 0.0090338532 0.17388637
0.0061335932 0.0065171118 0.17567831
0.0066278316 0.0035405434 0.17815542
0.006890377 0.00060591218 0.18026118
0.0080711981 0.035134457 0.14916515
0.0080895778 0.033247177 0.15113606
0.008474296 0.031151377 0.15215181
0.0091160573 0.029075082 0.15679672
0.0089587718 0.026611596 0.15950367
0.0090231635 0.023938801 0.16095863
0.0086577013 0.021791928 0.16306835
0.010396469 0.018856961 0.16614731
0.010104701 0.016486831 0.16802463
0.0097325537 0.013915278 0.17083839
0.0095931124 0.011292845 0.17167713
0.0090821888 0.0092849769 0.17341483
0.008738515 0.0063823508 0.17637193
0.0099875843 0.0027798798 0.17974372
0.0099877557 0.00010021008 0.18179314
0.010779056 0.03546593 0.14990224
0.011153441 0.033458252 0.15130875
0.011249156 0.031282004 0.15405975
0.011561236 0.029270129 0.15774138
0.011587359 0.026674083 0.16006827
0.011725222 0.024026088 0.1614309
0.011240311 0.021276265 0.16388726
0.012746096 0.018921569 0.16674235
0.012491139 0.016368654 0.16873328
0.012621719 0.013597415 0.17015253
0.012681159 0.010916644 0.17136422
0.011448702 0.0092431493 0.17293747
0.011886607 0.0057666237 0.17650598
0.013233778 0.002082818 0.17847176
0.013652087 0.035655156 0.14958788
0.014186754 0.033415884 0.15125768
0.013850739 0.03120414 0.15529624
0.014364843 0.028792253 0.15875632
0.014294773 0.02658562 0.16054186
0.014344827 0.024158442 0.16241911
0.014336372 0.020959647 0.16569376
0.01526752 0.018925454 0.16721898
0.015153809 0.016408326 0.16896084
0.015034055 0.013771 0.17034528
0.015351091 0.010780266 0.17166311
0.013753999 0.0091064265 0.17305495
0.014337305 0.0054475437 0.17495714
0.014939722 0.0019443687 0.17564198
0.016627295 0.035708919 0.14949644
0.017128073 0.033943612 0.15236387
0.016268751 0.030865883 0.15551504
0.016527688 0.026766941 0.16097404
0 0 0 1 0 0 0 1 0 0 0 1 0 0 0 0 0 239 1 0 0
