ply
format ascii 1.0
comment PCL generated
element vertex 239
property float x
property float y
property float z
element camera 1
property float view_px
property float view_py
property float view_pz
property float x_axisx
property float x_axisy
property float x_axisz
property float y_axisx
property float y_axisy
property float y_axisz
property float z_axisx
property float z_axisy
property float z_axisz
property float focal
property float scalex
property float scaley
property float centerx
property float centery
property int viewportx
property int viewporty
property float k1
property float k2
end_header
-0.026259333 0.034443323 0.14647678
-0.025762623 0.0321129 0.14640523
-0.025647676 0.029934091 0.14776942
-0.025544917 0.027674221 0.14925328
-0.025270596 0.025433771 0.15190232
-0.02603283 0.02282084 0.15554318
-0.028444173 0.019082949 0.1612819
-0.02868049 0.016298618 0.1627661
-0.028421929 0.013258214 0.1631574
-0.028138353 0.010236467 0.16279326
-0.028262436 0.0070857746 0.16319627
-0.028889539 0.0041796104 0.16483998
-0.029169269 0.0016910812 0.16556033
-0.023967471 0.034718059 0.14616363
-0.023331704 0.032313678 0.14686942
-0.023076873 0.03006647 0.14788106
-0.022948146 0.027917141 0.14957729
-0.022895509 0.025356997 0.15170571
-0.02333675 0.022641655 0.15417992
-0.024068447 0.019713219 0.15819761
-0.024737552 0.01712469 0.16025475
-0.024722891 0.014155678 0.16187891
-0.024653278 0.011331696 0.16223398
-0.024579106 0.008396917 0.1631698
-0.025733957 0.0045542303 0.16447558
-0.026700266 0.001550441 0.16706274
-0.026268406 -0.0019582442 0.16906749
-0.021097016 0.03496265 0.14654982
-0.020560807 0.032690916 0.14810397
-0.020465022 0.030266065 0.14886293
-0.020587437 0.028080439 0.15016119
-0.020456987 0.02548751 0.15166235
-0.020750027 0.022632465 0.15493593
-0.021631511 0.019687405 0.15813334
-0.021857565 0.017137768 0.15942048
-0.021846863 0.014596822 0.1607186
-0.022164021 0.011781892 0.16233155
-0.021839203 0.0080871787 0.16537568
-0.022808982 0.003948607 0.16608395
-0.023919815 -7.3883944e-05 0.16859345
-0.022880707 -0.0025017341 0.16913906
-0.022235382 -0.0052662841 0.17004305
-0.017761784 0.035078142 0.1481633
-0.017949922 0.032789342 0.14900228
-0.017951535 0.030506929 0.14910851
-0.018057015 0.028214652 0.15105836
-0.017968623 0.025727583 0.15157209
-0.018145371 0.022840749 0.15428096
-0.019111125 0.020158628 0.15872422
-0.018970504 0.01737278 0.15953897
-0.019170493 0.01499213 0.16119957
-0.01907621 0.01147075 0.16418317
-0.019854978 0.0073596109 0.16636342
-0.02032093 0.0042630718 0.16701773
-0.021071799 0.00066652359 0.16942981
-0.02036974 -0.0017547506 0.16984965
-0.020042405 -0.0043247216 0.1715486
-0.014868805 0.035226043 0.14843649
-0.015232343 0.032816503 0.14886265
-0.015158055 0.030665766 0.14898656
-0.015485003 0.028010031 0.15119144
-0.015474549 0.025466649 0.15244231
-0.015676036 0.022924284 0.15459277
-0.016481265 0.020601625 0.15995753
-0.016458176 0.018030558 0.16012898
-0.016690169 0.015461472 0.1617551
-0.016535146 0.011768278 0.16551225
-0.016629145 0.0081506437 0.16772474
-0.017584767 0.0048344191 0.16921204
-0.018201455 0.00160145 0.17008686
-0.017922204 -0.001144345 0.17079018
-0.01686004 -0.00411609 0.17156602
-0.01218806 0.035144921 0.14811791
-0.01244893 0.03286105 0.14891295
-0.012471582 0.030500354 0.14987913
-0.012504709 0.027842522 0.1514115
-0.012845014 0.025364928 0.15247914
-0.013049677 0.022858474 0.15463865
-0.013339507 0.021168163 0.15908821
-0.013706069 0.018488824 0.16029075
-0.013905151 0.015573462 0.16182441
-0.014099123 0.01190686 0.16638614
-0.015108516 0.0075146398 0.16943727
-0.015734488 0.0047839335 0.17028491
-0.015974451 0.0020899638 0.17164692
-0.01579617 -0.00070071273 0.1710476
-0.013899982 -0.0037118872 0.17116037
-0.0098979706 0.035092663 0.1475089
-0.0097871786 0.032964364 0.14883901
-0.009901558 0.030710394 0.15068142
-0.010206431 0.027768312 0.15169744
-0.0098194741 0.02544277 0.15301131
-0.010001884 0.023026913 0.15521036
-0.009871576 0.020988703 0.15809907
-0.010527777 0.0182928 0.15862042
-0.010812768 0.015703777 0.16180889
-0.01095464 0.013317071 0.16639866
-0.012330242 0.0076515004 0.17002369
-0.012785556 0.0051221983 0.17144363
-0.013153875 0.0022710396 0.17146882
-0.012667731 -0.00017016842 0.17139934
-0.011742211 -0.0031182787 0.17222357
-0.0071205455 0.035147529 0.14735259
-0.0074863615 0.032951545 0.14909178
-0.0075156456 0.030571131 0.15109095
-0.0072612888 0.028131211 0.15150708
-0.0070404694 0.025797909 0.15255159
-0.0069920612 0.023579801 0.15575711
-0.0069528786 0.020756407 0.15800266
-0.0072906893 0.01790143 0.15831374
-0.0078033395 0.015658349 0.16212821
-0.0077208937 0.013611285 0.16706015
-0.0092476653 0.0079844696 0.17086871
-0.010540332 0.0052558654 0.17241621
-0.010771735 0.0029772085 0.17248243
-0.010449146 0.00049279584 0.17321236
-0.010957665 -0.0021052093 0.17464142
-0.0044152667 0.03490505 0.14683631
-0.0048944708 0.032626163 0.14956617
-0.0050795781 0.03070147 0.15088743
-0.0046077091 0.028359903 0.1523132
-0.0044578691 0.025799807 0.15420881
-0.0039515756 0.02341331 0.15818329
-0.004223282 0.020801736 0.15852951
-0.0046976726 0.018038705 0.15963456
-0.0048942664 0.015440548 0.16339049
-0.0049842317 0.013486794 0.16707373
-0.005997723 0.0088288747 0.17064773
-0.0068530757 0.0058040102 0.17330344
-0.0076458338 0.0028488466 0.17315437
-0.0078721493 0.0005534332 0.17339577
-0.0059330286 -0.0032964554 0.17648816
-0.0019814987 0.034846261 0.14708023
-0.0021443076 0.032353129 0.1486381
-0.0019150787 0.030782074 0.15038672
-0.001946884 0.028391471 0.15171607
-0.0016800512 0.026026862 0.15400372
-0.0015590064 0.023202408 0.15822382
-0.0017268071 0.0206114 0.15850662
-0.0020348432 0.017877536 0.16068143
-0.0019385736 0.015243713 0.1636737
-0.0022677609 0.013183647 0.16797291
-0.0028977895 0.0093676792 0.17084323
-0.002493002 0.006929101 0.17285985
-0.0031863193 0.0040023373 0.17383
-0.0027713752 0.001138038 0.17378622
-0.0020545826 -0.0029480227 0.17779773
-0.0002804148 0.033027779 0.14799963
0.00035354539 0.030885784 0.14936431
4.1930856e-05 0.0296731 0.15166442
0.0010994585 0.028289426 0.15312597
0.0014034446 0.025530446 0.15549727
0.0012184202 0.022904336 0.15740193
0.00078947825 0.020233989 0.15892513
0.00052935514 0.017691124 0.16097218
0.00052570167 0.015142109 0.1634222
0.00063411909 0.012916781 0.16779271
0.00030381707 0.0097470498 0.17032281
0.00061096397 0.0069292872 0.17233314
0.00039047521 0.0041687917 0.17348371
0.00067951676 0.0015185163 0.17504792
0.00068910123 -0.0017996607 0.17735977
0.0024838932 0.033550356 0.14776546
0.0028596451 0.031716738 0.1496266
0.0032678854 0.029914873 0.15185085
0.004163669 0.027879834 0.15357603
0.0042918343 0.025505116 0.15526132
0.0040783207 0.022819059 0.15695149
0.0036537489 0.020303207 0.15803286
0.0032559682 0.017538955 0.16109453
0.0030916191 0.014894568 0.16339186
0.0039406768 0.012664874 0.16706981
0.0039050654 0.0098995455 0.16947088
0.0038662103 0.0069050016 0.17118445
0.0038601907 0.0042283107 0.17226203
0.0036245205 0.00197651 0.17520939
0.0038126823 -0.0010358535 0.17704928
0.0054096859 0.03420198 0.14766125
0.0054017515 0.032539848 0.14962195
0.0057548769 0.030739939 0.15157025
0.00690581 0.027835222 0.15417458
0.0065780454 0.025550177 0.15674797
0.0064741895 0.022815874 0.15845674
0.0061043049 0.02006527 0.15950589
0.0056941523 0.01753751 0.1609059
0.0078713354 0.015042453 0.1648397
0.0071083438 0.012377087 0.16821009
0.0068682148 0.0091007026 0.16907021
0.0069211209 0.0067937099 0.17157446
0.0064183711 0.0048139025 0.17383781
0.0064926799 0.002237173 0.17657869
0.0069071744 -0.00046459745 0.17910975
0.0079988306 0.034828145 0.14798377
0.0080744959 0.033166852 0.14999261
0.0084420182 0.031262323 0.15122871
0.0090994462 0.028310614 0.15712699
0.0082607372 0.025560698 0.15922807
0.0084286379 0.022440881 0.15999736
0.0080799563 0.019982412 0.16128387
0.010656747 0.017129455 0.16466717
0.010369712 0.014574786 0.16648404
0.0099918908 0.011704018 0.16836308
0.010084995 0.0091994097 0.16954699
0.0095455162 0.0073766191 0.17181243
0.0083770826 0.0052617108 0.17526454
0.010113367 0.0016080142 0.17947222
0.009788217 -0.0008522615 0.18152002
0.010670017 0.035326894 0.14867555
0.011075848 0.033505008 0.15015185
0.011422287 0.031423025 0.1534037
0.010966795 0.028669465 0.15846619
0.010577149 0.02574509 0.16037442
0.010767011 0.022781519 0.16123615
0.010088212 0.019786306 0.16325389
0.012617569 0.017432434 0.16565278
0.012572208 0.01474202 0.167355
0.012845322 0.011727961 0.16853359
0.013037004 0.0093522239 0.17032199
0.011722136 0.0080299126 0.17225617
0.011084648 0.0057400549 0.17686728
0.013992645 0.0017264789 0.17978002
0.013451702 0.035685346 0.14847836
0.014181359 0.03373659 0.15020394
0.01350961 0.031166958 0.15625678
0.013349012 0.028638786 0.16027103
0.012972622 0.026122004 0.16161123
0.013070713 0.02322804 0.16304186
0.013303463 0.019607218 0.16539304
0.014606662 0.017996188 0.16676395
0.014837001 0.015319597 0.16827925
0.014896284 0.012506767 0.16932257
0.015478901 0.0098568695 0.17120698
0.013567837 0.0084506208 0.1730516
0.013602624 0.0060985764 0.1768689
0.016253464 0.0025420187 0.1782898
0.016534606 0.035967309 0.14859785
0.01739501 0.034840908 0.15245833
0.015767118 0.031244066 0.15743299
0.014894702 0.026656181 0.16267745
0 0 0 1 0 0 0 1 0 0 0 1 0 0 0 0 0 239 1 0 0
