ply
format ascii 1.0
comment PCL generated
element vertex 239
property float x
property float y
property float z
element camera 1
property float view_px
property float view_py
property float view_pz
property float x_axisx
property float x_axisy
property float x_axisz
property float y_axisx
property float y_axisy
property float y_axisz
property float z_axisx
property float z_axisy
property float z_axisz
property float focal
property float scalex
property float scaley
property float centerx
property float centery
property int viewportx
property int viewporty
property float k1
property float k2
end_header
-0.027114535 0.033687349 0.14597164
-0.026466744 0.031350654 0.14578061
-0.026143882 0.029258972 0.14707413
-0.025806496 0.027115691 0.14866644
-0.025618404 0.024855593 0.1515692
-0.026731815 0.0218572 0.15514085
-0.029763872 0.017315436 0.15930025
-0.030078346 0.014581471 0.16078511
-0.029643686 0.01162145 0.16162404
-0.029381743 0.0087471716 0.16205566
-0.029924035 0.0057567945 0.16311006
-0.030740429 0.0026594633 0.16435321
-0.030706091 -3.209195e-05 0.16407722
-0.024915811 0.033959765 0.14555874
-0.023962863 0.031534113 0.14598803
-0.02344537 0.029313667 0.14676046
-0.023219801 0.027322112 0.14863926
-0.023234524 0.024843356 0.1512693
-0.023881827 0.021912962 0.15360795
-0.024794083 0.018588332 0.15769941
-0.025649 0.015798744 0.1593477
-0.025627797 0.012731957 0.16075487
-0.025597723 0.0098745357 0.16137619
-0.025721123 0.0070376373 0.16290562
-0.027525859 0.0034886855 0.16460884
-0.028422806 -0.00028978029 0.16597065
-0.026757514 -0.0039601973 0.16717201
-0.021956157 0.034183115 0.14561583
-0.020835169 0.031948704 0.14661279
-0.02075826 0.029605137 0.14754382
-0.020933531 0.027584797 0.14920545
-0.020805199 0.024912255 0.15126398
-0.021380018 0.021980958 0.15456633
-0.022391146 0.018723661 0.15777399
-0.022652389 0.016027043 0.15891796
-0.022628378 0.013471476 0.15996444
-0.023031076 0.010497499 0.16149612
-0.022915876 0.0066714026 0.16516538
-0.024131458 0.0027486864 0.16629043
-0.024631364 -0.0018253807 0.16772743
-0.023482425 -0.0040462096 0.16842863
-0.022770824 -0.0066197282 0.16927224
-0.018102419 0.034346934 0.14714469
-0.01828515 0.03219571 0.14802983
-0.018273471 0.029975696 0.14828251
-0.018596575 0.027817789 0.15042819
-0.018469157 0.025199248 0.15124904
-0.018672323 0.022395767 0.15403727
-0.01990393 0.019265544 0.15827493
-0.019740062 0.016442848 0.15915655
-0.019902013 0.014081457 0.16072111
-0.019958206 0.0098120999 0.16349883
-0.020890273 0.0056992942 0.16597454
-0.021586863 0.0027924471 0.16744031
-0.022100991 -0.00080608565 0.1690923
-0.021192512 -0.0030858412 0.16931559
-0.020764736 -0.0055513363 0.17090225
-0.015201716 0.034621783 0.1477444
-0.015577691 0.032254815 0.14827713
-0.015493928 0.030161416 0.14854237
-0.016049016 0.027564088 0.15100236
-0.01596481 0.025108218 0.1522641
-0.016147068 0.022537863 0.15442771
-0.017050024 0.019422561 0.15907192
-0.017177066 0.017068325 0.15947452
-0.017337548 0.014623477 0.16121234
-0.01714471 0.010045437 0.16446908
-0.017415496 0.0061429259 0.16677059
-0.018365728 0.0032289501 0.16876473
-0.019243952 0.0002166113 0.1695765
-0.018867088 -0.0023360907 0.17039549
-0.017617581 -0.0051451521 0.17102161
-0.012325625 0.034626782 0.14784348
-0.012677898 0.032361168 0.14845298
-0.012647805 0.03002508 0.14964159
-0.012915954 0.027467657 0.15127145
-0.013323297 0.025116734 0.15255608
-0.013531126 0.022573918 0.15446953
-0.013910527 0.020079566 0.15830305
-0.014344076 0.017465195 0.15947425
-0.014507926 0.014701307 0.16141497
-0.014914796 0.01031206 0.16550784
-0.016054135 0.0056561884 0.16817035
-0.016670482 0.0031202072 0.16906747
-0.017044356 0.00108085 0.17096102
-0.016952198 -0.001716651 0.17063572
-0.014942002 -0.0046164468 0.17053066
-0.0099035911 0.034707066 0.14758919
-0.0098171486 0.032554321 0.14875716
-0.010055731 0.030222086 0.15062217
-0.010488064 0.027357927 0.15185142
-0.010118806 0.025185533 0.15334469
-0.010363943 0.022712851 0.15532936
-0.010191303 0.020359993 0.15841331
-0.011018179 0.017733645 0.15850547
-0.011093531 0.014916468 0.16151139
-0.011244186 0.011975427 0.16563411
-0.013532795 0.0060675363 0.16827658
-0.013909656 0.0036212043 0.16959308
-0.014366904 0.0009574127 0.17036486
-0.013956877 -0.0011787147 0.17046523
-0.012694051 -0.0040952852 0.17122456
-0.0071792183 0.034878131 0.14779668
-0.0076084789 0.03259382 0.14933731
-0.0077593443 0.030154057 0.15143794
-0.0073649976 0.027795823 0.15213887
-0.0070798374 0.025512761 0.15330805
-0.0072436854 0.023297066 0.15672471
-0.0074147196 0.020422047 0.15930219
-0.007507313 0.01775918 0.15948449
-0.0076832012 0.014838624 0.16183712
-0.0075388355 0.011451621 0.16612554
-0.010179049 0.0062666484 0.16928361
-0.011571781 0.0037439268 0.1706326
-0.011864755 0.0017428664 0.17112802
-0.011472162 -0.00061854039 0.17177454
-0.011623118 -0.0031180559 0.17319573
-0.004510182 0.035078362 0.14772522
-0.0050344784 0.032194439 0.14998978
-0.0052779685 0.030317932 0.15159319
-0.0047825403 0.028144419 0.15330312
-0.004748466 0.025651872 0.15532066
-0.0043938048 0.023017589 0.15936247
-0.0048135789 0.020698681 0.16025491
-0.0050416356 0.017945418 0.16081817
-0.0048356885 0.014670168 0.16327691
-0.004817294 0.011801241 0.1660537
-0.0059601571 0.0073261713 0.16845989
-0.0077259568 0.0046162256 0.17166093
-0.0087475488 0.0017207008 0.17159645
-0.0090337545 -0.00045805797 0.1719536
-0.0066775731 -0.0041797636 0.17513277
-0.0021182143 0.035069931 0.14816308
-0.0023770803 0.03226734 0.14930069
-0.002099294 0.030636553 0.15157273
-0.0020420451 0.028277315 0.15321557
-0.001955837 0.025967082 0.15548581
-0.0020946732 0.023083935 0.15957676
-0.0023152889 0.020851452 0.16062593
-0.0022646599 0.017808054 0.16181201
-0.0018933945 0.014637472 0.16377766
-0.0021545619 0.01167307 0.16690193
-0.0028312134 0.0080839461 0.16898948
-0.0027610546 0.0060980618 0.17162231
-0.0036446382 0.003440595 0.17306282
-0.0029638028 0.00080178026 0.17418578
-0.0025882649 -0.0033691439 0.17798519
-0.00071151613 0.033336099 0.14906541
4.4098946e-05 0.031351037 0.15062696
-0.00016880687 0.029823065 0.15302055
0.0011479385 0.028313154 0.15467033
0.0013865299 0.025659887 0.15699956
0.00088552904 0.022993943 0.15905847
0.00039696711 0.020900028 0.16120872
0.00019389688 0.017981129 0.16271369
0.00045349603 0.015030819 0.16415797
0.00074527616 0.011862006 0.16719574
0.0003804123 0.0086241905 0.16925222
0.0003261567 0.0064214678 0.17200877
1.7688715e-05 0.0042395857 0.17403634
0.00021107956 0.0019711473 0.17636961
7.3651361e-05 -0.0014389191 0.17864706
0.0020173092 0.034336228 0.14902954
0.0025217668 0.032459918 0.15085319
0.0030746947 0.03057429 0.15306826
0.0045418423 0.028031252 0.15515001
0.0043931147 0.02571284 0.15698355
0.0038792519 0.023270657 0.15868481
0.0033379772 0.020945072 0.16006377
0.0028010644 0.018123504 0.16321768
0.0028243943 0.015123356 0.16471146
0.0039492454 0.012458095 0.16782899
0.0039090384 0.0097174039 0.16997653
0.0036645473 0.0065624695 0.17186834
0.0034955228 0.0044874861 0.17395552
0.0029821745 0.0026380396 0.17691974
0.0030695808 -0.00028518582 0.17898695
0.0049457164 0.035142854 0.14891091
0.0050250688 0.033461936 0.15084381
0.0055191792 0.031603333 0.15262485
0.0070831929 0.027770402 0.15566537
0.0065821623 0.025831154 0.15825647
0.0062162974 0.023529764 0.16019595
0.0057981461 0.020945121 0.1615362
0.0052667293 0.018492827 0.16314389
0.0076126279 0.015177081 0.16689375
0.0068782247 0.01230893 0.1696645
0.0064790826 0.0091357166 0.17049244
0.006345659 0.0067751026 0.17282604
0.0057447236 0.0051288414 0.17533618
0.0059439237 0.0026158318 0.17809713
0.0061364411 0.00026921157 0.18068582
0.0074409726 0.035628609 0.14902368
0.0076414212 0.034054343 0.15102609
0.0080778515 0.032201286 0.15220563
0.0091680111 0.028529869 0.15816772
0.0080489367 0.026310403 0.1604899
0.0078123924 0.023374768 0.16158138
0.0075760707 0.020895781 0.16281672
0.010283943 0.017111849 0.1670033
0.0099069411 0.014321663 0.16825533
0.0096293259 0.0112549 0.16950065
0.0095837573 0.0090026176 0.17080882
0.0090067703 0.0071421908 0.17304234
0.0078756744 0.005016746 0.17641619
0.009822079 0.00089694286 0.17962225
0.0092886435 -0.0011430362 0.18183964
0.010007454 0.035776652 0.14937209
0.010411058 0.033972416 0.15073881
0.011142804 0.03161006 0.15396991
0.010884523 0.028969027 0.15960565
0.010216291 0.026405489 0.1615333
0.01027272 0.023461081 0.16245316
0.0096568326 0.020215441 0.16439724
0.012291878 0.016995467 0.16709684
0.012085175 0.014025779 0.16837727
0.012306983 0.010882599 0.16924326
0.012405692 0.0086781168 0.17132251
0.011273293 0.0073900647 0.17311361
0.010863275 0.0045489231 0.17706528
0.013681367 -0.00028983981 0.17864223
0.012584333 0.035727162 0.14877789
0.013401903 0.033518739 0.15025619
0.013531125 0.031022681 0.15726577
0.013216982 0.028879562 0.1615558
0.012666355 0.026529444 0.16278467
0.012811661 0.02310749 0.16404833
0.013274159 0.01886927 0.16643347
0.014457092 0.016854461 0.16705915
0.01456669 0.013934684 0.16830407
0.014300803 0.011243258 0.16939966
0.014911207 0.0089099407 0.17191239
0.013054173 0.0074367863 0.17353427
0.013366199 0.0042158742 0.17649701
0.015522056 -9.578358e-06 0.17654634
0.015647495 0.035279091 0.14832138
0.01720117 0.034130119 0.15196173
0.015685862 0.031174753 0.15851077
0.014705423 0.026721284 0.16374043
0 0 0 1 0 0 0 1 0 0 0 1 0 0 0 0 0 239 1 0 0
