ply
format ascii 1.0
comment PCL generated
element vertex 239
property float x
property float y
property float z
element camera 1
property float view_px
property float view_py
property float view_pz
property float x_axisx
property float x_axisy
property float x_axisz
property float y_axisx
property float y_axisy
property float y_axisz
property float z_axisx
property float z_axisy
property float z_axisz
property float focal
property float scalex
property float scaley
property float centerx
property float centery
property int viewportx
property int viewporty
property float k1
property float k2
end_header
-0.02740211 0.033868648 0.1469377
-0.026804188 0.031544704 0.14659257
-0.02635685 0.029373776 0.14770377
-0.02586345 0.027062699 0.1489791
-0.025352994 0.024631416 0.15129806
-0.02632283 0.021773873 0.15485063
-0.029424712 0.016926471 0.15905285
-0.029764883 0.014148382 0.16040426
-0.029367065 0.011147168 0.16112769
-0.02913516 0.0082627796 0.16151468
-0.029750321 0.0051915143 0.16219343
-0.030718297 0.0020054393 0.16299152
-0.030741079 -0.00066074263 0.16242196
-0.025262157 0.034110632 0.14629661
-0.024286127 0.031681146 0.14656653
-0.02370077 0.0294358 0.14715649
-0.023301255 0.0272977 0.14879078
-0.023045743 0.024539674 0.15082939
-0.023581542 0.021667974 0.15307499
-0.024506757 0.018268686 0.15709455
-0.025458211 0.015351358 0.15859452
-0.025477258 0.012226435 0.15984327
-0.025515597 0.0093409121 0.16033307
-0.02554672 0.0062701576 0.1615161
-0.027425839 0.0027350825 0.16317651
-0.028485438 -0.0010435301 0.16432104
-0.026575768 -0.0047496478 0.16531242
-0.022299916 0.034252863 0.14600281
-0.021069959 0.032010932 0.14685719
-0.020964427 0.029652975 0.14772314
-0.021011744 0.027542165 0.14933452
-0.020677762 0.024679262 0.15090962
-0.021048918 0.021557273 0.15393311
-0.022142382 0.018300796 0.15708749
-0.022449248 0.015546628 0.15803954
-0.022472188 0.012942144 0.15892734
-0.022932382 0.0098762345 0.16024652
-0.02261023 0.0054345126 0.16320322
-0.024063069 0.0018184772 0.16445141
-0.024366401 -0.0026328526 0.16580993
-0.023046134 -0.0048773517 0.16662936
-0.022269992 -0.007373116 0.16776174
-0.018131386 0.034164365 0.14696185
-0.018332656 0.032060031 0.14789256
-0.01840052 0.029894026 0.14818588
-0.018601753 0.027738579 0.15037955
-0.018394127 0.025017994 0.15101601
-0.018488806 0.021979252 0.15356837
-0.019762879 0.018779695 0.15771724
-0.019587167 0.015939306 0.15841296
-0.019741407 0.013480678 0.15974754
-0.019724773 0.0086684022 0.16168892
-0.020828923 0.0044281897 0.16395934
-0.021546943 0.0018318997 0.16579895
-0.021860205 -0.0015742533 0.16716011
-0.020809723 -0.0038095238 0.1676572
-0.020422539 -0.0060938671 0.16954213
-0.0151518 0.034289625 0.14736488
-0.015577343 0.03195579 0.14790787
-0.01554111 0.029877029 0.14818257
-0.016024468 0.027381731 0.15090357
-0.015924878 0.024872549 0.15206741
-0.01612998 0.02216655 0.15416406
-0.017048556 0.018964393 0.15870646
-0.017148908 0.016591938 0.159016
-0.017279726 0.013980699 0.16045867
-0.017177299 0.0088281222 0.16278537
-0.017526422 0.0053017284 0.16514917
-0.018368356 0.0025049774 0.1672935
-0.018948007 -0.00048129403 0.16801332
-0.018582627 -0.002840922 0.16912524
-0.017289933 -0.0055275047 0.16978092
-0.012273353 0.034302782 0.14753126
-0.012650386 0.031985372 0.14804849
-0.012718847 0.029631682 0.1492897
-0.012910041 0.027226692 0.15111522
-0.013267917 0.024830298 0.15235831
-0.013537356 0.022186043 0.1543083
-0.014015351 0.019794371 0.1582709
-0.014396493 0.017096225 0.15934955
-0.014586717 0.014087494 0.16096029
-0.015154324 0.0092620114 0.16402657
-0.016205102 0.0050580865 0.16672298
-0.016668171 0.0026076015 0.16769628
-0.016848946 0.00068530766 0.16958469
-0.016669419 -0.0020773148 0.16968223
-0.014660635 -0.0048834304 0.16919294
-0.009900989 0.034352209 0.14719845
-0.0097846845 0.032111544 0.14821795
-0.010034435 0.029696418 0.14993294
-0.010495813 0.026869457 0.15123639
-0.010126268 0.024683541 0.15284391
-0.010430403 0.022314087 0.15533005
-0.010387286 0.020359902 0.15893224
-0.01115662 0.017747818 0.15900768
-0.011228948 0.014542156 0.16163658
-0.011450469 0.011152525 0.16532248
-0.013760494 0.0056637432 0.16679037
-0.013971781 0.0032632353 0.16813695
-0.014292132 0.00063377095 0.1687845
-0.013847087 -0.0014344776 0.16871582
-0.012363894 -0.0043294579 0.1693521
-0.0071491804 0.034451883 0.14723462
-0.0075645046 0.032034252 0.14867805
-0.0076870229 0.029471407 0.15044719
-0.0073780338 0.027051389 0.15116099
-0.0071540559 0.024821982 0.15259947
-0.0073980899 0.022911815 0.15665019
-0.0076476783 0.020599511 0.16004707
-0.0079789096 0.018027015 0.16074191
-0.0078623882 0.014620896 0.16243401
-0.0074175838 0.011109037 0.16648722
-0.010337169 0.0061013908 0.16756386
-0.011594383 0.0035614728 0.1688107
-0.011794449 0.001607377 0.16910589
-0.011164143 -0.00075271726 0.1693318
-0.010924327 -0.0032667026 0.17086147
-0.0045102136 0.034677971 0.14710784
-0.0049999859 0.031541307 0.1493215
-0.0052622571 0.02945062 0.15044954
-0.0047784843 0.027326411 0.15225378
-0.00482204 0.025070064 0.15463661
-0.0044930833 0.022881659 0.1594177
-0.0049857837 0.0208342 0.16068566
-0.0053641293 0.018115873 0.1616912
-0.0049382444 0.014367703 0.16367924
-0.0047265906 0.011633489 0.16643167
-0.0057420102 0.0076764971 0.16826338
-0.0077725197 0.0047593969 0.16996339
-0.008669707 0.0018161988 0.16958512
-0.0087936437 -0.00041084702 0.16963331
-0.0064257383 -0.0044318945 0.17345333
-0.0021113988 0.034636606 0.14748074
-0.0023719305 0.031733487 0.14864041
-0.0021361816 0.029675364 0.15041767
-0.0020299475 0.027350457 0.15224223
-0.0020355952 0.02535763 0.15478849
-0.0022120643 0.022955474 0.15959087
-0.0024406274 0.020800766 0.16078825
-0.0024661196 0.017788371 0.16235796
-0.0019875455 0.014545267 0.16423559
-0.0020219183 0.011682039 0.16725393
-0.0025339399 0.0083188154 0.16901144
-0.0025071341 0.0061914707 0.17152803
-0.0033513799 0.0034217644 0.17264639
-0.0028059403 0.00079118542 0.17375948
-0.0026522668 -0.0037007646 0.17703815
-0.00089564885 0.033176914 0.14857747
-0.00018166701 0.031186949 0.14988914
-0.00024412219 0.029001847 0.15187618
0.00087048888 0.027816098 0.15409078
0.0011560834 0.025574232 0.15687507
0.00068808353 0.022806715 0.15893546
0.00034332697 0.02088806 0.16130963
9.1288341e-05 0.018038658 0.16313006
0.00036004031 0.015045591 0.16457944
0.00089334382 0.011742072 0.16732278
0.00060006336 0.0085982829 0.16924684
0.00067289401 0.0063364236 0.17194384
0.00039282782 0.0040900423 0.17384033
0.00046984368 0.0015988771 0.1759648
0.00019171975 -0.0020857928 0.17778173
0.0016940326 0.034399241 0.14863521
0.002285613 0.032332547 0.15020998
0.0029224746 0.030133897 0.1521482
0.0040851287 0.027467892 0.15428284
0.0040421616 0.025246873 0.15617651
0.0035611843 0.022924459 0.15806906
0.0030631339 0.020646296 0.15954386
0.0027814815 0.018073646 0.1632484
0.0027591675 0.015124634 0.16490375
0.0041465326 0.011958931 0.16719683
0.0042554592 0.0090764044 0.1691865
0.0040211543 0.006285565 0.1716686
0.0038493983 0.0041744621 0.17375465
0.0032944821 0.0019910478 0.17636244
0.0033173724 -0.0012101977 0.17800346
0.0046319943 0.035096969 0.14827685
0.0047887093 0.033299096 0.15011124
0.0053702937 0.031256106 0.15166314
0.0065841572 0.027114175 0.15431738
0.006416108 0.025216693 0.15690306
0.0062223114 0.022812899 0.15876131
0.0058026989 0.020276122 0.16024993
0.0053382958 0.017980229 0.16223268
0.007660775 0.014293988 0.16550437
0.0071286974 0.011505052 0.16836831
0.0068265935 0.0083346628 0.16972768
0.006717287 0.0062694247 0.17260192
0.006114583 0.0047052116 0.17508346
0.0062298258 0.00172008 0.17745352
0.0063440655 -0.00078552216 0.17988144
0.0069960896 0.035418969 0.1480387
0.0073641911 0.033752449 0.14997996
0.0078497874 0.031835202 0.15104906
0.0091893505 0.027596941 0.15636638
0.0082503548 0.025479041 0.15876375
0.0079593481 0.022442438 0.15950459
0.0077513573 0.019993259 0.16094445
0.010443607 0.015738685 0.16503003
0.010022142 0.013177944 0.16671391
0.0098886499 0.010290965 0.16843538
0.0099471062 0.0082770875 0.17029835
0.0094066914 0.0066510933 0.17284428
0.0080763297 0.0046940744 0.1762546
0.0097694211 0.00067949382 0.18000047
0.0090731606 -0.0014867412 0.18197308
0.0094423285 0.035362527 0.14792274
0.0098931827 0.03350202 0.1491957
0.010975241 0.030814815 0.15223454
0.011126072 0.02796486 0.157546
0.010479718 0.025485089 0.15944155
0.010487085 0.022311622 0.1599174
0.0099049397 0.019135183 0.16216452
0.012437967 0.015521424 0.16503578
0.012256544 0.012753177 0.16677855
0.012586275 0.0098357154 0.16833232
0.012788457 0.0081039574 0.17100124
0.011630406 0.0071023405 0.17314091
0.010781076 0.0047973311 0.17754576
0.013736381 7.1237766e-05 0.18010391
0.011752088 0.035088968 0.14689189
0.012589658 0.032875452 0.1481708
0.013550344 0.030230174 0.15532432
0.013548811 0.028013993 0.15987691
0.013069663 0.025504289 0.16064867
0.013209547 0.021672368 0.16145822
0.013477753 0.017417317 0.16424018
0.014607158 0.015449597 0.16513264
0.014774911 0.012791859 0.16692366
0.01458096 0.010268357 0.16844836
0.015322762 0.0084734019 0.17153934
0.013326508 0.0073727383 0.17370816
0.013372085 0.0047119814 0.17755567
0.015871681 0.00049797981 0.17841007
0.014600764 0.034502085 0.1459254
0.016433807 0.033433054 0.14913291
0.01570089 0.030589331 0.15684521
0.015269961 0.025456281 0.16140264
0 0 0 1 0 0 0 1 0 0 0 1 0 0 0 0 0 239 1 0 0
