ply
format ascii 1.0
comment PCL generated
element vertex 239
property float x
property float y
property float z
element camera 1
property float view_px
property float view_py
property float view_pz
property float x_axisx
property float x_axisy
property float x_axisz
property float y_axisx
property float y_axisy
property float y_axisz
property float z_axisx
property float z_axisy
property float z_axisz
property float focal
property float scalex
property float scaley
property float centerx
property float centery
property int viewportx
property int viewporty
property float k1
property float k2
end_header
-0.027484924 0.033866238 0.14738958
-0.026943589 0.031550005 0.14720251
-0.026441531 0.02938908 0.14854734
-0.025917608 0.027018065 0.14978042
-0.025681892 0.024594702 0.15178402
-0.026986342 0.021381978 0.1550331
-0.030380312 0.015664505 0.15825418
-0.030754907 0.012818932 0.1593224
-0.030203206 0.0097732795 0.15981312
-0.029750643 0.0068098027 0.15984914
-0.030437645 0.0036357413 0.16022891
-0.031658776 0.00044855298 0.16119419
-0.031762686 -0.0021744231 0.16088399
-0.025394006 0.034003489 0.14660479
-0.024419958 0.031541813 0.1470149
-0.023843965 0.02925564 0.14763747
-0.023385158 0.026967991 0.14902943
-0.023388058 0.02449028 0.15104611
-0.024154769 0.021411015 0.15334956
-0.025053941 0.017617445 0.15721567
-0.026122445 0.014406724 0.15834463
-0.02615088 0.011144851 0.1591423
-0.025991339 0.0081229219 0.15943274
-0.025916785 0.0049109366 0.16038865
-0.028187398 0.0011998974 0.16139987
-0.029660495 -0.0025223645 0.16301043
-0.027456958 -0.0059359442 0.16491933
-0.022452043 0.033993188 0.14609063
-0.021074746 0.031648945 0.14678653
-0.020952241 0.029302586 0.14757848
-0.021054439 0.027074149 0.14912939
-0.020996753 0.024293866 0.1508196
-0.021693196 0.021373782 0.15431191
-0.022719061 0.017848082 0.15737359
-0.022929555 0.014845443 0.15801431
-0.023003375 0.012114565 0.1585113
-0.023415396 0.0087770913 0.1596676
-0.023295451 0.003988436 0.1626638
-0.024762202 0.00034690817 0.16349903
-0.02510315 -0.0038084686 0.16548574
-0.023882907 -0.005887921 0.16663238
-0.023172038 -0.0082248729 0.16794109
-0.018160023 0.033656117 0.14695956
-0.018358229 0.03158731 0.14776169
-0.018414989 0.029496856 0.1479646
-0.01863019 0.027258189 0.15002955
-0.018569035 0.024349349 0.15061034
-0.019021034 0.021788023 0.15376793
-0.020527231 0.018618776 0.15829872
-0.020101923 0.015546298 0.15886775
-0.020261779 0.012912088 0.15996133
-0.020467708 0.0075865933 0.16172601
-0.021595882 0.0029739107 0.16346999
-0.022169899 0.0003775582 0.16503243
-0.022563895 -0.0027209921 0.1666171
-0.021599373 -0.0048566363 0.1672744
-0.021108093 -0.0069368463 0.1692977
-0.015282806 0.033922419 0.14792444
-0.015660524 0.031560387 0.14827621
-0.015576829 0.029536596 0.14844099
-0.01613717 0.026812484 0.15068793
-0.016122648 0.024268294 0.15174741
-0.016556911 0.021873811 0.15397562
-0.017931445 0.019178437 0.15959466
-0.017794389 0.016488774 0.15984815
-0.017842855 0.013634732 0.16108607
-0.017856674 0.0078790952 0.16315964
-0.018359859 0.0039750696 0.16476345
-0.018969974 0.001105441 0.16645707
-0.019451784 -0.0018186878 0.16659343
-0.019072311 -0.0039994325 0.1680097
-0.017914025 -0.0065612197 0.16903052
-0.012454092 0.034436733 0.14887068
-0.012787651 0.031910714 0.14917488
-0.012758893 0.029458661 0.15003622
-0.013037533 0.026740063 0.15130539
-0.013568266 0.024435204 0.1523909
-0.014042713 0.022020729 0.15414746
-0.014667737 0.019656047 0.15851645
-0.015001323 0.01684083 0.1597918
-0.015069584 0.013621005 0.16144603
-0.015982907 0.0084547121 0.16433021
-0.017107209 0.0036223438 0.16600114
-0.017342871 0.0011868533 0.16649976
-0.017313365 -0.0005988499 0.16776849
-0.017115664 -0.003342449 0.16797432
-0.015213248 -0.0060104048 0.16803953
-0.010091634 0.034706984 0.14866418
-0.0099981176 0.032532655 0.14973499
-0.01014787 0.029885387 0.15111569
-0.010601302 0.02691468 0.15213069
-0.010477846 0.024906108 0.15352274
-0.010866775 0.022296017 0.15534616
-0.010363302 0.019841045 0.15839434
-0.011455311 0.017168928 0.15866286
-0.011442834 0.0138602 0.16139477
-0.011808756 0.01054892 0.16510169
-0.014789541 0.0044292486 0.16563532
-0.014775156 0.0020164065 0.16678695
-0.014977907 -0.00061120064 0.16736226
-0.014526114 -0.0026490388 0.16745712
-0.012967181 -0.0054298164 0.16830555
-0.0072731702 0.03482537 0.14853626
-0.0077723442 0.032419417 0.15019572
-0.0079380684 0.029789362 0.15192002
-0.0076638949 0.02746496 0.15236862
-0.0075321728 0.025091708 0.15339139
-0.0075412183 0.02271542 0.15678979
-0.007560845 0.020083502 0.15938014
-0.0078327321 0.01738406 0.1596587
-0.0079643615 0.014145012 0.16180959
-0.0079631014 0.010632437 0.16647562
-0.011300728 0.0047623874 0.16621484
-0.01251823 0.0022770024 0.16735585
-0.012635379 0.00043862592 0.16793893
-0.012012028 -0.001850381 0.16830626
-0.011660497 -0.0043158946 0.16984899
-0.004428321 0.035046645 0.14789228
-0.0051937019 0.031710722 0.15058242
-0.0055911806 0.029829465 0.1518829
-0.0051103299 0.027416874 0.15297472
-0.0050085434 0.024834534 0.15491335
-0.0045196246 0.022293469 0.15913378
-0.0050833276 0.02028954 0.16009936
-0.0054698498 0.017533481 0.16086531
-0.0053182333 0.014148366 0.16366078
-0.0053116987 0.011351762 0.16693103
-0.0062702824 0.0063831862 0.16878033
-0.0086881202 0.003525502 0.16879164
-0.0096352017 0.00064360432 0.16836944
-0.0097209653 -0.0014785589 0.16865772
-0.0070141717 -0.0057112919 0.17235036
-0.0020589018 0.034978546 0.14823508
-0.0025389814 0.031850733 0.1493814
-0.0021719069 0.029536804 0.15081091
-0.0023206067 0.027055493 0.15244356
-0.0021726098 0.024870155 0.15485856
-0.0022997935 0.022320557 0.15932363
-0.0025419199 0.020318389 0.16058148
-0.0027531227 0.017423855 0.1621836
-0.0025600675 0.014393074 0.16449073
-0.0024153776 0.011051917 0.16796726
-0.0029767924 0.0073871189 0.16965955
-0.0027175199 0.0049939011 0.17179944
-0.0034547814 0.0019809823 0.17213044
-0.0028308299 -0.00060849538 0.17305693
-0.002744894 -0.0053396425 0.17602067
-0.00038392609 0.033165198 0.14876549
0.00053320226 0.031190244 0.14983462
6.0259285e-05 0.02883259 0.15197125
0.0013287481 0.027442994 0.15419163
0.0014272128 0.024979277 0.15690878
0.00080697139 0.022196066 0.15882444
0.00028915884 0.020365668 0.16108161
-0.00019168464 0.01748856 0.1628498
-0.0001794383 0.014630715 0.16469105
0.00054866337 0.011102319 0.16783415
0.00024743559 0.0078893658 0.16971183
0.00033098648 0.0053129168 0.1720316
0.00024325195 0.0028011755 0.17347972
0.00050424127 0.00017147843 0.17561649
0.00028040746 -0.0037395249 0.17702869
0.0021942342 0.034851309 0.14886342
0.0028011645 0.032727063 0.15040456
0.0033610605 0.030447194 0.15241773
0.0042761983 0.027375648 0.15514667
0.0043694125 0.025096582 0.15666509
0.0037665821 0.022568028 0.15803246
0.003241983 0.020309918 0.15946494
0.0024883945 0.017417455 0.1630183
0.0022141174 0.01455062 0.16484155
0.0039579929 0.011371743 0.16770072
0.004024738 0.0085461084 0.16935547
0.0037027758 0.005518001 0.17169793
0.0036680847 0.0030890789 0.1736619
0.0031994719 0.00064491713 0.17612927
0.0033730764 -0.0026750681 0.17752571
0.0051059714 0.036036842 0.14900745
0.0052475473 0.034042664 0.15061006
0.0057357396 0.031879291 0.15216562
0.0063456581 0.02741711 0.15531036
0.0063816914 0.025259802 0.15733908
0.0062910533 0.022782477 0.15899691
0.0058569256 0.020169903 0.16048999
0.0052038301 0.017643018 0.16223454
0.0076256068 0.013903693 0.16654514
0.0069813221 0.01124354 0.16913845
0.0065775681 0.0082583502 0.17026013
0.0064072921 0.0057870387 0.17289138
0.0058907629 0.0038159441 0.17509525
0.0059935716 0.00050788728 0.17741157
0.0062585222 -0.002205468 0.17930768
0.0074666212 0.036740068 0.14915472
0.0077674966 0.034816712 0.1508877
0.0082564326 0.032810509 0.15179591
0.0086919442 0.028085338 0.15717733
0.0081764115 0.025600115 0.15909311
0.0077817342 0.022668295 0.15988399
0.0075805569 0.020158399 0.16144441
0.010367404 0.01538115 0.16608879
0.0098267524 0.01286507 0.16780145
0.0096505703 0.010345415 0.16934274
0.0096150953 0.0082521681 0.17091668
0.0089913644 0.0063285767 0.17307974
0.0078324554 0.0038854582 0.17627649
0.0096989134 -0.0007296463 0.1790248
0.0089600235 -0.0029546442 0.18047951
0.0099433139 0.036960106 0.14942974
0.010374992 0.034958337 0.15040374
0.010903313 0.032095719 0.15305904
0.010561465 0.028531028 0.15829721
0.010240331 0.025715882 0.15960018
0.010205098 0.02276196 0.16039601
0.0095156869 0.019522671 0.16292018
0.012300646 0.01532594 0.16606072
0.012040975 0.01263557 0.16790122
0.012279626 0.010189062 0.16938268
0.012466048 0.0083971806 0.17169999
0.011137214 0.0067158844 0.17328624
0.010732573 0.0037382606 0.1770733
0.013901728 -0.0011882276 0.17849326
0.012364423 0.037105475 0.14873451
0.013168124 0.034794476 0.14963375
0.013156231 0.030462027 0.15556316
0.013842803 0.027936796 0.15913354
0.013024675 0.025738914 0.16017033
0.012864521 0.021897176 0.1619419
0.013363021 0.017238043 0.16503741
0.014408604 0.015329306 0.16625144
0.014484489 0.012810731 0.16809461
0.01412527 0.010625076 0.16960888
0.014852841 0.0090585817 0.17241669
0.012831 0.007036123 0.1737114
0.013155919 0.0036003799 0.17674835
0.015857188 -0.00040704905 0.17667501
0.015319797 0.036973327 0.14805609
0.017177977 0.035186112 0.15097676
0.015969124 0.029991316 0.15582746
0.015363619 0.025797252 0.16092652
0 0 0 1 0 0 0 1 0 0 0 1 0 0 0 0 0 239 1 0 0
