ply
format ascii 1.0
comment PCL generated
element vertex 239
property float x
property float y
property float z
element camera 1
property float view_px
property float view_py
property float view_pz
property float x_axisx
property float x_axisy
property float x_axisz
property float y_axisx
property float y_axisy
property float y_axisz
property float z_axisx
property float z_axisy
property float z_axisz
property float focal
property float scalex
property float scaley
property float centerx
property float centery
property int viewportx
property int viewporty
property float k1
property float k2
end_header
-0.027568903 0.033671312 0.14763451
-0.027012089 0.031326305 0.1474741
-0.026397537 0.029104792 0.14892662
-0.025745478 0.02668114 0.15013036
-0.02545133 0.024053521 0.15157475
-0.02680007 0.020651085 0.15435003
-0.030801702 0.014951701 0.15769887
-0.031287327 0.012271529 0.15907364
-0.030794231 0.0092919441 0.15995562
-0.030440751 0.0063385637 0.16051546
-0.031429391 0.0031865791 0.16147314
-0.032847818 -1.4533471e-05 0.16282967
-0.033192806 -0.002703082 0.16255923
-0.025536582 0.03380337 0.14675729
-0.024494136 0.031271107 0.14719789
-0.023836397 0.028932426 0.1478565
-0.023264093 0.026608709 0.14914384
-0.023158614 0.024069658 0.15076081
-0.023879796 0.020805778 0.15274766
-0.025032222 0.01686012 0.15661502
-0.026489342 0.01370911 0.1579006
-0.026680008 0.010547228 0.15911606
-0.026569152 0.0074242032 0.16000333
-0.026523277 0.004151715 0.16130038
-0.029231956 0.00057070452 0.16265762
-0.03081849 -0.0032513307 0.16431713
-0.027701044 -0.0069821477 0.16510017
-0.02258927 0.033764049 0.14613496
-0.021131266 0.031284619 0.14686595
-0.020965319 0.02894311 0.14764912
-0.02098022 0.026728462 0.14919524
-0.020761888 0.023959404 0.15062679
-0.021499559 0.020784141 0.15387689
-0.022695599 0.017106147 0.15682445
-0.023111073 0.014079187 0.15764202
-0.023362726 0.011406362 0.15839912
-0.023958206 0.0080750128 0.16017944
-0.023834186 0.0033970142 0.16357528
-0.025325583 -0.00031754968 0.16422938
-0.025365002 -0.0047085988 0.16568789
-0.024160862 -0.0065798275 0.1669572
-0.02341697 -0.008818836 0.16831754
-0.018243928 0.033304576 0.14706527
-0.018401798 0.031233778 0.14780021
-0.01844684 0.029159622 0.14800428
-0.018610712 0.026972238 0.15011577
-0.018488523 0.024104746 0.15072916
-0.018928016 0.021405123 0.15365034
-0.020496042 0.017855456 0.1577121
-0.020131554 0.014746128 0.15830487
-0.020398395 0.012186527 0.1595646
-0.02085026 0.0068790088 0.16231707
-0.022164537 0.0025224879 0.16437396
-0.022762038 -0.00011492723 0.1657384
-0.023135457 -0.003346042 0.1671177
-0.022068072 -0.0053415168 0.16781479
-0.021671189 -0.0073887613 0.16986962
-0.015303335 0.033493303 0.14790116
-0.015694063 0.031150749 0.14821239
-0.015642701 0.029118868 0.14828129
-0.016163239 0.026608011 0.1509075
-0.016126134 0.024115277 0.15202118
-0.016584888 0.021666942 0.15407346
-0.017914375 0.018367454 0.15898739
-0.017794188 0.015755331 0.15932511
-0.017882306 0.012944075 0.16068234
-0.017908821 0.007101309 0.16337526
-0.018771796 0.0034544545 0.16550671
-0.019625917 0.00065686076 0.16732591
-0.020105781 -0.0021818727 0.16735597
-0.019658161 -0.0042874194 0.16875169
-0.018489765 -0.0067806258 0.17000796
-0.012397748 0.033862714 0.14830093
-0.012719453 0.031361889 0.14867763
-0.012766063 0.028940076 0.14968328
-0.013093565 0.026499026 0.15144707
-0.013619998 0.024308665 0.15262945
-0.014076701 0.021841381 0.1541826
-0.014703593 0.01927066 0.1582918
-0.015068044 0.016372388 0.15961215
-0.015142858 0.013142765 0.16145262
-0.015968869 0.0076276595 0.16421601
-0.017547579 0.0031206908 0.16654074
-0.018028617 0.0008209708 0.16735558
-0.018078731 -0.00096023281 0.16857371
-0.017821431 -0.0036009967 0.16871007
-0.015790714 -0.0060636373 0.16888346
-0.010042226 0.034156952 0.14811057
-0.0099753905 0.031843442 0.14881994
-0.010166632 0.029290391 0.15044093
-0.010664403 0.026492974 0.15180455
-0.010531317 0.024578026 0.15322706
-0.01088309 0.022088422 0.15527806
-0.010326267 0.019631879 0.15850531
-0.011463595 0.017019253 0.15896142
-0.011464761 0.013689001 0.16193117
-0.011888593 0.010239889 0.16551442
-0.015091601 0.0036583163 0.16602746
-0.015364637 0.0015390487 0.16758227
-0.015898315 -0.00093226234 0.16814521
-0.015387824 -0.0027904955 0.16817628
-0.013610238 -0.0054204334 0.16912568
-0.0072715459 0.034315329 0.14833474
-0.00783954 0.031665608 0.14937864
-0.0079567377 0.029174054 0.15111475
-0.0077367066 0.027023977 0.15173402
-0.0076420512 0.024700873 0.15286934
-0.0076949275 0.022422858 0.15668276
-0.0076283282 0.019977797 0.15961336
-0.0078587318 0.017150389 0.16017112
-0.0078908755 0.013983354 0.16246386
-0.007708271 0.01071013 0.16727795
-0.012263766 0.0043262378 0.1666594
-0.013441378 0.0019636946 0.16796649
-0.013565704 0.00028885531 0.16853651
-0.012864323 -0.0018710677 0.1688938
-0.012366556 -0.0042028013 0.17056674
-0.0045640832 0.034247342 0.14764683
-0.0053450707 0.030880846 0.14986107
-0.0057277377 0.029153913 0.15105385
-0.0052335849 0.027039507 0.15240374
-0.0052156644 0.024571491 0.15449676
-0.0046658795 0.022213118 0.15921234
-0.005192149 0.020304259 0.1603736
-0.0055183121 0.017467367 0.16136147
-0.0052053318 0.014073736 0.16418947
-0.0051294328 0.011236005 0.16748793
-0.0060658213 0.0067147613 0.16929524
-0.0096078888 0.0036314828 0.16893432
-0.010575944 0.00075897301 0.16870317
-0.010547089 -0.0013661697 0.16905509
-0.0075071529 -0.0056595365 0.17284906
-0.0022019343 0.033919342 0.14767146
-0.0028319308 0.030981183 0.14872633
-0.0023709752 0.029141979 0.15066187
-0.0024517612 0.026799219 0.15212207
-0.0024079001 0.024677372 0.15468307
-0.0025276297 0.022212042 0.15957813
-0.0027734367 0.020355012 0.16102232
-0.0028221135 0.017507412 0.1627467
-0.0025044456 0.014385256 0.1649282
-0.0022545168 0.011045009 0.16877788
-0.0025646612 0.0076480806 0.17043637
-0.0024119713 0.0050245686 0.17245083
-0.0034166684 0.0022327937 0.17277206
-0.0030322389 -0.00036804509 0.17370799
-0.002735391 -0.0056981919 0.17603233
-0.00076211948 0.032074247 0.14860307
7.2876726e-05 0.030090988 0.14991619
-0.00026584158 0.028449293 0.15213484
0.0011497689 0.027019225 0.15433821
0.0013496351 0.024618326 0.15718038
0.00056155364 0.022153633 0.159398
-1.0859219e-05 0.020427804 0.16173887
-0.00029419825 0.017492332 0.16340715
-0.00021799198 0.014629051 0.1650275
0.00064848823 0.011280064 0.16899633
0.00051027641 0.0080993753 0.17082959
0.00056925032 0.0053559588 0.17290482
0.00031367366 0.0028019603 0.17423272
0.00051169912 -8.272093e-05 0.17607491
0.00027990557 -0.0041672825 0.17700516
0.0018647318 0.033287007 0.14806066
0.0025135675 0.031401262 0.14989144
0.0031429487 0.02931039 0.15214978
0.004267273 0.02688068 0.15527861
0.0042521446 0.024911521 0.1570234
0.0035305547 0.022641171 0.15877779
0.0029535366 0.020528108 0.16040428
0.0022841643 0.01746955 0.16361402
0.0020735017 0.01459008 0.16516511
0.0040612388 0.011705304 0.16914448
0.0041991025 0.008791578 0.17066894
0.0039386391 0.005555687 0.17267451
0.0038476905 0.0028809796 0.17433932
0.0032502911 0.00023476666 0.17653565
0.0033692196 -0.0032082547 0.17760481
0.0048455247 0.034076158 0.14743225
0.0050515756 0.032432444 0.14946166
0.0055641811 0.030478457 0.15132444
0.0063162474 0.026740767 0.15518735
0.0063203829 0.025123393 0.15750632
0.0060648113 0.022977162 0.15965357
0.0056105242 0.020404788 0.16138908
0.004946074 0.017926889 0.16306776
0.0077938447 0.013719425 0.1675846
0.0070748073 0.011370776 0.17034243
0.0067770653 0.0082945181 0.17134885
0.0067173508 0.0057481113 0.17398265
0.0061774799 0.0036385423 0.17600663
0.0060256864 -9.6192227e-05 0.17775662
0.0062828655 -0.0029040622 0.17948829
0.0072539356 0.034482952 0.1469873
0.0076460745 0.032935571 0.14910258
0.0080968756 0.031101467 0.15037857
0.0086983563 0.027529646 0.15648928
0.0081726154 0.025603909 0.15895429
0.0076291063 0.02272103 0.16025306
0.0073664137 0.020411177 0.16216227
0.010547723 0.015077098 0.16707534
0.0098945908 0.012829748 0.16902898
0.0097535551 0.01050345 0.17062804
0.0098691294 0.0082846945 0.17205064
0.0093365051 0.0063162385 0.17422922
0.0081018955 0.0037083153 0.1772223
0.0097830212 -0.0010938569 0.17959794
0.0090146847 -0.0034809427 0.18074918
0.0097484756 0.0344867 0.14679737
0.010165161 0.032726523 0.14812164
0.01079302 0.030420609 0.15129206
0.010621116 0.027986916 0.15721433
0.010224683 0.025498899 0.15909648
0.010071279 0.022634001 0.16048732
0.0093746912 0.019849723 0.16360201
0.012430501 0.015189116 0.16722542
0.012125906 0.012766183 0.16936035
0.01237289 0.010492509 0.17090158
0.012674374 0.0084737903 0.17295986
0.011404756 0.0068036565 0.17456673
0.01085295 0.0038320203 0.17828728
0.014054689 -0.0010000606 0.17969222
0.012089238 0.034311771 0.14573886
0.012938667 0.032211881 0.14699973
0.01318759 0.029256659 0.15420187
0.014025289 0.027294712 0.15778677
0.013111982 0.025268525 0.15914698
0.012825776 0.021835651 0.16247234
0.013372685 0.017342698 0.16642359
0.0144362 0.015428917 0.16755073
0.014519867 0.013036091 0.16967611
0.014142459 0.010977837 0.17121153
0.01499256 0.0091566294 0.17378137
0.012962177 0.0071367524 0.17506731
0.013230686 0.0039062807 0.17823848
0.016113132 0.00012710398 0.17830324
0.014961738 0.033858862 0.14471845
0.017190291 0.03280323 0.14778221
0.015978169 0.028791003 0.15419182
0.015561395 0.025377367 0.15980589
0 0 0 1 0 0 0 1 0 0 0 1 0 0 0 0 0 239 1 0 0
