ply
format ascii 1.0
comment PCL generated
element vertex 346
property float x
property float y
property float z
element camera 1
property float view_px
property float view_py
property float view_pz
property float x_axisx
property float x_axisy
property float x_axisz
property float y_axisx
property float y_axisy
property float y_axisz
property float z_axisx
property float z_axisy
property float z_axisz
property float focal
property float scalex
property float scaley
property float centerx
property float centery
property int viewportx
property int viewporty
property float k1
property float k2
end_header
-0.057266567 0.030944711 0.18700959
-0.058004938 0.028104609 0.1880772
-0.058210619 0.025439026 0.18959491
-0.058279242 0.022576656 0.19104393
-0.058203537 0.019576913 0.19200478
-0.05724138 0.016254289 0.19413118
-0.05344139 0.03294225 0.1829475
-0.054437663 0.030685477 0.18494438
-0.054153875 0.027860783 0.18577416
-0.054385945 0.025258427 0.18759546
-0.054713991 0.022541516 0.18942462
-0.05515584 0.01949263 0.19139288
-0.055067085 0.016539225 0.19316766
-0.055351403 0.013525518 0.1949337
-0.055290122 0.010317853 0.19643041
-0.048414487 0.035288725 0.17886761
-0.049506005 0.032936241 0.18025833
-0.050155275 0.030134065 0.18206248
-0.050461292 0.027446991 0.18404
-0.050716378 0.025107475 0.1866629
-0.051098667 0.022413168 0.18848832
-0.051497541 0.019739583 0.19072855
-0.05173742 0.016866118 0.19279204
-0.052285854 0.013287805 0.19435066
-0.053244941 0.0091350432 0.19632436
-0.053861029 0.0053753187 0.19966157
-0.053766754 0.0017989877 0.20248446
-0.044680618 0.037911855 0.17693928
-0.045458104 0.03548564 0.17786257
-0.046033762 0.03292549 0.17937349
-0.046668228 0.030375339 0.18135375
-0.047202017 0.027692087 0.18408529
-0.047280662 0.025190933 0.1868154
-0.047581606 0.022496417 0.18891509
-0.048116345 0.019802138 0.19106525
-0.048521642 0.016977631 0.19339202
-0.049006816 0.013078764 0.1944885
-0.049659543 0.0083316341 0.19465742
-0.050740734 0.0040117721 0.19843462
-0.051021345 0.00059515319 0.20375881
-0.051729776 -0.0021686193 0.20781437
-0.052118279 -0.0040307399 0.21187153
-0.041299082 0.040362906 0.17638825
-0.042232022 0.0384239 0.17707337
-0.042482723 0.035753999 0.17832127
-0.042939469 0.033354942 0.17998286
-0.043745775 0.03093151 0.18230395
-0.043831684 0.027844388 0.18488732
-0.043805283 0.025026111 0.1873336
-0.044161059 0.022343446 0.18939833
-0.044724051 0.019551378 0.1914444
-0.045374613 0.016887836 0.19362259
-0.045469053 0.012730105 0.19460051
-0.045473803 0.0076235272 0.19390005
-0.045978278 0.0027093193 0.19742671
-0.04757807 0.00010560381 0.20452322
-0.048496697 -0.0023971607 0.20885307
-0.049542654 -0.0044436487 0.21277569
-0.050287578 -0.0065980223 0.21572813
-0.050923962 -0.0089675365 0.21905898
-0.038877696 0.041154142 0.17617089
-0.039284632 0.038695253 0.17783152
-0.039730489 0.036054865 0.179159
-0.040223077 0.033560421 0.1810073
-0.040460799 0.030908635 0.18341219
-0.040570091 0.027571537 0.1858262
-0.040912677 0.025065487 0.18817094
-0.041329242 0.022479521 0.18994576
-0.041587554 0.019667048 0.19180091
-0.042120561 0.016716504 0.19389957
-0.041542098 0.012084854 0.19427091
-0.040269874 0.0062285759 0.19357477
-0.03919968 0.00078673329 0.19618821
-0.044047687 -0.00089695316 0.20524132
-0.045152504 -0.0026430935 0.20980008
-0.04589225 -0.0040700193 0.2137721
-0.046987176 -0.006466046 0.21708725
-0.048302751 -0.009564071 0.22029939
-0.048550244 -0.012971419 0.22313797
-0.047862392 -0.016582141 0.22399624
-0.035743393 0.043032132 0.17501727
-0.036151618 0.041615959 0.17654909
-0.036316108 0.039101861 0.17820878
-0.036923237 0.036315113 0.17975312
-0.037376314 0.033990055 0.18211198
-0.03732824 0.030720739 0.1845814
-0.037494279 0.027602332 0.186782
-0.038121611 0.025334569 0.18910149
-0.038589653 0.022695085 0.19129093
-0.038856272 0.01958577 0.19263096
-0.039120339 0.015898626 0.19443701
-0.037790027 0.011118699 0.19421163
-0.03688636 0.0055734036 0.19582851
-0.036758833 0.00097433582 0.19883086
-0.04043182 -0.0013369769 0.20606893
-0.041643739 -0.0024099175 0.21091403
-0.042502284 -0.0040437714 0.21487498
-0.042959698 -0.0067781736 0.21742649
-0.043735355 -0.0098383678 0.21990006
-0.044214297 -0.0144246 0.22162129
-0.044511288 -0.018886983 0.22430198
-0.043196756 -0.021679292 0.22607456
-0.03303485 0.043480687 0.17539331
-0.033124961 0.042071026 0.1767886
-0.032947719 0.039548874 0.17864752
-0.033096951 0.036843404 0.18015411
-0.033543199 0.034285586 0.18271446
-0.033913177 0.031003602 0.18614011
-0.03442698 0.028040921 0.18782289
-0.035137501 0.025472553 0.1901937
-0.035521455 0.022584071 0.19244225
-0.035895675 0.019293742 0.19429839
-0.035970911 0.015358157 0.1958722
-0.034760226 0.011374316 0.19556992
-0.034229212 0.006466595 0.19770965
-0.034471266 0.0024269216 0.20129666
-0.03709957 0.0002577962 0.20682186
-0.038351424 -0.0019433274 0.21224846
-0.038965784 -0.0039357543 0.21575202
-0.039198488 -0.0070276214 0.21737666
-0.03952441 -0.011099007 0.21922939
-0.039960302 -0.015530652 0.2204712
-0.040105734 -0.019466577 0.2231013
-0.039871648 -0.022041641 0.22581601
-0.030039188 0.043639835 0.1760491
-0.029916009 0.042207386 0.17735171
-0.029992845 0.039840274 0.17929271
-0.030199639 0.037256684 0.18139043
-0.030251266 0.034436811 0.18388055
-0.030793346 0.031340595 0.18723264
-0.031345487 0.028519314 0.1890386
-0.032076068 0.025636563 0.19138227
-0.032332454 0.02215394 0.1937097
-0.032907989 0.018900061 0.19571884
-0.032975078 0.015066681 0.19704175
-0.032141797 0.01174487 0.19725797
-0.031529881 0.0074553941 0.19985531
-0.032086536 0.0038248112 0.20338605
-0.034104533 0.0016759087 0.20791265
-0.035240084 -0.00097130943 0.21252561
-0.035461437 -0.0039636479 0.21574309
-0.035733618 -0.0072596991 0.21730514
-0.036180343 -0.011323472 0.21926545
-0.036382217 -0.015457303 0.22110267
-0.036379218 -0.019250281 0.22270885
-0.035931908 -0.021999767 0.22533834
-0.026950754 0.044083077 0.17669615
-0.02694344 0.042575955 0.17798212
-0.027211741 0.040032215 0.1796699
-0.027224388 0.037532963 0.18223038
-0.027174003 0.034646161 0.1850598
-0.027607901 0.031756643 0.18785933
-0.028279573 0.028802631 0.19019076
-0.028930705 0.025894199 0.19249925
-0.029270003 0.022042776 0.19516575
-0.029801277 0.01820644 0.1979252
-0.030322788 0.015244417 0.19883946
-0.029812723 0.012994753 0.19991288
-0.02973222 0.0091704661 0.20292538
-0.029651709 0.0054322346 0.2054203
-0.030917142 0.0019764653 0.20907727
-0.032023214 -0.00061126275 0.21255924
-0.03216546 -0.0042178868 0.2163583
-0.032525431 -0.0076422538 0.21769866
-0.032930665 -0.011487837 0.22005092
-0.033161756 -0.015449329 0.22268833
-0.032836214 -0.019044999 0.22438912
-0.032887537 -0.022133419 0.22700024
-0.024116006 0.044492584 0.17777675
-0.024062295 0.043049496 0.17907543
-0.024018483 0.040260877 0.18036081
-0.024075052 0.037538905 0.18269241
-0.024168007 0.034966603 0.18561053
-0.024538236 0.032229107 0.18833254
-0.025139466 0.02926765 0.19137737
-0.025888363 0.02590939 0.19415765
-0.026042655 0.021603629 0.19708732
-0.026502535 0.017645134 0.19945414
-0.026339071 0.015670516 0.20167738
-0.027153343 0.0139127 0.20290972
-0.027632581 0.00962588 0.20618312
-0.027449755 0.0058871517 0.20789427
-0.027929913 0.0023940138 0.21115594
-0.028365016 -0.00088930124 0.21456176
-0.02895431 -0.0047299573 0.21795656
-0.029280536 -0.0078580109 0.21952891
-0.029660868 -0.011428132 0.22140834
-0.02970276 -0.01508191 0.22394201
-0.029365478 -0.018764887 0.22592659
-0.029903231 -0.022047956 0.22813119
-0.030647159 -0.024856389 0.23215343
-0.021144053 0.044983279 0.17905059
-0.020822175 0.04338444 0.18028949
-0.0209288 0.04038047 0.18171893
-0.020864483 0.03745215 0.18324815
-0.021136235 0.034973506 0.18641095
-0.021589657 0.032426812 0.18895978
-0.021940675 0.029815869 0.19203711
-0.022500223 0.026191609 0.19494109
-0.022733085 0.021155277 0.19891712
-0.023317518 0.017575651 0.20198798
-0.02331803 0.015421013 0.20449778
-0.023722136 0.013121451 0.20549068
-0.024307339 0.0097611882 0.20781201
-0.024914552 0.0060393824 0.2102378
-0.024746066 0.0025050656 0.2129755
-0.024843946 -0.0009630734 0.21594056
-0.02555548 -0.0044818022 0.2193702
-0.025911763 -0.0079413746 0.2214479
-0.02606108 -0.011120634 0.22298227
-0.026315179 -0.014628775 0.22576907
-0.026143303 -0.018320207 0.2273137
-0.026664577 -0.022390755 0.22898783
-0.026771799 -0.025957426 0.2330472
-0.018038791 0.043140486 0.18144149
-0.017965836 0.040925361 0.18345803
-0.017946716 0.0379637 0.18476926
-0.018247001 0.035098601 0.186786
-0.018451387 0.032430109 0.18933584
-0.018634867 0.029740661 0.19202432
-0.018984387 0.026091533 0.19602464
-0.019385407 0.021988185 0.19918294
-0.019667711 0.01826846 0.20267799
-0.019918451 0.015335594 0.20536759
-0.020195728 0.012992696 0.20741741
-0.021112869 0.010148778 0.2097076
-0.021732043 0.0064727515 0.21254484
-0.021437747 0.003110118 0.21484414
-0.021429341 -0.00044721013 0.21753836
-0.022115367 -0.0040108562 0.22139432
-0.022518661 -0.0077250497 0.22348136
-0.022337023 -0.011353793 0.22452968
-0.022177851 -0.014901215 0.22718281
-0.022172568 -0.018340895 0.22775851
-0.022452818 -0.022341281 0.22838104
-0.022925276 -0.026409952 0.23357041
-0.015031389 0.040942181 0.18458939
-0.01511044 0.038281534 0.18615794
-0.015205547 0.035185561 0.1875537
-0.015457519 0.032405477 0.19018501
-0.015733138 0.029723024 0.1925891
-0.015712949 0.026256418 0.19672918
-0.016164508 0.0221228 0.20010395
-0.016279543 0.018752269 0.20256197
-0.016567318 0.015540111 0.20494516
-0.016743029 0.013084935 0.20863412
-0.017493274 0.010585695 0.2113608
-0.017849002 0.0071496596 0.21376629
-0.0178813 0.0036951373 0.21643969
-0.017999874 -2.0391592e-05 0.21975267
-0.01843624 -0.0034767922 0.22340275
-0.018694146 -0.0074493671 0.2252685
-0.018075753 -0.011327649 0.2261834
-0.018078478 -0.015155628 0.22718239
-0.018733559 -0.018934803 0.22826271
-0.018881742 -0.022947365 0.23021127
-0.019303042 -0.026692588 0.23513582
-0.012436435 0.037922926 0.18732122
-0.012297903 0.035111398 0.18890917
-0.012548297 0.032465015 0.19121133
-0.012810054 0.029640684 0.19315256
-0.012482146 0.02653534 0.19617625
-0.012844958 0.022607042 0.2000909
-0.013213541 0.019166805 0.20351753
-0.013380341 0.015958 0.20656671
-0.013469502 0.013320775 0.20961528
-0.01368668 0.010672752 0.21222292
-0.013723845 0.0077575943 0.21480508
-0.014070414 0.0039878688 0.21786594
-0.014353914 0.00027154826 0.22156712
-0.01460021 -0.003391614 0.22417766
-0.014556073 -0.007372953 0.22532257
-0.014286122 -0.011951293 0.22686423
-0.014463049 -0.015993375 0.22806607
-0.015013216 -0.019823879 0.22960196
-0.015333471 -0.023673322 0.23258197
-0.015430371 -0.026912611 0.23677127
-0.0096085137 0.034971092 0.18980557
-0.009193752 0.032411885 0.19171977
-0.0095087867 0.029578282 0.19371119
-0.0093139028 0.026621452 0.19660507
-0.0096602272 0.023104055 0.20037378
-0.010107948 0.019638479 0.20427853
-0.010041928 0.016584389 0.20732388
-0.010021465 0.01346076 0.21013363
-0.010016548 0.010507891 0.21245347
-0.0099224439 0.0075568724 0.21580993
-0.01038881 0.0040909061 0.21890493
-0.010523843 0.00028860825 0.22215748
-0.010729386 -0.0034324531 0.22413027
-0.011090172 -0.0075591682 0.22556555
-0.010746778 -0.011850581 0.22625399
-0.010863582 -0.016224908 0.22916238
-0.011112291 -0.02006376 0.23083504
-0.011569048 -0.024265036 0.23463537
-0.012344065 -0.026763933 0.23732612
-0.0061617936 0.032028601 0.19251636
-0.0061037452 0.02945929 0.19492564
-0.0062533477 0.026529074 0.19807641
-0.0065141809 0.023374753 0.20062517
-0.0068983268 0.020054126 0.20427658
-0.0066343374 0.016931731 0.20753109
-0.0064040292 0.013853514 0.21023373
-0.006354969 0.010593757 0.21236439
-0.0063173887 0.0072933966 0.21599239
-0.006614795 0.0036926707 0.21933745
-0.0067290748 -6.7375906e-05 0.22239779
-0.0068703396 -0.0036586884 0.22357786
-0.0072795525 -0.0076106712 0.22598299
-0.0072436621 -0.012093447 0.22664988
-0.007305502 -0.016453696 0.22983614
-0.0079301372 -0.020237701 0.23169886
-0.0086999135 -0.023432912 0.23359901
-0.0035724151 0.031498581 0.19416183
-0.0026988925 0.029665561 0.19663091
-0.0028615815 0.026762858 0.19884902
-0.0030308235 0.023720583 0.20129837
-0.003104164 0.020787572 0.20422621
-0.0031484198 0.017556556 0.20727907
-0.0028397932 0.014012918 0.21027675
-0.0027938227 0.010706886 0.21263601
-0.0026413151 0.0072466508 0.21568307
-0.0029512211 0.0035432868 0.21839546
-0.0029827014 -0.00014595136 0.22150232
-0.0031898147 -0.0040827417 0.22293049
-0.0033998536 -0.0080981003 0.22575791
-0.0039842064 -0.012302261 0.22703062
-0.0048222337 -0.015928417 0.22947279
0.00020311668 0.029298257 0.19820611
0.00045015122 0.027258968 0.19962209
0.00033329136 0.024414875 0.20172171
0.00035767123 0.021425717 0.20414221
0.0005508801 0.018226402 0.20699158
0.00084662513 0.014679395 0.21005625
0.00098022562 0.011109702 0.21253803
0.0010771331 0.0074368641 0.21475348
0.00047681431 0.00360697 0.21701257
0.00059008453 -0.00027481865 0.21959364
9.3967756e-05 -0.0039861081 0.2223936
-0.0010578735 -0.0075485958 0.22597876
0.0035681233 0.027657878 0.20058358
0.003972745 0.024957359 0.2024073
0.0040323818 0.021871516 0.20415497
0.0039461753 0.018751575 0.20717771
0.0044077113 0.015394201 0.20961575
0.0039591487 0.012021889 0.21181576
0 0 0 1 0 0 0 1 0 0 0 1 0 0 0 0 0 346 1 0 0
