ply
format ascii 1.0
comment PCL generated
element vertex 346
property float x
property float y
property float z
element camera 1
property float view_px
property float view_py
property float view_pz
property float x_axisx
property float x_axisy
property float x_axisz
property float y_axisx
property float y_axisy
property float y_axisz
property float z_axisx
property float z_axisy
property float z_axisz
property float focal
property float scalex
property float scaley
property float centerx
property float centery
property int viewportx
property int viewporty
property float k1
property float k2
end_header
-0.056531951 0.031076128 0.18745783
-0.057383098 0.028169602 0.18826433
-0.057638895 0.025471468 0.18944663
-0.057909798 0.022468682 0.19073574
-0.058103941 0.019516943 0.19154438
-0.056966532 0.016070891 0.19392002
-0.052652024 0.033214666 0.18376328
-0.053707734 0.030888854 0.18549509
-0.053667795 0.028005138 0.18605736
-0.053983532 0.025282532 0.18755825
-0.054521725 0.022525493 0.18921119
-0.055072986 0.019399503 0.19104759
-0.054932747 0.016288193 0.19297419
-0.054956134 0.013307094 0.19504263
-0.054815192 0.010168672 0.19691098
-0.047971696 0.035411265 0.18000682
-0.04886337 0.033119 0.18110651
-0.049535982 0.030449327 0.18256046
-0.050057676 0.027733017 0.18418418
-0.050342511 0.025244867 0.18660161
-0.050894495 0.022491455 0.18830857
-0.051393602 0.019666169 0.19042432
-0.051627126 0.016621184 0.19239347
-0.05199673 0.012942367 0.19433887
-0.052853458 0.0089270603 0.19676252
-0.05344677 0.0053075566 0.20006841
-0.053561591 0.0017903708 0.20265952
-0.044460699 0.038092859 0.17816599
-0.045093134 0.035692986 0.17904322
-0.045495883 0.03310287 0.1802268
-0.046078477 0.03043085 0.18177339
-0.046650376 0.027842425 0.18415666
-0.047019053 0.025354227 0.18683799
-0.047419436 0.022695007 0.18882237
-0.047998007 0.019838706 0.19077207
-0.048379216 0.016627474 0.19280176
-0.048751894 0.012563072 0.19419691
-0.049437195 0.007802438 0.19466655
-0.050490309 0.0037807398 0.19863914
-0.050949842 0.00052625191 0.20358057
-0.051637091 -0.0022955737 0.20755012
-0.051968891 -0.0041856878 0.21144903
-0.041182358 0.040633474 0.17734279
-0.042059075 0.038696501 0.17825426
-0.042184312 0.03604484 0.1795079
-0.042455375 0.033474542 0.18084306
-0.043147061 0.030674763 0.18265536
-0.043454513 0.02793414 0.18489225
-0.043691993 0.025342714 0.18734366
-0.044017397 0.022547925 0.18918216
-0.044607684 0.019547835 0.19102131
-0.045206357 0.016505651 0.19279882
-0.045256924 0.0121187 0.19376455
-0.045438271 0.006729926 0.19324657
-0.045958128 0.0021053865 0.1970561
-0.047542732 -8.7126493e-05 0.20414969
-0.048465129 -0.0026336438 0.20846692
-0.04945885 -0.0047019236 0.21239689
-0.05005873 -0.0069655492 0.21522643
-0.050499097 -0.0098503735 0.21834682
-0.03885971 0.041442472 0.17701544
-0.039148055 0.03908354 0.1790099
-0.039468125 0.036380488 0.18036085
-0.039768886 0.033650625 0.18180919
-0.039972041 0.030742081 0.18364033
-0.040492803 0.02802824 0.18610483
-0.040842649 0.025408357 0.18827283
-0.041229222 0.022716723 0.1896667
-0.041433148 0.019683303 0.19121374
-0.041943412 0.016307088 0.19280243
-0.041427959 0.011041613 0.19267948
-0.040320452 0.0047299857 0.19212896
-0.039203983 -0.00049432222 0.1952219
-0.044026311 -0.0012627849 0.2046961
-0.045121234 -0.0030127254 0.20926978
-0.04582271 -0.0043661147 0.21332076
-0.046644785 -0.0068970015 0.21658811
-0.047804475 -0.010503176 0.21938334
-0.047962531 -0.014228909 0.22145449
-0.047738925 -0.017414268 0.2217205
-0.03564626 0.043256454 0.17580444
-0.036110222 0.041927375 0.17739601
-0.036363021 0.039526172 0.17927714
-0.036672939 0.036645018 0.18093982
-0.036903065 0.033903033 0.18284611
-0.037017278 0.030887626 0.1849228
-0.037449162 0.028104382 0.18713552
-0.038085032 0.02565828 0.18922128
-0.038508918 0.022840662 0.19098485
-0.038686503 0.019570259 0.19178715
-0.03878792 0.015544261 0.1929698
-0.037704669 0.0096647944 0.19204938
-0.036870677 0.0041710422 0.1942265
-0.036654141 -8.3243413e-06 0.19779022
-0.040350299 -0.001848796 0.20537794
-0.041623279 -0.0028372849 0.21030828
-0.042503636 -0.0045311698 0.21422325
-0.042923059 -0.0074862307 0.21658626
-0.043530807 -0.010480439 0.2186532
-0.04440229 -0.014678253 0.21983528
-0.045121912 -0.018930959 0.22244757
-0.044047236 -0.021699844 0.2242289
-0.033046149 0.043771572 0.17607667
-0.033108123 0.042411327 0.17763503
-0.033026271 0.03993034 0.17983229
-0.033202216 0.037231546 0.18143089
-0.033498481 0.034586962 0.18384023
-0.033809204 0.031465005 0.18688005
-0.034427464 0.028376425 0.18818121
-0.035124067 0.025733011 0.19036278
-0.035395663 0.022648679 0.191981
-0.035669468 0.019107193 0.193276
-0.035709631 0.014851492 0.19423053
-0.034672111 0.010103805 0.19347045
-0.034153081 0.0053764652 0.19609064
-0.034281824 0.001675004 0.20014842
-0.036964461 -0.00039014861 0.20568196
-0.038393728 -0.0025094436 0.21153508
-0.039102212 -0.0047338102 0.21478347
-0.039265398 -0.0078787589 0.21613678
-0.039797269 -0.011505777 0.21778464
-0.04056228 -0.015461016 0.21896383
-0.040905554 -0.019439368 0.2215433
-0.040583495 -0.022134537 0.22394429
-0.030085048 0.043948092 0.17685631
-0.030027226 0.042598061 0.1782991
-0.030127361 0.040176764 0.18044177
-0.030316958 0.037642017 0.18256128
-0.030334638 0.034908012 0.18511556
-0.030766513 0.031589869 0.18798411
-0.031251647 0.028601894 0.18934542
-0.03201599 0.025679827 0.19147873
-0.0321174 0.022050571 0.1930901
-0.03269973 0.018638689 0.19471256
-0.032881267 0.014554771 0.19552441
-0.032181382 0.010865167 0.19548178
-0.031439561 0.0067915968 0.19845876
-0.031930838 0.0033118746 0.20228614
-0.034088243 0.0011568987 0.20665818
-0.035377812 -0.001454454 0.21133228
-0.035629876 -0.004544253 0.21487552
-0.035962138 -0.0078508249 0.21636762
-0.03653406 -0.011507061 0.21820164
-0.037036344 -0.015482758 0.21971759
-0.037145928 -0.019326944 0.22127931
-0.036602557 -0.022202177 0.22351587
-0.027056344 0.044208799 0.1774866
-0.02702469 0.042758156 0.17887095
-0.027348205 0.040266026 0.18070152
-0.027370209 0.03778233 0.18331736
-0.0273013 0.035046484 0.18632817
-0.027607426 0.031862658 0.18854377
-0.028144898 0.028573245 0.1903538
-0.028743623 0.025563335 0.19223635
-0.02904878 0.021837177 0.19458187
-0.029730039 0.017888272 0.19705865
-0.030394409 0.014870094 0.1976611
-0.029993001 0.012510545 0.1985608
-0.029652184 0.0088810232 0.20164807
-0.029453583 0.0052695842 0.20422663
-0.030996975 0.0016567215 0.20789951
-0.03223478 -0.0010816886 0.21161854
-0.032510981 -0.0045062038 0.21578588
-0.032785919 -0.0079472242 0.21704921
-0.033378329 -0.011654333 0.21912827
-0.033812776 -0.015604513 0.22142838
-0.033557996 -0.019256203 0.22289941
-0.033400927 -0.022464493 0.224943
-0.024105694 0.04442858 0.17832378
-0.024031507 0.043057419 0.17971809
-0.024111331 0.040392358 0.18109722
-0.024300503 0.037746634 0.18374586
-0.024324365 0.03517573 0.18668976
-0.024586955 0.032109763 0.18880528
-0.025068965 0.028742859 0.19128774
-0.025656428 0.025188843 0.19360624
-0.025960617 0.021260357 0.19670703
-0.026542278 0.017331824 0.1990172
-0.026389681 0.015405091 0.20089312
-0.0273278 0.013637835 0.20167516
-0.027590385 0.0095494427 0.20481865
-0.027309032 0.0057134163 0.20675184
-0.028067414 0.0021484112 0.21026053
-0.028536238 -0.001188011 0.21386856
-0.029192822 -0.0049865469 0.21728316
-0.029424114 -0.0082707927 0.21862571
-0.029970767 -0.011792135 0.22015677
-0.030218625 -0.015412982 0.22259019
-0.029833946 -0.019149469 0.22429608
-0.030270046 -0.022509566 0.22602795
-0.031071635 -0.025533957 0.22955297
-0.021011889 0.044753585 0.17924172
-0.020792652 0.043352723 0.18078168
-0.021018164 0.04034223 0.18228355
-0.021158073 0.037484229 0.18410081
-0.02126684 0.034980737 0.18721355
-0.02171139 0.032098833 0.18920961
-0.022050831 0.029097637 0.19182082
-0.022360874 0.025423918 0.19458804
-0.022783875 0.020915855 0.19942379
-0.023543553 0.017383832 0.20239685
-0.023677748 0.015337483 0.20416385
-0.024016531 0.013087743 0.20463142
-0.024506396 0.0096805375 0.20670053
-0.024966117 0.0058711008 0.20906968
-0.024885394 0.0022970112 0.21238261
-0.025151914 -0.00093778933 0.21560356
-0.025869103 -0.0047493456 0.21862449
-0.025995828 -0.0084652156 0.22008102
-0.026060656 -0.011719576 0.22161826
-0.026405923 -0.015177074 0.2245115
-0.026270749 -0.018776113 0.22572121
-0.026857972 -0.022805991 0.22683167
-0.027109593 -0.026621716 0.23061036
-0.018128794 0.043278605 0.18228482
-0.018059986 0.040896032 0.18411954
-0.018006098 0.037896626 0.18534805
-0.018381309 0.035020821 0.18739551
-0.018565092 0.032030083 0.18936491
-0.018591471 0.029097894 0.19180827
-0.018814683 0.025797449 0.19600759
-0.019380111 0.022051545 0.19974208
-0.019863451 0.018537221 0.20356591
-0.020314293 0.015545721 0.20587531
-0.020558532 0.013093933 0.20724458
-0.021406615 0.010084083 0.20891957
-0.021864524 0.0063350727 0.21184918
-0.02166838 0.0030671398 0.21457441
-0.02178226 -0.00040342018 0.21752825
-0.022373142 -0.0040421258 0.22111923
-0.022461561 -0.0081258761 0.2224721
-0.022159677 -0.011858686 0.22353865
-0.022006698 -0.015297735 0.22650731
-0.022116059 -0.018598152 0.22689487
-0.022428367 -0.022639561 0.22696044
-0.023319047 -0.026947092 0.23160981
-0.015144645 0.040963858 0.185387
-0.015172466 0.038230881 0.18681544
-0.015351042 0.035129543 0.1881588
-0.015490117 0.031917125 0.18999369
-0.015662249 0.02920722 0.19228235
-0.015665306 0.026229752 0.19682769
-0.016307482 0.022580251 0.20081486
-0.016480615 0.01939521 0.20372209
-0.01684857 0.016042322 0.20616978
-0.016991859 0.013375778 0.20904791
-0.017777922 0.010498215 0.21102621
-0.018087404 0.0070368447 0.21352153
-0.018088179 0.0035962472 0.21631822
-0.018082745 -6.2256353e-05 0.21960835
-0.018549453 -0.0034739336 0.2232694
-0.018743463 -0.0076769409 0.22469057
-0.018076535 -0.01164418 0.22559276
-0.018013248 -0.0153786 0.2268184
-0.018689999 -0.019136164 0.22791106
-0.01904927 -0.023155164 0.22935568
-0.019750593 -0.027119527 0.23381072
-0.012586742 0.037961796 0.18810433
-0.012467019 0.034824546 0.18902211
-0.012589616 0.031943507 0.19079968
-0.012728094 0.029188637 0.19272381
-0.012480323 0.026633814 0.1964972
-0.013141878 0.023418525 0.20112847
-0.013508465 0.020028027 0.20475599
-0.013682787 0.016726941 0.20785561
-0.013652747 0.013549674 0.21023998
-0.013782415 0.010459092 0.21221781
-0.013822055 0.007534646 0.21466477
-0.01413673 0.0037116276 0.21756867
-0.014384249 0.00014819624 0.22124326
-0.014735502 -0.0033614817 0.22420476
-0.014715717 -0.007488458 0.22541153
-0.014339289 -0.012124541 0.22665365
-0.014449342 -0.016165128 0.22794023
-0.015020215 -0.019912519 0.22947645
-0.015586899 -0.023704205 0.23217553
-0.01599321 -0.027062783 0.23611747
-0.0097549465 0.034907836 0.18989186
-0.0092478674 0.032136533 0.1915186
-0.0095024398 0.029448355 0.19368966
-0.0094341049 0.027023494 0.19726826
-0.010029818 0.024221167 0.20163809
-0.010434701 0.020678019 0.20557967
-0.010336732 0.017248306 0.20825292
-0.010216837 0.013319026 0.21019566
-0.01007712 0.010139509 0.21231045
-0.0099546397 0.0071909558 0.21549955
-0.010367237 0.003745269 0.21853201
-0.010608589 0.00020511163 0.22221042
-0.010915389 -0.003246973 0.22456339
-0.011243619 -0.0075060851 0.22588971
-0.010706143 -0.011921046 0.22623934
-0.010866388 -0.016261455 0.22913247
-0.011144266 -0.019977093 0.23085701
-0.011913498 -0.02410369 0.23471241
-0.012901961 -0.026651019 0.23718664
-0.00612118 0.031842552 0.19249581
-0.0060962634 0.029458288 0.19509117
-0.0063347826 0.027090771 0.19878541
-0.0069121444 0.024240129 0.20192313
-0.0071462397 0.020712368 0.20535867
-0.0068797362 0.016929794 0.20771836
-0.0065770075 0.013330217 0.20979653
-0.0064714244 0.010054326 0.21199796
-0.0063016536 0.0068206531 0.21568984
-0.0065584024 0.0033366296 0.21916813
-0.0067709112 -0.00016995096 0.22259542
-0.0069299145 -0.0036307471 0.22398376
-0.0074745235 -0.0074492595 0.22642027
-0.0072373319 -0.012000081 0.22674125
-0.0074272398 -0.01627874 0.23010151
-0.0081008561 -0.019959452 0.23200355
-0.008951053 -0.02312463 0.23401675
-0.0035048963 0.031293474 0.19410549
-0.0025900069 0.029632429 0.19675519
-0.0029650896 0.02698198 0.19946547
-0.0033190791 0.023892149 0.20188187
-0.0034110537 0.020606803 0.20442536
-0.0034741317 0.016890898 0.20681411
-0.0030403615 0.013164628 0.20944773
-0.0028945452 0.0099362712 0.21192224
-0.0026700669 0.0066501754 0.21522173
-0.0029128459 0.0031058833 0.21827282
-0.0029753777 -0.0003606508 0.2216813
-0.0032080689 -0.0042397613 0.22332346
-0.0035080933 -0.0080516739 0.22617176
-0.0040704357 -0.012047997 0.22743873
-0.0050318558 -0.015641661 0.23002015
0.00030911222 0.029251402 0.19849366
0.00029422273 0.027266813 0.20035091
5.1838324e-06 0.024329081 0.20216583
4.7466849e-05 0.020892916 0.20397331
0.0001948905 0.017127855 0.20609353
0.00052373199 0.013374102 0.20884477
0.00077014259 0.0098741334 0.21131055
0.00089538947 0.0063898531 0.21373935
0.00046649971 0.0029504052 0.21657348
0.00064403727 -0.00074092322 0.21968207
3.2885237e-05 -0.0042402078 0.22272274
-0.0011927246 -0.0075409315 0.2264545
0.0033827613 0.02750086 0.20147595
0.003767326 0.024554031 0.20290732
0.0037672718 0.021169424 0.20406613
0.0036124962 0.017414432 0.20621143
0.0040924903 0.013765818 0.2081679
0.0036755151 0.01044791 0.21020819
0 0 0 1 0 0 0 1 0 0 0 1 0 0 0 0 0 346 1 0 0
