ply
format ascii 1.0
comment PCL generated
element vertex 346
property float x
property float y
property float z
element camera 1
property float view_px
property float view_py
property float view_pz
property float x_axisx
property float x_axisy
property float x_axisz
property float y_axisx
property float y_axisy
property float y_axisz
property float z_axisx
property float z_axisy
property float z_axisz
property float focal
property float scalex
property float scaley
property float centerx
property float centery
property int viewportx
property int viewporty
property float k1
property float k2
end_header
-0.057175774 0.030487262 0.18679677
-0.058020238 0.027528197 0.18749854
-0.058313221 0.02486779 0.18878818
-0.058625836 0.021969762 0.19031654
-0.058833189 0.019096777 0.19145781
-0.057955746 0.016023882 0.19461316
-0.053039379 0.032990307 0.18383314
-0.054221142 0.030458575 0.18519202
-0.054155502 0.027442906 0.18561625
-0.054519996 0.024642972 0.18714099
-0.055159308 0.021980515 0.18902309
-0.055790957 0.019056568 0.19129868
-0.055816028 0.016297152 0.19387163
-0.056039158 0.013402777 0.1961565
-0.055956107 0.010196574 0.19788386
-0.048116382 0.035457391 0.18052723
-0.049032729 0.033184279 0.18161941
-0.049781717 0.030379239 0.18281192
-0.05038505 0.027329987 0.18410727
-0.050808847 0.024639962 0.18650803
-0.051451005 0.021916477 0.18842168
-0.052057434 0.019397231 0.19111013
-0.052456893 0.01677398 0.19377764
-0.053041674 0.013208958 0.19587299
-0.053950969 0.0090826899 0.19795431
-0.05440123 0.0052350741 0.20084997
-0.054331265 0.0015967508 0.20335564
-0.044643495 0.038039282 0.17843471
-0.045260679 0.035679057 0.17945363
-0.045667879 0.033139963 0.18075724
-0.046265867 0.030460261 0.18233241
-0.046952706 0.027533952 0.18445641
-0.047450256 0.024806043 0.18718952
-0.047966246 0.022355892 0.18954779
-0.04864648 0.019888388 0.19205016
-0.04923914 0.017011808 0.19472854
-0.049798023 0.012964116 0.1962661
-0.050477561 0.0081357118 0.19656865
-0.051436994 0.0038713338 0.19973822
-0.051699713 0.00032374053 0.20427269
-0.051982716 -0.0022209038 0.20842133
-0.051934864 -0.0037258517 0.21222645
-0.04135761 0.04063917 0.17748323
-0.042198516 0.038681064 0.17843951
-0.042333748 0.036000762 0.17979294
-0.04258886 0.033426967 0.18120854
-0.04328667 0.03060947 0.18309864
-0.043812424 0.027522696 0.18539393
-0.044101551 0.024988111 0.18814462
-0.044509619 0.022511112 0.1904072
-0.045275427 0.019846277 0.19284479
-0.046054747 0.017056879 0.19514208
-0.046277732 0.012587013 0.19637832
-0.046556063 0.0072531402 0.19599287
-0.047080517 0.0024191772 0.19905068
-0.048262279 -0.00044344115 0.20458141
-0.048864588 -0.0027140258 0.209089
-0.049630281 -0.00442045 0.21321879
-0.050109584 -0.0063095195 0.21632218
-0.050579175 -0.0085713696 0.220008
-0.039009057 0.041523967 0.17726259
-0.039295416 0.03906212 0.17915711
-0.039596643 0.036307152 0.1805322
-0.039851442 0.033543665 0.1819998
-0.040132746 0.030510448 0.18385038
-0.040858258 0.027633123 0.18648523
-0.041126288 0.025148302 0.18889928
-0.041555114 0.022672128 0.19069086
-0.041915979 0.019968223 0.19280244
-0.042690273 0.016891295 0.1952785
-0.04256006 0.011592698 0.19579206
-0.041893784 0.0055552879 0.19488141
-0.0406956 0.00013233046 0.19719557
-0.044665158 -0.0018055971 0.20494948
-0.045432005 -0.0032016542 0.20969827
-0.04589238 -0.0041710087 0.21383961
-0.04668095 -0.0061820927 0.21745606
-0.047908228 -0.0091217449 0.22095832
-0.04804768 -0.012460569 0.22363041
-0.047742557 -0.015912801 0.22440341
-0.035843354 0.043498456 0.17623511
-0.036284182 0.042077482 0.17773801
-0.036508061 0.039571233 0.17948011
-0.036759131 0.036469936 0.18095921
-0.03692833 0.033692956 0.18284675
-0.037249848 0.030539589 0.18499829
-0.037696876 0.027635358 0.18719229
-0.03820397 0.025215857 0.18938582
-0.038583487 0.022560775 0.19131377
-0.038833208 0.019389318 0.19256492
-0.038861934 0.015452506 0.19454657
-0.039016861 0.010353213 0.19476388
-0.038321879 0.0047823112 0.19623773
-0.037816636 0.00034496983 0.19933641
-0.0408797 -0.0024481942 0.20560265
-0.041812364 -0.0030354736 0.21056516
-0.042436138 -0.0044464581 0.21456395
-0.04277147 -0.0074397419 0.21690495
-0.043435689 -0.010087188 0.21934512
-0.044207219 -0.014088731 0.22164191
-0.044910807 -0.018015232 0.22476989
-0.043859724 -0.020701839 0.2267468
-0.033290468 0.044155225 0.17670383
-0.033309475 0.042709712 0.17818329
-0.033079028 0.040124234 0.18019189
-0.03319785 0.037304722 0.18150076
-0.033372819 0.034005556 0.1832059
-0.033857696 0.030759769 0.18627852
-0.034483407 0.027786566 0.18785958
-0.035092216 0.025101779 0.1900204
-0.035341855 0.022092445 0.19185254
-0.035634406 0.018778645 0.1937532
-0.035697374 0.014844747 0.19567545
-0.035624154 0.010520759 0.19544214
-0.035267163 0.0056654047 0.19761764
-0.035163786 0.0018233819 0.201318
-0.037393901 -0.00064987713 0.2064379
-0.038454778 -0.0026501107 0.21158178
-0.038952526 -0.0048016547 0.21485895
-0.03903836 -0.0079780947 0.21605995
-0.039481968 -0.011642932 0.2184907
-0.040284507 -0.015410187 0.22074929
-0.040734686 -0.018992523 0.22383098
-0.040445238 -0.021348238 0.22647288
-0.030311886 0.044387762 0.17750083
-0.030161252 0.042886741 0.17869677
-0.030136127 0.040313683 0.18058024
-0.030228516 0.037656553 0.18252063
-0.03012809 0.034226529 0.18420677
-0.030758608 0.030950703 0.18712354
-0.031279676 0.028130284 0.18881328
-0.031880748 0.024942456 0.19082898
-0.032070231 0.021599105 0.19301806
-0.03259027 0.018505704 0.19523811
-0.032753181 0.014704945 0.1968998
-0.032720078 0.010945501 0.19685736
-0.032117371 0.0066839159 0.19939123
-0.032622792 0.0033279925 0.2031886
-0.034539122 0.00093844597 0.20756027
-0.035428502 -0.0017316351 0.21157445
-0.035427056 -0.0047561247 0.21474349
-0.035740327 -0.0080237836 0.21623029
-0.036224309 -0.011734968 0.21895273
-0.036817089 -0.015461052 0.22132125
-0.037063312 -0.01904143 0.22345626
-0.036681671 -0.021675775 0.22618972
-0.027146386 0.04442111 0.17767282
-0.027054351 0.042909008 0.17893462
-0.027332135 0.040345784 0.1806383
-0.027245259 0.037722934 0.1831198
-0.027153047 0.034674335 0.18560518
-0.027635396 0.03154647 0.18786983
-0.028278867 0.028493617 0.19011356
-0.028820323 0.025391851 0.19198962
-0.029038617 0.021688674 0.19464354
-0.02952016 0.018181235 0.19777168
-0.030071124 0.015178208 0.19886178
-0.029924305 0.012303418 0.19931664
-0.029871391 0.0086370744 0.20214388
-0.02982489 0.0051698382 0.20491034
-0.031326983 0.0014929173 0.2086525
-0.032320287 -0.0013713652 0.21212849
-0.032274622 -0.0047186324 0.21574497
-0.032590557 -0.0081136618 0.21725309
-0.033225704 -0.011824106 0.22018681
-0.033725586 -0.015456676 0.2230562
-0.033584539 -0.018884236 0.22506747
-0.033557639 -0.022061687 0.22776809
-0.02410117 0.04446182 0.17819333
-0.023986155 0.043059707 0.1795284
-0.024035063 0.040352989 0.18087007
-0.024146169 0.037721433 0.18352419
-0.024228694 0.035137363 0.18646312
-0.024637416 0.032160237 0.18869901
-0.025336197 0.029123193 0.19145447
-0.026005939 0.025759598 0.19404583
-0.025946485 0.021695109 0.19699667
-0.026325347 0.017959677 0.19981194
-0.026112072 0.0150473 0.20103359
-0.027076129 0.013101339 0.20183338
-0.027486775 0.0091702603 0.2049305
-0.027451754 0.0054487772 0.2070889
-0.028388459 0.0019772474 0.21094587
-0.028653633 -0.0012161295 0.21453866
-0.029078461 -0.0050517921 0.21769753
-0.029349875 -0.0083115278 0.21929948
-0.029954256 -0.011838964 0.22146028
-0.030298144 -0.015175275 0.22434594
-0.029999224 -0.018849874 0.22662835
-0.030490411 -0.022444148 0.22892888
-0.031187754 -0.025523918 0.23268801
-0.020845316 0.044551425 0.17881718
-0.020592557 0.043174081 0.18043977
-0.020856792 0.040278897 0.18209866
-0.020995308 0.037478834 0.18405961
-0.021237282 0.03505889 0.18723027
-0.021804428 0.032352429 0.18947946
-0.022303449 0.029630886 0.19238447
-0.022845505 0.026496673 0.19562241
-0.022923684 0.021003986 0.19955397
-0.023457775 0.016812649 0.20191273
-0.023293465 0.014385072 0.20341983
-0.023730041 0.012124636 0.20395224
-0.024320247 0.0088828495 0.20630643
-0.024972025 0.0053972653 0.20906085
-0.024981026 0.0021673148 0.2126897
-0.025192438 -0.00090068945 0.21608648
-0.025825368 -0.0047624861 0.21923995
-0.02598843 -0.0085143689 0.22090818
-0.026083484 -0.011743733 0.22283001
-0.026464287 -0.014905718 0.2261796
-0.026368856 -0.018871719 0.22806439
-0.027066037 -0.023298088 0.22957624
-0.027168246 -0.027139654 0.23341417
-0.017890334 0.043099027 0.18198413
-0.017879283 0.040806584 0.18393102
-0.017879976 0.037890602 0.18533008
-0.018341087 0.035109334 0.18755682
-0.018655479 0.032322209 0.18983015
-0.018834723 0.029633315 0.19257237
-0.019177604 0.026524885 0.19693558
-0.019587057 0.021988999 0.19993642
-0.019930502 0.017943894 0.2031416
-0.020135628 0.014583717 0.20498604
-0.020174244 0.011932365 0.2061705
-0.020983621 0.0090399822 0.20801993
-0.021545112 0.0056390348 0.21134636
-0.021488886 0.0026509361 0.21444973
-0.021687223 -0.00056314818 0.21770057
-0.022195606 -0.0042263917 0.22130732
-0.022311222 -0.0084016472 0.22287902
-0.022087669 -0.012084645 0.2242721
-0.021814769 -0.015623664 0.22724044
-0.021919187 -0.019211741 0.22807308
-0.022472387 -0.023483535 0.22881626
-0.023274669 -0.02775857 0.23387642
-0.014962477 0.040793456 0.18516213
-0.015028555 0.038127195 0.18665184
-0.015308172 0.035047453 0.1881551
-0.015603223 0.032079928 0.19043499
-0.015933106 0.02952845 0.19297919
-0.015908724 0.026536625 0.19751564
-0.016425831 0.022324691 0.20091902
-0.016579824 0.018880811 0.20345846
-0.01692483 0.015304548 0.20557226
-0.016722357 0.012203902 0.20793337
-0.017281078 0.0093191816 0.20985121
-0.017693842 0.0061896881 0.21276775
-0.017780006 0.003044775 0.21588956
-0.017858807 -0.00038758005 0.21942374
-0.018300226 -0.0037836232 0.22311841
-0.018483289 -0.0079588518 0.22463925
-0.017952465 -0.012107413 0.225676
-0.017825389 -0.016007507 0.2269416
-0.018410463 -0.019958854 0.22826387
-0.018823892 -0.024171714 0.2305423
-0.019486763 -0.028096128 0.23550312
-0.012439989 0.037789404 0.18788666
-0.01251453 0.03476904 0.18927336
-0.012749754 0.03200601 0.19133872
-0.012980469 0.029279804 0.19338502
-0.012669205 0.026689665 0.19701992
-0.013154372 0.023044411 0.20118923
-0.013588995 0.019474076 0.20454836
-0.01380403 0.016084287 0.20753254
-0.013507754 0.012789126 0.20977849
-0.013412727 0.0095690629 0.21149439
-0.013454377 0.0068138372 0.21401502
-0.013827807 0.0032887836 0.21727137
-0.014182085 -0.00019633069 0.22111449
-0.014524174 -0.0036554711 0.22395878
-0.014524587 -0.0078459084 0.22510172
-0.014209886 -0.012681061 0.2265434
-0.014277795 -0.016851995 0.22805502
-0.014763922 -0.020650512 0.22969279
-0.015299749 -0.024596024 0.2328801
-0.015610055 -0.027989266 0.2371586
-0.0098345587 0.034787655 0.19016196
-0.0093803359 0.032056522 0.19189614
-0.0095898174 0.029273992 0.19400765
-0.0094579468 0.026783681 0.19743514
-0.0099194292 0.023701949 0.20159058
-0.010446404 0.02018564 0.20550141
-0.010361697 0.01695573 0.20844154
-0.010070738 0.013236708 0.21075201
-0.0098070949 0.0098668048 0.21254753
-0.0096858358 0.0069234362 0.21556881
-0.010184336 0.0036865869 0.21875685
-0.010472989 5.9494472e-05 0.22223651
-0.01072722 -0.0034888191 0.22428203
-0.011054794 -0.007881646 0.22551155
-0.010595839 -0.01242075 0.22607926
-0.010729452 -0.016852997 0.22929795
-0.01091449 -0.020539479 0.23112634
-0.0116258 -0.024781335 0.23519896
-0.012512266 -0.027441755 0.23788166
-0.0061830156 0.031633556 0.19278261
-0.0060944841 0.029228155 0.19533256
-0.0062340274 0.026755704 0.19891685
-0.0067060762 0.023787299 0.20198582
-0.0069744429 0.020636849 0.20576771
-0.0067038257 0.017266581 0.20879161
-0.0063936068 0.013721543 0.21100855
-0.0062417048 0.010275588 0.21298705
-0.0061153183 0.0069142659 0.21634957
-0.0063768867 0.0034953493 0.21968654
-0.0066246721 -0.00019698599 0.22271277
-0.006690939 -0.0037416336 0.22383571
-0.0072525837 -0.0077810814 0.22608384
-0.0071236929 -0.012532928 0.22659145
-0.007263463 -0.016847201 0.23029701
-0.0078732325 -0.020508135 0.23227786
-0.0086685028 -0.023701429 0.2344037
-0.0035363282 0.031117737 0.19436187
-0.0025635138 0.029505976 0.19704351
-0.0028592374 0.026872644 0.19982044
-0.0031286511 0.02384397 0.20233853
-0.0031760191 0.020807905 0.20522799
-0.003249031 0.017461313 0.20821701
-0.0028541754 0.013861608 0.2109426
-0.0026869616 0.010524548 0.21331853
-0.0024748319 0.0070860637 0.21637264
-0.0027383098 0.0033864984 0.21888237
-0.0027673943 -0.000266585 0.22181901
-0.0029596633 -0.0043254718 0.22317842
-0.0032660603 -0.0083554368 0.22585995
-0.0039151884 -0.012613729 0.22733293
-0.0048564994 -0.016242133 0.23017718
0.00037446278 0.02922605 0.19879943
0.00042178947 0.027250182 0.2007215
0.00021141021 0.024391744 0.20273653
0.00027405849 0.021112835 0.20484163
0.00039595316 0.017625401 0.20743501
0.00074256706 0.014070244 0.21042506
0.00099744496 0.010672244 0.21302669
0.0011509078 0.0071524507 0.21534935
0.00071228744 0.0034590233 0.2174861
0.00086623698 -0.00053460128 0.21986692
0.00028721799 -0.0042539407 0.22256564
-0.00095905934 -0.0078469636 0.22613423
0.0036714557 0.027458379 0.20165646
0.0040967497 0.024567077 0.20321041
0.0040650209 0.021285603 0.20466092
0.0038564901 0.017720073 0.20723823
0.0043044416 0.014225662 0.20950778
0.0038982185 0.011210144 0.21193144
0 0 0 1 0 0 0 1 0 0 0 1 0 0 0 0 0 346 1 0 0
