ply
format ascii 1.0
comment PCL generated
element vertex 346
property float x
property float y
property float z
element camera 1
property float view_px
property float view_py
property float view_pz
property float x_axisx
property float x_axisy
property float x_axisz
property float y_axisx
property float y_axisy
property float y_axisz
property float z_axisx
property float z_axisy
property float z_axisz
property float focal
property float scalex
property float scaley
property float centerx
property float centery
property int viewportx
property int viewporty
property float k1
property float k2
end_header
-0.05722167 0.030297183 0.18868111
-0.058111943 0.027691422 0.18997477
-0.058359291 0.025081538 0.19149488
-0.058565672 0.022313986 0.19309868
-0.058811039 0.019659655 0.19437498
-0.058119647 0.015673446 0.19562407
-0.053498633 0.03227821 0.18449526
-0.054742422 0.030104829 0.18649136
-0.054678287 0.027221175 0.18727879
-0.054923169 0.02468805 0.18920094
-0.055519782 0.022063309 0.19132796
-0.056043297 0.019077895 0.19345325
-0.056062508 0.015762961 0.1946775
-0.056389004 0.012435299 0.19612993
-0.056688711 0.0093830004 0.19757345
-0.048183855 0.033649579 0.17917742
-0.04936276 0.031769466 0.18093519
-0.050590526 0.029457591 0.18303424
-0.051197629 0.026735084 0.18498537
-0.051387109 0.024339292 0.1876867
-0.051861431 0.02176377 0.18980558
-0.052293953 0.018917447 0.19194126
-0.05277656 0.015687162 0.19359331
-0.05361848 0.01180724 0.19520845
-0.054948416 0.0077309003 0.19736023
-0.055117797 0.0041073505 0.20011085
-0.054923739 0.0009472525 0.20261373
-0.044535283 0.03607098 0.17717633
-0.045153372 0.033916496 0.17845635
-0.045740891 0.031699535 0.18006092
-0.046662886 0.029289892 0.18192974
-0.047718808 0.026652915 0.18460448
-0.048024416 0.024131212 0.18736897
-0.048319381 0.021525307 0.18948449
-0.048774976 0.018675892 0.19142555
-0.049468827 0.015254393 0.19329976
-0.05051804 0.011071836 0.19477044
-0.051738974 0.0064058118 0.19530761
-0.052617472 0.0024413052 0.19895512
-0.052383717 -0.001015452 0.20342702
-0.052346151 -0.0034650357 0.20752659
-0.052605804 -0.0051128981 0.21129377
-0.04153727 0.039156917 0.17663123
-0.04216864 0.037073687 0.1774404
-0.042361639 0.034691297 0.17913796
-0.042785075 0.032436363 0.18086053
-0.043600891 0.029840916 0.18295969
-0.044419285 0.026563404 0.1848954
-0.044684876 0.023856299 0.18725756
-0.044837687 0.021101588 0.18909109
-0.045542561 0.017993309 0.19100219
-0.046338342 0.014833772 0.19270748
-0.047125772 0.010336327 0.19415279
-0.047981482 0.0051091206 0.19421978
-0.048441384 0.00067856972 0.19805786
-0.048811711 -0.0018045715 0.20375405
-0.049296144 -0.0039564008 0.20828097
-0.050349899 -0.0058803749 0.21235277
-0.050917957 -0.0081136003 0.21518447
-0.051296141 -0.010666897 0.21890317
-0.039482068 0.040645309 0.1769851
-0.039620731 0.037925906 0.17855072
-0.039925251 0.035417501 0.18021101
-0.040271156 0.033036795 0.18199131
-0.040636715 0.030098148 0.18403351
-0.041527629 0.026639711 0.18583576
-0.041776214 0.023891842 0.18780401
-0.042137429 0.02109893 0.18919769
-0.042368762 0.017996835 0.19063425
-0.043045867 0.014357256 0.19212796
-0.044018168 0.0092551727 0.19350299
-0.043977644 0.0035971324 0.1938614
-0.042727266 -0.001169777 0.19717945
-0.045096226 -0.00275819 0.20451172
-0.046015978 -0.0042296299 0.20942459
-0.046890266 -0.0055109747 0.21331395
-0.047596507 -0.0078889551 0.21671164
-0.048664991 -0.010821381 0.22031429
-0.048373327 -0.01410989 0.22301725
-0.047547657 -0.017457817 0.22497168
-0.03646246 0.04289135 0.17603569
-0.036871362 0.041395765 0.17755863
-0.036991857 0.03880471 0.17925371
-0.037323598 0.036092162 0.1810018
-0.037592009 0.033670813 0.18336378
-0.037897322 0.03015052 0.18518426
-0.038440656 0.026801152 0.18677756
-0.039007217 0.024041867 0.18868192
-0.039477758 0.02118616 0.19030647
-0.039757114 0.017835021 0.19111167
-0.039958332 0.013675325 0.19221227
-0.041216567 0.0083635272 0.19323617
-0.040812343 0.0033727814 0.19589721
-0.040367398 -0.00040906793 0.19964963
-0.041682433 -0.0028933643 0.20559151
-0.04271958 -0.0041460767 0.21027124
-0.043594483 -0.0061839116 0.21398664
-0.044114828 -0.0085746283 0.21668455
-0.044690289 -0.010621264 0.21970248
-0.044785526 -0.01517413 0.22337653
-0.045402065 -0.01925946 0.22731063
-0.044578757 -0.021730421 0.22950943
-0.033790443 0.043468546 0.17607056
-0.033763383 0.042046968 0.17756233
-0.033618338 0.039743971 0.1796913
-0.033885982 0.037317313 0.18155096
-0.034014955 0.034426954 0.1839405
-0.034444943 0.030550312 0.18649219
-0.03525541 0.027147099 0.18770483
-0.03600784 0.024096703 0.18950187
-0.036444582 0.020776207 0.19107176
-0.036716398 0.017197989 0.19218619
-0.036973804 0.012869973 0.19304971
-0.038113143 0.0087867267 0.19395663
-0.038041599 0.0044661826 0.19726326
-0.037979551 0.0014093496 0.20126118
-0.038789611 -0.001219846 0.20666964
-0.039219249 -0.0043042935 0.21140601
-0.04010614 -0.0065904935 0.21482217
-0.040483139 -0.0089826761 0.21700972
-0.040704161 -0.012713632 0.22050798
-0.041267231 -0.016873844 0.22344401
-0.041632451 -0.020203184 0.22664493
-0.041020896 -0.022221299 0.22955903
-0.030844318 0.043508057 0.17638613
-0.030692847 0.042048853 0.17773439
-0.030631484 0.039723326 0.17986841
-0.030708777 0.037398338 0.18207392
-0.030566128 0.034552075 0.18454401
-0.031205462 0.030948995 0.18723163
-0.031854209 0.027690327 0.18864238
-0.032803897 0.023987353 0.19035442
-0.033292089 0.020142855 0.19189338
-0.033655852 0.016560083 0.19320121
-0.034133628 0.012352326 0.19387226
-0.035333864 0.00896833 0.19499859
-0.035046905 0.0053057503 0.19860366
-0.035039578 0.0027886881 0.202785
-0.035884332 7.4089643e-05 0.20735882
-0.036380701 -0.0030671328 0.21182126
-0.036674734 -0.0061622784 0.21581948
-0.03713771 -0.0088323364 0.21814905
-0.037406497 -0.012766238 0.22144772
-0.037916858 -0.016838722 0.22377634
-0.038014866 -0.020231636 0.22608429
-0.036999758 -0.022572141 0.2288222
-0.027928276 0.0435706 0.17682023
-0.027713938 0.042138413 0.17810656
-0.027857633 0.039686434 0.17987743
-0.027710894 0.037375104 0.18256269
-0.027336931 0.03448838 0.18518846
-0.027863663 0.031452052 0.18764399
-0.028591812 0.028100858 0.18964201
-0.029460127 0.024459476 0.19125257
-0.03015505 0.019863559 0.19307432
-0.030438066 0.015560873 0.19487666
-0.031128701 0.012193068 0.19504456
-0.031787589 0.0097582461 0.19619936
-0.031606842 0.0070176516 0.20018239
-0.031172341 0.0041576158 0.20373854
-0.03258564 0.00052963028 0.20811455
-0.033368845 -0.0024470263 0.21222031
-0.033564411 -0.0059213494 0.21721783
-0.034027424 -0.0089960443 0.21937007
-0.034471143 -0.012993129 0.22262976
-0.034761552 -0.016794669 0.22529018
-0.034430075 -0.020075306 0.22733277
-0.033611163 -0.022820251 0.22940949
-0.024937086 0.043884695 0.17762242
-0.024742184 0.042580668 0.17896123
-0.024582548 0.03989723 0.18023327
-0.024367586 0.0372614 0.18270625
-0.024317462 0.03481954 0.18567301
-0.024843778 0.032028697 0.18813007
-0.02542007 0.028695449 0.1906196
-0.02627496 0.024625406 0.1928317
-0.026699295 0.019368565 0.19494474
-0.026998948 0.014919247 0.19633809
-0.026614359 0.012380198 0.19770971
-0.027901409 0.010911295 0.19864932
-0.028136436 0.007799516 0.20267767
-0.028308921 0.0044349954 0.20564429
-0.029361432 0.00087331608 0.21026035
-0.029469058 -0.0027133785 0.2147754
-0.030172303 -0.0064660674 0.21883698
-0.030633006 -0.009581401 0.22084364
-0.031181205 -0.01308633 0.22343405
-0.031272978 -0.016655479 0.22624813
-0.030419048 -0.020015968 0.22826077
-0.030541675 -0.022987703 0.22986208
-0.030985942 -0.025942568 0.23310106
-0.021925235 0.044922106 0.17916702
-0.021456869 0.04327333 0.1803308
-0.021387056 0.04023134 0.18170728
-0.021141745 0.037253838 0.18336226
-0.021395495 0.034913771 0.1864761
-0.021940913 0.032357574 0.18879598
-0.022298185 0.029391145 0.19142835
-0.022952896 0.025680475 0.1939532
-0.023576442 0.019639403 0.19795549
-0.023688966 0.015311728 0.20000127
-0.023575071 0.012772503 0.20125183
-0.02430808 0.010597827 0.20186271
-0.025029207 0.0077690021 0.20466247
-0.025797786 0.0046444195 0.20786554
-0.02573665 0.00093618024 0.21209727
-0.025790578 -0.0025630433 0.2162153
-0.026511529 -0.0063866065 0.21984217
-0.026845254 -0.0098636812 0.22161353
-0.026843809 -0.012881852 0.2237608
-0.027046543 -0.016144503 0.22717275
-0.026715592 -0.019455517 0.22884293
-0.027233727 -0.02334729 0.23039016
-0.027062925 -0.027126068 0.23418055
-0.018449711 0.043089837 0.18164425
-0.018406523 0.040819637 0.18352102
-0.018273432 0.037848633 0.18481092
-0.01852431 0.035086486 0.1869829
-0.018901724 0.032443184 0.18933932
-0.019142486 0.029741434 0.19188009
-0.019770056 0.026400056 0.1957287
-0.020216143 0.021401064 0.19889683
-0.020408237 0.017013082 0.20190558
-0.020460671 0.013386062 0.20350772
-0.020699831 0.010778475 0.20470797
-0.021720096 0.0080628935 0.20675986
-0.0221688 0.004663669 0.21057059
-0.021869944 0.0013222167 0.21419895
-0.022068018 -0.0019212967 0.21755001
-0.022526905 -0.0055997143 0.22139648
-0.022842932 -0.0093918787 0.2232006
-0.022452002 -0.012846172 0.22493064
-0.022007694 -0.015874483 0.22805513
-0.022277301 -0.018990252 0.22899793
-0.02265715 -0.02308185 0.22994047
-0.023147196 -0.027382512 0.23485683
-0.015488276 0.040890217 0.18477404
-0.015487794 0.038239025 0.18624696
-0.015579822 0.0352423 0.18792932
-0.015973752 0.032382224 0.19017842
-0.016381163 0.029836906 0.19246006
-0.016543627 0.026413348 0.19676161
-0.017251424 0.022035668 0.20002742
-0.017195215 0.0184871 0.20265505
-0.017319137 0.014648998 0.20463765
-0.017268179 0.011372064 0.20711583
-0.018009445 0.008411536 0.20925218
-0.018282551 0.0052040028 0.21243407
-0.018110018 0.0020464745 0.21571732
-0.018070491 -0.0013334895 0.21923164
-0.018391637 -0.0045658681 0.22311667
-0.018708691 -0.0084727146 0.22500935
-0.018101025 -0.01223478 0.2264266
-0.01808214 -0.015756788 0.22795616
-0.019077597 -0.019507429 0.22964439
-0.019274324 -0.02346161 0.23198733
-0.019554975 -0.027381331 0.23669289
-0.012903977 0.037952065 0.18762065
-0.01277907 0.034805391 0.18908332
-0.013128183 0.032052271 0.19110471
-0.013419189 0.029454805 0.19320254
-0.01327409 0.026512481 0.19643162
-0.014052929 0.022798466 0.20050961
-0.014359553 0.019387951 0.20397989
-0.014287864 0.015789084 0.20689748
-0.013943672 0.012196158 0.2091852
-0.01382058 0.008940733 0.21143733
-0.013909061 0.00617815 0.21404701
-0.014085436 0.0026748211 0.21724169
-0.014261121 -0.00072260736 0.22111236
-0.01464881 -0.0039848401 0.22409283
-0.014624151 -0.007925679 0.22583143
-0.014329719 -0.012490171 0.2276424
-0.014619934 -0.016577914 0.22942333
-0.015355811 -0.020247836 0.23141856
-0.015778188 -0.02382094 0.23439978
-0.015786091 -0.027034851 0.23830217
-0.010314392 0.034830447 0.18997084
-0.0099517675 0.03217091 0.19185333
-0.010222045 0.029501174 0.19407228
-0.010093142 0.026590044 0.19700466
-0.01077912 0.023503458 0.200939
-0.011399738 0.020330381 0.20506692
-0.010979382 0.016938632 0.20774987
-0.010498249 0.012821261 0.20999512
-0.010067382 0.0095865522 0.21248181
-0.0099814367 0.0066357553 0.21563646
-0.010307157 0.0033972033 0.21878022
-0.010556813 -0.00017698621 0.22223327
-0.010826049 -0.0035979813 0.22430661
-0.011124119 -0.0077681844 0.2259804
-0.010758248 -0.012258315 0.22716498
-0.010957111 -0.016644949 0.23042968
-0.011181322 -0.020262705 0.23240992
-0.011905435 -0.024199417 0.23654026
-0.012690675 -0.026573757 0.23902632
-0.0068075899 0.032170855 0.193205
-0.0068034022 0.029752629 0.19577673
-0.0068395422 0.026644764 0.19870017
-0.007442941 0.023670897 0.20151633
-0.00774755 0.020875545 0.20538692
-0.0074584275 0.017088417 0.20793453
-0.0068889656 0.013474061 0.21030568
-0.0065489197 0.010257338 0.21287416
-0.006426712 0.0069732345 0.21661447
-0.0065276576 0.003447568 0.22001547
-0.006822913 -0.00017964895 0.22309041
-0.0068183485 -0.0036830318 0.22417857
-0.0073912302 -0.0076537165 0.22634809
-0.0072906367 -0.012420054 0.22729619
-0.0073372326 -0.01673767 0.23092644
-0.0078905961 -0.020363992 0.23313236
-0.0087338751 -0.023316899 0.23549566
-0.004233249 0.031792346 0.19504358
-0.0030874629 0.029779434 0.19749789
-0.0032967867 0.026521334 0.19939381
-0.003798207 0.023673244 0.20148329
-0.0038601779 0.020795627 0.20453024
-0.0040509943 0.017075228 0.2072583
-0.0033441389 0.013611294 0.21027958
-0.0030319621 0.010623556 0.21307753
-0.0028201288 0.0074527645 0.21676037
-0.002856039 0.0037392015 0.21982315
-0.0029059534 3.4122419e-05 0.222975
-0.0029518823 -0.0040189265 0.22419095
-0.0035234662 -0.0081569664 0.22647828
-0.0039940588 -0.012622147 0.22765003
-0.004837282 -0.016317727 0.23059703
-7.5457137e-05 0.028998118 0.19867116
3.1225962e-05 0.026480079 0.19963777
-0.00032014187 0.023778142 0.20140281
-0.00042952553 0.020848235 0.20403102
-0.00040454732 0.017084913 0.20646289
0.0001673521 0.013789983 0.20976947
0.00055245392 0.010715168 0.21270631
0.00084169209 0.0075557358 0.21568494
0.00060709787 0.0041329968 0.2187172
0.00090926862 0.00017792359 0.22177808
0.00027325872 -0.0037606675 0.22427979
-0.0013449978 -0.0075218994 0.2271084
0.0033752425 0.026484951 0.20029505
0.0035284664 0.023798505 0.20210235
0.0032996829 0.020751011 0.20397606
0.003117098 0.017306929 0.20663349
0.0037970222 0.013891859 0.20911396
0.0034424237 0.011088634 0.21164589
0 0 0 1 0 0 0 1 0 0 0 1 0 0 0 0 0 346 1 0 0
