ply
format ascii 1.0
comment PCL generated
element vertex 346
property float x
property float y
property float z
element camera 1
property float view_px
property float view_py
property float view_pz
property float x_axisx
property float x_axisy
property float x_axisz
property float y_axisx
property float y_axisy
property float y_axisz
property float z_axisx
property float z_axisy
property float z_axisz
property float focal
property float scalex
property float scaley
property float centerx
property float centery
property int viewportx
property int viewporty
property float k1
property float k2
end_header
-0.05710645 0.030022319 0.18917356
-0.058037471 0.027392272 0.19040324
-0.058384892 0.024618864 0.19191034
-0.05862686 0.021742688 0.19349031
-0.058851428 0.019001642 0.19481
-0.058338944 0.014719495 0.19599985
-0.053002868 0.032399125 0.18524309
-0.054493926 0.030064555 0.18713021
-0.054518595 0.027056707 0.18788816
-0.054894153 0.024318624 0.1897376
-0.05555426 0.021520251 0.1917666
-0.05611977 0.01835002 0.19382915
-0.056299254 0.014706203 0.19502591
-0.056724608 0.01140096 0.19672464
-0.057101782 0.0085168853 0.19848801
-0.04747637 0.034052275 0.18006536
-0.04868944 0.032097779 0.18187135
-0.050089248 0.029623995 0.18385263
-0.050936863 0.026714681 0.18575081
-0.051286913 0.024110813 0.18833153
-0.051877946 0.021289278 0.19028698
-0.052414756 0.018130377 0.19222495
-0.053005483 0.014530067 0.19385861
-0.053982738 0.010596164 0.19592778
-0.055396792 0.0068245889 0.1984393
-0.055579927 0.0035145551 0.20124426
-0.055397648 0.00055908383 0.203656
-0.043920282 0.036319487 0.17757054
-0.044533357 0.034225088 0.17898053
-0.045115203 0.032002475 0.18065391
-0.046048496 0.029576287 0.18266864
-0.047385357 0.026710009 0.18551004
-0.047962785 0.023930483 0.18815887
-0.048407957 0.021046069 0.19001234
-0.048953731 0.017907279 0.19167234
-0.049785223 0.01402035 0.19359513
-0.050921172 0.0096863629 0.19574206
-0.052167702 0.0052261041 0.19674763
-0.053098291 0.0017720567 0.20024121
-0.052861709 -0.0012199364 0.20437139
-0.05275527 -0.0035858976 0.20835273
-0.05291155 -0.0053133122 0.21192114
-0.040805671 0.03921004 0.17664845
-0.041463993 0.03717649 0.17760326
-0.041643906 0.03475232 0.17928392
-0.042092044 0.032490943 0.18106864
-0.042870007 0.029938204 0.18327555
-0.044151213 0.026704904 0.18564549
-0.044642553 0.02375279 0.18804412
-0.044893935 0.020807043 0.18971653
-0.04569741 0.017407268 0.19138131
-0.046634808 0.013661556 0.19310059
-0.04758453 0.008944151 0.1954446
-0.048484243 0.0037873255 0.19614406
-0.048960462 2.7047825e-05 0.19978897
-0.049277149 -0.0018300801 0.20463595
-0.049704131 -0.0039621773 0.20906331
-0.050637398 -0.0060232216 0.2129456
-0.051105555 -0.0084690573 0.21561122
-0.051357374 -0.011317374 0.21911043
-0.038828269 0.040610034 0.17693569
-0.038829904 0.03781534 0.17842132
-0.039081164 0.035272002 0.18007955
-0.039406843 0.032858703 0.18186168
-0.03988814 0.029896712 0.18392417
-0.041229762 0.026468134 0.18603785
-0.041640501 0.023657737 0.18815912
-0.042145133 0.020839661 0.18964583
-0.042484082 0.017602667 0.19106366
-0.043237757 0.013518599 0.19263521
-0.044718709 0.0079433378 0.19513747
-0.044845693 0.0024747145 0.19593532
-0.043422781 -0.0018905294 0.199185
-0.045487847 -0.00251849 0.20539378
-0.04638245 -0.0040421332 0.21014452
-0.047188703 -0.0055473959 0.2139059
-0.047783457 -0.0083059901 0.21702401
-0.048695136 -0.01159787 0.22033545
-0.048201155 -0.015060537 0.22255746
-0.047260113 -0.018078396 0.22385903
-0.035941485 0.043177888 0.17647551
-0.03630954 0.041475654 0.17774963
-0.036294911 0.038639322 0.17904116
-0.036398027 0.035737064 0.18059091
-0.036570698 0.033216376 0.18289076
-0.037263297 0.029630192 0.18489607
-0.03810532 0.026300825 0.18672666
-0.03877278 0.023593502 0.18870284
-0.039362039 0.020726424 0.19037943
-0.039832074 0.017303849 0.19133313
-0.040242638 0.013023909 0.19263028
-0.042310409 0.0073433868 0.19477369
-0.041762918 0.0026369994 0.19753033
-0.0409724 -0.00084985967 0.20128144
-0.042013373 -0.0023311472 0.20659178
-0.043087069 -0.0036253857 0.21118945
-0.043919027 -0.0059350515 0.21459012
-0.044139881 -0.0089785689 0.21646324
-0.044580344 -0.011607134 0.2190681
-0.044676442 -0.015791122 0.22237481
-0.04530419 -0.019670697 0.22623387
-0.044472557 -0.022068992 0.22849615
-0.033343792 0.043910205 0.17678118
-0.033286765 0.042383865 0.17817347
-0.033073924 0.039795429 0.17982987
-0.033196654 0.036960103 0.18099467
-0.033297263 0.033587247 0.18302168
-0.03407868 0.029847816 0.18626657
-0.0349655 0.026531614 0.18769477
-0.035777204 0.023527749 0.18953922
-0.036400545 0.020157248 0.1912291
-0.036885262 0.016550628 0.1925796
-0.037444945 0.012232816 0.19374266
-0.039289515 0.0079846215 0.19501075
-0.038912874 0.0038701443 0.19849303
-0.038555473 0.0011295531 0.20246615
-0.039250795 -0.0008278215 0.20776972
-0.039644483 -0.0033312819 0.21261063
-0.040353768 -0.006034676 0.21547841
-0.04054074 -0.0088549862 0.21696953
-0.040637597 -0.01301346 0.21972564
-0.041192632 -0.017150875 0.22246255
-0.041510582 -0.020491349 0.22570306
-0.040915556 -0.022384485 0.22863033
-0.030438622 0.044148516 0.1773773
-0.030266268 0.042610586 0.17862207
-0.030134656 0.039959189 0.18026417
-0.030137189 0.037211206 0.18190426
-0.030020647 0.033685017 0.18372713
-0.030957097 0.03027459 0.18701385
-0.031673744 0.027203774 0.18878108
-0.032714255 0.023550257 0.19067931
-0.033423934 0.01952612 0.19241837
-0.03397977 0.015946249 0.193914
-0.034725487 0.011716606 0.19477254
-0.036344137 0.0082393689 0.19580781
-0.035767566 0.0047591953 0.19940113
-0.035543196 0.0024797085 0.20358646
-0.036277089 0.00026192219 0.2082669
-0.036757488 -0.0024027876 0.21275166
-0.036883157 -0.005819119 0.21626168
-0.037244774 -0.0088112978 0.21807875
-0.037422519 -0.013002251 0.22063805
-0.037858445 -0.017014638 0.22287695
-0.037912406 -0.020378379 0.2252281
-0.036918335 -0.022556316 0.22793137
-0.027548986 0.044291276 0.17796363
-0.027309202 0.042726193 0.17906082
-0.027392371 0.040019296 0.18042691
-0.02715929 0.037243232 0.18251719
-0.026750127 0.03365925 0.1845728
-0.027523551 0.030698469 0.18728574
-0.028475143 0.027751466 0.18980558
-0.029528178 0.024234906 0.19189671
-0.030508859 0.01931221 0.19410872
-0.031002454 0.014975714 0.1960399
-0.031795941 0.011554399 0.19615977
-0.032526389 0.008936882 0.19669856
-0.032109559 0.0062325913 0.20050277
-0.031583279 0.0036120827 0.20419611
-0.032928776 0.00060503517 0.20887272
-0.033711281 -0.0020640506 0.21304977
-0.033727057 -0.0058186413 0.21738434
-0.034164563 -0.0090587111 0.21922551
-0.034590308 -0.013125217 0.22193837
-0.034768909 -0.01685149 0.22450982
-0.034370087 -0.020048732 0.22653241
-0.033605959 -0.022646656 0.22840261
-0.024565043 0.044498615 0.17873937
-0.024353428 0.043034181 0.17990991
-0.024132971 0.040235043 0.1808335
-0.023841634 0.037114929 0.18278994
-0.02377768 0.034306243 0.18551598
-0.024369614 0.031339463 0.1878763
-0.025261048 0.028334932 0.1907279
-0.026407853 0.02461385 0.1936062
-0.027264252 0.018970065 0.19642918
-0.027747642 0.014400383 0.19779031
-0.027345942 0.011674107 0.19826463
-0.028492881 0.0099805947 0.1987765
-0.028601192 0.0071019768 0.20278786
-0.028687524 0.0039954479 0.20595485
-0.029619085 0.00094871933 0.21089894
-0.029856056 -0.0023752546 0.21546152
-0.030527836 -0.0062008444 0.21931916
-0.030999428 -0.0093653891 0.22121249
-0.031406153 -0.012986302 0.22311403
-0.031373557 -0.016579993 0.22567357
-0.030446453 -0.019823717 0.22737989
-0.03062759 -0.0227695 0.22861625
-0.030952424 -0.025713924 0.23150706
-0.021438569 0.045047451 0.17964196
-0.021012938 0.043302599 0.18064912
-0.020970704 0.040158167 0.18190543
-0.020671817 0.037072886 0.18356211
-0.021097012 0.034840349 0.18679202
-0.021754047 0.032280304 0.1892774
-0.022273567 0.029462442 0.19205727
-0.023005825 0.025857611 0.19478942
-0.023837423 0.020165272 0.19931743
-0.024211146 0.015513431 0.20069376
-0.02427187 0.012656753 0.20155771
-0.024999293 0.010245662 0.20206299
-0.025613481 0.0075551178 0.2049695
-0.026206391 0.0045435722 0.20827949
-0.026194738 0.0011963082 0.21270536
-0.026339764 -0.0020538799 0.21695684
-0.027144833 -0.0057523819 0.22083768
-0.02752099 -0.0092454683 0.22272463
-0.027374543 -0.01243974 0.22443007
-0.027217954 -0.015983801 0.22710383
-0.026822895 -0.019311344 0.22766905
-0.027366715 -0.023145111 0.22851527
-0.026976379 -0.027076131 0.2319188
-0.018025324 0.04287307 0.18156496
-0.018006796 0.040661249 0.18353507
-0.017930999 0.037797675 0.1850576
-0.018434446 0.03534143 0.187778
-0.018988794 0.033082437 0.19061102
-0.0192577 0.030384725 0.19323316
-0.019801846 0.026786447 0.19698656
-0.020140108 0.022095319 0.20018269
-0.020521719 0.017513651 0.20274004
-0.020970024 0.013709743 0.20402147
-0.021457868 0.011082249 0.20520809
-0.022523856 0.0084048118 0.20733935
-0.0229058 0.0051685027 0.21125416
-0.022569122 0.0019254996 0.21482204
-0.022704931 -0.0012605733 0.21825758
-0.023194814 -0.0048460523 0.22228844
-0.023489458 -0.008787985 0.22401193
-0.022886435 -0.012459592 0.22516459
-0.02214697 -0.015831634 0.22738613
-0.022372121 -0.019006247 0.22744399
-0.022813991 -0.023075638 0.22750407
-0.023055123 -0.027557736 0.2321081
-0.015047212 0.040614467 0.18460219
-0.015125844 0.038072627 0.18621562
-0.015578324 0.035619058 0.18888982
-0.016141644 0.033128526 0.19166641
-0.016480334 0.030445021 0.19386806
-0.016523927 0.026991151 0.19819443
-0.01706557 0.022618765 0.20122118
-0.017060766 0.018857177 0.20340043
-0.017424244 0.014896055 0.20513541
-0.017935941 0.011948084 0.20771722
-0.01901306 0.0092044976 0.21001947
-0.019122628 0.0059291702 0.21303934
-0.018786356 0.0026598345 0.21616003
-0.018676009 -0.00067430059 0.21959643
-0.01874274 -0.0041159806 0.22317447
-0.019100789 -0.008120155 0.22494884
-0.018466119 -0.011982626 0.22581278
-0.018351465 -0.01563115 0.2267611
-0.019240508 -0.019560339 0.22780666
-0.019325918 -0.023656115 0.2293428
-0.019340506 -0.027778385 0.23373142
-0.01255956 0.037755862 0.1875833
-0.012873107 0.035301983 0.19030437
-0.013296157 0.032773331 0.19265196
-0.01351762 0.030049924 0.19461238
-0.013226145 0.02706942 0.19771178
-0.013760373 0.023291467 0.2015826
-0.014125578 0.019532068 0.20454356
-0.014151029 0.015824981 0.20725657
-0.01428019 0.01275918 0.20971107
-0.014548496 0.0097381566 0.21190317
-0.014666942 0.0068104682 0.21429709
-0.014708331 0.0031736228 0.21721883
-0.014645504 -0.000367573 0.22077936
-0.014912302 -0.0038406583 0.22339039
-0.014907517 -0.0078531271 0.22480419
-0.014678867 -0.012351955 0.22644195
-0.014882351 -0.01652341 0.22792606
-0.01552946 -0.020354979 0.229577
-0.015804458 -0.024125585 0.23197034
-0.015497968 -0.027525172 0.23554653
-0.010277439 0.035051893 0.1907842
-0.0099251149 0.032501712 0.19280812
-0.010030896 0.029573197 0.194685
-0.0098647811 0.026776155 0.19766386
-0.010386844 0.023838485 0.20170213
-0.011050747 0.020278864 0.20538454
-0.01074505 0.016914183 0.20800927
-0.01056094 0.013408585 0.21053234
-0.010452365 0.010075389 0.21255375
-0.010498201 0.0068623759 0.21523124
-0.010725556 0.0035422686 0.21794416
-0.010789663 -0.00010654152 0.22129589
-0.011093404 -0.0035824145 0.22313055
-0.011438164 -0.0077926745 0.22456604
-0.011187238 -0.012191372 0.22576262
-0.011214996 -0.016616076 0.22898525
-0.011381501 -0.020332266 0.23079829
-0.01190071 -0.024513485 0.23441681
-0.012512627 -0.02707986 0.23659699
-0.0065816408 0.03216885 0.19371535
-0.0064784824 0.029560288 0.19607651
-0.0064790151 0.026643887 0.19909382
-0.0070361542 0.023829931 0.20196365
-0.0074083428 0.020691613 0.20550765
-0.007183129 0.017250385 0.20830201
-0.0068396046 0.013903919 0.21076748
-0.0066656847 0.010384282 0.21278994
-0.0067291856 0.006765035 0.21575679
-0.0068001244 0.0032964821 0.21867225
-0.0070384797 -0.00020821991 0.2218855
-0.0070970082 -0.0036536725 0.22298387
-0.0076748524 -0.0077338996 0.22484516
-0.007726857 -0.012455382 0.22573125
-0.0075872513 -0.01672918 0.22943397
-0.0080763875 -0.02043773 0.23145662
-0.0088261953 -0.023526575 0.23360582
-0.0039761532 0.031616651 0.19533122
-0.00276055 0.02955284 0.19772056
-0.0029653034 0.026574641 0.19986938
-0.0034637351 0.023845429 0.20199749
-0.0035286897 0.020819087 0.20482862
-0.0037498705 0.017369077 0.20777118
-0.0032400412 0.013928102 0.21065795
-0.0029868572 0.010580783 0.21295023
-0.0029505009 0.0069349664 0.21575794
-0.0031453522 0.0033933925 0.21835038
-0.0031325368 -6.2267747e-05 0.22163914
-0.0032418419 -0.004032162 0.22290879
-0.0038095294 -0.008188664 0.22508103
-0.0044077002 -0.01263378 0.22606979
-0.0051112422 -0.016325397 0.22904384
0.00024629873 0.028839754 0.19888221
0.00031990683 0.026572501 0.20011394
-1.767691e-05 0.024017492 0.20196635
-0.00010628875 0.020946553 0.20438981
-7.5347052e-05 0.017369017 0.20709251
0.00042100003 0.014029977 0.21014169
0.00071891549 0.010668228 0.21264656
0.00086288998 0.0070811971 0.21492603
0.00036928113 0.0036681003 0.21724924
0.00060284993 2.4451941e-05 0.2203227
-1.0272565e-05 -0.0037865436 0.22299233
-0.0016094041 -0.0075524296 0.22573012
0.0037799962 0.026516559 0.2005714
0.0039740545 0.023875613 0.20230725
0.0036893683 0.02079683 0.20417991
0.0034849471 0.017473204 0.20699047
0.0041502635 0.013965557 0.20933911
0.0037080911 0.011059552 0.21165676
0 0 0 1 0 0 0 1 0 0 0 1 0 0 0 0 0 346 1 0 0
