ply
format ascii 1.0
comment PCL generated
element vertex 346
property float x
property float y
property float z
element camera 1
property float view_px
property float view_py
property float view_pz
property float x_axisx
property float x_axisy
property float x_axisz
property float y_axisx
property float y_axisy
property float y_axisz
property float z_axisx
property float z_axisy
property float z_axisz
property float focal
property float scalex
property float scaley
property float centerx
property float centery
property int viewportx
property int viewporty
property float k1
property float k2
end_header
-0.057948794 0.028890073 0.18807635
-0.058757264 0.02644673 0.1896321
-0.058967426 0.023900829 0.19152755
-0.059070662 0.021295687 0.19356345
-0.059168693 0.018794838 0.19532435
-0.058360286 0.014653527 0.19704992
-0.053879451 0.031199049 0.18405247
-0.055297971 0.028866911 0.18596888
-0.055182669 0.026023801 0.18705258
-0.055424731 0.023582187 0.18941621
-0.055956744 0.021110544 0.19195914
-0.056346372 0.018274141 0.19462089
-0.056356009 0.014702133 0.19614509
-0.056759119 0.011202329 0.19752413
-0.057140626 0.0081083328 0.19889937
-0.048299938 0.033610821 0.17982058
-0.049453158 0.031306446 0.1811181
-0.050765023 0.02855741 0.18273398
-0.051557589 0.025706369 0.18487273
-0.051772237 0.02344425 0.18811198
-0.052208919 0.020994304 0.19071846
-0.052573934 0.018204432 0.19330803
-0.053090535 0.014649861 0.19509108
-0.054103017 0.010307161 0.19648196
-0.055525675 0.0063277986 0.19858047
-0.055611286 0.0029073681 0.20120436
-0.055330671 -0.00014007108 0.20343871
-0.044834301 0.036370914 0.17805041
-0.045403063 0.034026876 0.17893463
-0.045928743 0.031522628 0.1801375
-0.046767622 0.028802428 0.18177833
-0.047974404 0.025857123 0.1848083
-0.048363324 0.023487829 0.18825465
-0.048613276 0.021025164 0.19090658
-0.049062405 0.018190583 0.19304621
-0.049882032 0.014183434 0.19476837
-0.051126689 0.0093435803 0.19597337
-0.052481819 0.0047143069 0.19651705
-0.053296592 0.0010475175 0.19985774
-0.052782901 -0.0021739465 0.20373781
-0.052463077 -0.0045550056 0.20766613
-0.052429684 -0.0060929083 0.21136196
-0.041712251 0.039332941 0.17761746
-0.042385411 0.037208129 0.17816006
-0.042523395 0.034542762 0.17931469
-0.042927392 0.032038491 0.18067013
-0.043670699 0.029260159 0.18254003
-0.044655051 0.025959058 0.18504873
-0.044952448 0.023326674 0.18805657
-0.045095198 0.020659752 0.19023556
-0.045801681 0.017579935 0.19251761
-0.046761304 0.013831485 0.19419855
-0.047793947 0.0085486053 0.19534306
-0.04877511 0.0032238776 0.19546014
-0.049123466 -0.00096153276 0.198838
-0.049189657 -0.0030411622 0.20365128
-0.049380947 -0.0051295054 0.20811521
-0.050119836 -0.00691838 0.21218099
-0.050528232 -0.0091606146 0.21500014
-0.050685313 -0.011628955 0.21876124
-0.039564654 0.040541217 0.17766015
-0.039662994 0.037716165 0.17895739
-0.039939594 0.034981187 0.18011551
-0.040260945 0.032375723 0.18153732
-0.040666189 0.029304562 0.18338469
-0.041672666 0.025794817 0.18541996
-0.041931447 0.023068834 0.187694
-0.042352609 0.020444753 0.18953894
-0.042631265 0.017470103 0.19146429
-0.043350309 0.013620215 0.19342557
-0.044880021 0.0074006771 0.19458024
-0.044928808 0.0016852454 0.19483447
-0.043267541 -0.003027817 0.19776322
-0.045321465 -0.0041467124 0.20401673
-0.045942318 -0.0055074454 0.20885175
-0.046572521 -0.0066316267 0.21279171
-0.047116153 -0.0090098353 0.21616049
-0.047970776 -0.01182493 0.21988651
-0.047474388 -0.014949645 0.22245505
-0.046445303 -0.017918831 0.22348118
-0.036527082 0.042803857 0.17650642
-0.036855418 0.041187007 0.1779438
-0.036928572 0.038424745 0.1794135
-0.037244517 0.035397984 0.18064411
-0.037473064 0.032749824 0.18270625
-0.037983317 0.029257985 0.18462324
-0.038515612 0.025721179 0.1860442
-0.039035875 0.022973498 0.18795864
-0.039531674 0.020226747 0.18980923
-0.039992753 0.016968491 0.19112864
-0.040395666 0.012759541 0.19242482
-0.042401645 0.00661596 0.19390588
-0.041650821 0.0016258535 0.19628085
-0.040665973 -0.0021191998 0.19980916
-0.041642144 -0.004452331 0.20481813
-0.042506099 -0.0055628829 0.20946719
-0.043284472 -0.0074440343 0.21304251
-0.043644115 -0.0098932032 0.21560349
-0.04398559 -0.011934816 0.21865796
-0.043764077 -0.015884377 0.22169188
-0.044087391 -0.019741235 0.22539499
-0.043165881 -0.022157526 0.22758447
-0.033847254 0.043406982 0.17646568
-0.03374213 0.041880902 0.17783493
-0.033489108 0.039287627 0.17941763
-0.033709519 0.036627401 0.18091705
-0.034050506 0.03362374 0.18343067
-0.03464441 0.029775565 0.18637291
-0.035340376 0.026059968 0.18701486
-0.035978612 0.022873498 0.18855532
-0.03654987 0.019672763 0.19047652
-0.037050847 0.01622404 0.19206975
-0.037587848 0.01187541 0.19316113
-0.039284609 0.0071937018 0.19403023
-0.038747445 0.0028241153 0.19723091
-0.038188625 -0.00021041503 0.20100659
-0.038624365 -0.0029423852 0.20591417
-0.038940728 -0.0057278872 0.21042383
-0.039657101 -0.0077895592 0.21366976
-0.039937556 -0.01012197 0.21577591
-0.039865825 -0.013640224 0.2186859
-0.040218618 -0.01756561 0.22116849
-0.040382847 -0.020818949 0.22449905
-0.039674256 -0.022610378 0.22744364
-0.030842321 0.04344916 0.17670929
-0.030626982 0.041887153 0.17789829
-0.030521013 0.039375186 0.17974782
-0.030577945 0.03684824 0.18171231
-0.030670559 0.033952869 0.1842963
-0.031485964 0.030366343 0.18732958
-0.032023519 0.026888929 0.18834525
-0.032833062 0.022832261 0.18947764
-0.033568215 0.019094151 0.19157806
-0.034117434 0.015620536 0.19325024
-0.034826063 0.011349637 0.19407804
-0.036316816 0.0074941623 0.19479848
-0.035572316 0.0037614289 0.19814107
-0.035165399 0.0011533217 0.20212948
-0.035699748 -0.0015500862 0.20652677
-0.036078554 -0.0045694374 0.2106837
-0.036167908 -0.0074290261 0.21435441
-0.036478192 -0.010064369 0.21660584
-0.036508098 -0.01377142 0.21908411
-0.036845442 -0.017593667 0.22126846
-0.03685236 -0.020855904 0.22368532
-0.035796512 -0.022897139 0.22657177
-0.027863605 0.043387998 0.17700876
-0.02763856 0.041898221 0.1782186
-0.027753159 0.039339516 0.17985077
-0.027577437 0.036846835 0.1822727
-0.027303634 0.033901338 0.18503563
-0.028060667 0.030923929 0.18768433
-0.028821226 0.027557466 0.18963166
-0.029645834 0.023617759 0.19091345
-0.030649047 0.018936718 0.19326761
-0.031121671 0.014670008 0.19532923
-0.031901345 0.011194401 0.19540514
-0.032534052 0.0083557582 0.19575855
-0.031989437 0.0053925938 0.19938472
-0.031339552 0.0026473424 0.20299613
-0.032450493 -0.00091468025 0.20729905
-0.033032343 -0.0039205803 0.21113504
-0.03285208 -0.007346788 0.21529736
-0.033269774 -0.010365829 0.21735764
-0.033576891 -0.013992119 0.22001997
-0.033649147 -0.017541688 0.22262891
-0.033230472 -0.020616213 0.22479342
-0.032539107 -0.022856271 0.22710468
-0.024839796 0.043544389 0.17766647
-0.024637276 0.0421899 0.17896235
-0.024478221 0.03950249 0.18017013
-0.024193147 0.036824785 0.18266878
-0.024195381 0.034327358 0.18573926
-0.024861855 0.031439669 0.18813944
-0.025613468 0.028184896 0.19067731
-0.026521012 0.024011541 0.19284387
-0.027381819 0.018588481 0.19564341
-0.027918236 0.01410916 0.19710103
-0.027541596 0.011380357 0.19755153
-0.028642524 0.0095922993 0.19801287
-0.028609823 0.0065173758 0.20186651
-0.028541138 0.0032900074 0.20484591
-0.029278291 -0.00029614818 0.20946014
-0.029113691 -0.003885584 0.21345623
-0.029451163 -0.00780677 0.21686722
-0.029872872 -0.010854137 0.21877357
-0.030326087 -0.014007059 0.22091335
-0.030191531 -0.017337812 0.22353783
-0.029378213 -0.020304173 0.22569185
-0.029725622 -0.022843847 0.22765762
-0.030252671 -0.025224814 0.23117106
-0.02165998 0.044264372 0.17878239
-0.021243351 0.042735312 0.18018089
-0.021202849 0.039737787 0.1816919
-0.020988509 0.036887549 0.18354674
-0.021388654 0.03463237 0.18679024
-0.021986144 0.031969786 0.18915071
-0.022454837 0.029080182 0.19179437
-0.023337312 0.025640721 0.19459106
-0.023901699 0.019584894 0.19911841
-0.024245393 0.014951123 0.20022023
-0.024415711 0.012216211 0.20088738
-0.025130155 0.0098675406 0.20124187
-0.025634412 0.0070202206 0.20400485
-0.026081396 0.0038771713 0.20719725
-0.025709486 0.00020185958 0.21122056
-0.025538882 -0.0034029849 0.21494482
-0.026133453 -0.0073189517 0.21842307
-0.026473299 -0.010698454 0.22020379
-0.02646067 -0.01357983 0.22223778
-0.026426105 -0.016714297 0.22513063
-0.02600516 -0.019556772 0.22651128
-0.026608298 -0.022871733 0.22818872
-0.026430294 -0.026182977 0.23242258
-0.018359825 0.042757865 0.18188828
-0.018366564 0.040525459 0.1838128
-0.018253431 0.037609845 0.18513113
-0.018628148 0.034961846 0.18757653
-0.01905041 0.032362361 0.190056
-0.019351721 0.029636921 0.19257212
-0.020089872 0.02640583 0.19670552
-0.020287598 0.021580681 0.20011991
-0.020438913 0.016858241 0.20249346
-0.020870989 0.013103211 0.20347735
-0.021427553 0.010582646 0.204449
-0.022477468 0.0078853965 0.20638272
-0.022673309 0.0045197373 0.21020553
-0.022090768 0.0010868072 0.21354923
-0.022069274 -0.0023725119 0.21656363
-0.02249217 -0.0061356178 0.22032332
-0.022816531 -0.0097861653 0.22218044
-0.022312909 -0.013158544 0.22389053
-0.021805571 -0.016098265 0.22679001
-0.021914899 -0.019073527 0.22724558
-0.022189001 -0.02284601 0.22780694
-0.022548815 -0.026595531 0.23295572
-0.015532106 0.040662605 0.18520738
-0.015568397 0.038057782 0.18668251
-0.015820747 0.035271183 0.18880768
-0.016272955 0.032326907 0.19110446
-0.016657131 0.029627584 0.19324797
-0.016795671 0.026441086 0.19786833
-0.017194591 0.022139179 0.2011553
-0.017005062 0.018283106 0.20320924
-0.017207444 0.01425775 0.20476951
-0.017729497 0.011360556 0.20706682
-0.018868135 0.0087153697 0.20918889
-0.018930325 0.0054113199 0.21224871
-0.018544631 0.0020995992 0.21531034
-0.018274326 -0.0014678225 0.21849145
-0.018461861 -0.0049379393 0.22205156
-0.018781018 -0.00870761 0.22392476
-0.018158028 -0.01228883 0.2253395
-0.018085573 -0.015791947 0.22671263
-0.01895339 -0.019529875 0.2280764
-0.018907193 -0.02321554 0.2299642
-0.018984003 -0.026679354 0.23473345
-0.013048988 0.037830412 0.18816154
-0.013140833 0.034889579 0.19022898
-0.013486039 0.031993382 0.19217798
-0.013747415 0.029174209 0.19400172
-0.013505658 0.026488658 0.19741444
-0.013910697 0.022877211 0.20148054
-0.014091711 0.019020844 0.20433784
-0.01393936 0.015206555 0.2069023
-0.014052348 0.012171702 0.20920382
-0.014427377 0.0093428129 0.21140577
-0.014560838 0.0064885034 0.2138548
-0.014568415 0.0028660712 0.21684138
-0.014534776 -0.00070518476 0.22040798
-0.014793577 -0.0042153252 0.22293241
-0.014687431 -0.0081831431 0.22430934
-0.014458509 -0.012534329 0.22619466
-0.014676192 -0.016588422 0.2280557
-0.015353965 -0.020262562 0.22998634
-0.015549402 -0.023659825 0.23257937
-0.015256737 -0.026600057 0.23639798
-0.010557185 0.034784749 0.19077414
-0.010133652 0.032059476 0.1926126
-0.010197534 0.029122034 0.19450144
-0.010091774 0.026403509 0.19755076
-0.010545969 0.023482108 0.20157054
-0.011069429 0.019851524 0.20517987
-0.010639721 0.016457753 0.20775411
-0.010442157 0.013010444 0.21027197
-0.010352222 0.0097970422 0.21238214
-0.010429855 0.0067142514 0.21517742
-0.010683564 0.0034814586 0.21804313
-0.01081264 -0.00016650237 0.22140126
-0.011011483 -0.0036577082 0.22315739
-0.011248061 -0.0079725524 0.22431901
-0.010945472 -0.012406032 0.22555153
-0.011002151 -0.016706947 0.22899391
-0.011179464 -0.020350995 0.23094597
-0.011689717 -0.024209822 0.23479697
-0.012305535 -0.026439579 0.23720038
-0.0067670043 0.031906091 0.19364271
-0.0066253147 0.029349227 0.19607414
-0.0066402364 0.02645364 0.19911098
-0.0071435608 0.023624441 0.20195502
-0.0074952333 0.020477494 0.20549276
-0.0072123841 0.017129919 0.20840728
-0.0068542161 0.013819263 0.21092358
-0.0066361469 0.010331298 0.21299902
-0.0067293085 0.0068062376 0.21605596
-0.0068262736 0.0033882884 0.21901067
-0.0070988652 -0.00020995265 0.22208196
-0.0070581906 -0.0037093209 0.22307456
-0.007546463 -0.0078287553 0.22477719
-0.0074952715 -0.01266498 0.22553495
-0.0073552243 -0.016884826 0.22929347
-0.00785184 -0.020516548 0.23144889
-0.0086072665 -0.02346335 0.23377231
-0.0041320683 0.031467739 0.19537002
-0.0029212653 0.029565539 0.19796094
-0.0031044916 0.026688552 0.20025787
-0.0035577866 0.02393798 0.2023579
-0.0035929326 0.020876644 0.20514168
-0.0037673961 0.017448798 0.20814189
-0.0032686475 0.014080719 0.21113428
-0.0030068238 0.010768577 0.21349299
-0.0029948978 0.0071703135 0.2163565
-0.0031840745 0.0035683378 0.21875267
-0.0031660916 -7.2936688e-05 0.22183304
-0.003204983 -0.0040850495 0.22295816
-0.0037012605 -0.0083048632 0.22499236
-0.0041879164 -0.012859037 0.22581294
-0.0048662783 -0.016532714 0.22880781
5.336164e-05 0.029053165 0.19936702
0.00016995643 0.026832126 0.20067491
-0.00012724609 0.024249237 0.20248759
-0.00016018814 0.021113979 0.20481582
-8.7112297e-05 0.017521102 0.20752876
0.00041914612 0.014237926 0.21067238
0.00071798533 0.010962077 0.21331008
0.00087736291 0.0074409884 0.21568413
0.0003707353 0.0039047129 0.21778058
0.00058932975 5.611977e-05 0.22049296
2.0136038e-05 -0.003858364 0.22299194
-0.0015128371 -0.0076673422 0.22563253
0.0036619238 0.026763886 0.20106828
0.0039081234 0.024062594 0.2027081
0.0036607438 0.020962523 0.20456058
0.0034773853 0.017620172 0.20737793
0.0041750618 0.01411642 0.20975284
0.0037481135 0.011326395 0.21225008
0 0 0 1 0 0 0 1 0 0 0 1 0 0 0 0 0 346 1 0 0
