ply
format ascii 1.0
comment PCL generated
element vertex 346
property float x
property float y
property float z
element camera 1
property float view_px
property float view_py
property float view_pz
property float x_axisx
property float x_axisy
property float x_axisz
property float y_axisx
property float y_axisy
property float y_axisz
property float z_axisx
property float z_axisy
property float z_axisz
property float focal
property float scalex
property float scaley
property float centerx
property float centery
property int viewportx
property int viewporty
property float k1
property float k2
end_header
-0.05791077 0.027382703 0.18801874
-0.058633015 0.024742421 0.18927962
-0.058856647 0.022000946 0.19081423
-0.05888135 0.01914067 0.1925156
-0.059019819 0.016486051 0.19397761
-0.0581505 0.012473847 0.19647118
-0.054114681 0.03000129 0.18421471
-0.055402383 0.027564576 0.18603206
-0.055149511 0.024550542 0.18677424
-0.055317283 0.021802364 0.18867858
-0.055853244 0.019039966 0.19081409
-0.056311753 0.015848512 0.19316645
-0.056198128 0.012524536 0.19540876
-0.056376234 0.0093422728 0.19786179
-0.056572646 0.0066871545 0.19973803
-0.048406627 0.032720704 0.18036737
-0.049587827 0.030327111 0.1814042
-0.051011179 0.027411161 0.18274261
-0.051596794 0.024349291 0.18461186
-0.051628225 0.021692332 0.18717793
-0.052094623 0.018897219 0.18927614
-0.052545782 0.015822673 0.19159824
-0.052971333 0.012432478 0.19429104
-0.053681057 0.0084882732 0.19731961
-0.054954119 0.0048178989 0.19971298
-0.054995198 0.0015393429 0.20208757
-0.054915696 -0.0013188551 0.20395608
-0.04494343 0.035632484 0.17877382
-0.045436513 0.033342592 0.17973335
-0.045943044 0.030805552 0.18080744
-0.0468188 0.027927728 0.18202604
-0.04798238 0.024505617 0.18436566
-0.048278902 0.02158884 0.18695004
-0.048631173 0.018765684 0.18917525
-0.049107485 0.015867557 0.19127908
-0.049757976 0.012087406 0.19426769
-0.050682027 0.0075497278 0.19717117
-0.051836003 0.0030579381 0.19793099
-0.052683048 -0.00022529099 0.20092431
-0.052451089 -0.003150204 0.20409262
-0.052288804 -0.0055139051 0.20781468
-0.052424382 -0.0070760078 0.211366
-0.04196579 0.03862999 0.17809787
-0.042580288 0.036598165 0.1789497
-0.042637572 0.034014706 0.18020862
-0.042956483 0.031490505 0.18151297
-0.043597993 0.028581053 0.18314128
-0.044541493 0.024827203 0.18510398
-0.044831771 0.021632653 0.18729918
-0.045015309 0.018803414 0.18917321
-0.045726728 0.015647 0.19126812
-0.046611987 0.011955878 0.1938933
-0.047377761 0.0067215427 0.19653435
-0.048092917 0.0015215949 0.19688468
-0.048397921 -0.0022679486 0.19957283
-0.048889488 -0.0039478871 0.20396872
-0.049231026 -0.0060809008 0.20830771
-0.050162531 -0.0079049161 0.21219429
-0.050751172 -0.010289291 0.21475321
-0.051177662 -0.013130125 0.21811971
-0.039944489 0.039956633 0.17812675
-0.039950971 0.037258115 0.17978898
-0.040140554 0.03456961 0.18112612
-0.040347233 0.03191283 0.18246493
-0.040617611 0.028688388 0.18422031
-0.04155403 0.024925485 0.18616055
-0.04172368 0.021824371 0.18774171
-0.042100683 0.018933231 0.18898691
-0.042306509 0.015908314 0.19068556
-0.043016382 0.012072138 0.19312817
-0.044485874 0.0058283457 0.19555089
-0.044142414 0.00013581954 0.19538912
-0.04222877 -0.004421303 0.19752897
-0.045037758 -0.0051056044 0.2042093
-0.045840409 -0.0064987694 0.20898804
-0.046651762 -0.007617089 0.21293217
-0.047485694 -0.010255682 0.21601559
-0.048591509 -0.013505859 0.21928939
-0.048171796 -0.016872803 0.22118045
-0.046826549 -0.019298846 0.22162963
-0.037011825 0.042513996 0.17740382
-0.037330829 0.040880065 0.17877027
-0.037360534 0.03810934 0.18026197
-0.0374819 0.03513011 0.18177107
-0.037587848 0.032372702 0.18369548
-0.03794425 0.028502552 0.18554127
-0.038402878 0.024871724 0.18694045
-0.038821932 0.021862088 0.18830402
-0.039206658 0.018797291 0.18954459
-0.039521679 0.015499054 0.19065982
-0.039879844 0.011467346 0.19223955
-0.041994542 0.0052584521 0.19462435
-0.040915906 0.00033898832 0.19639587
-0.039792243 -0.0034974108 0.19967715
-0.041391946 -0.0055462359 0.20487906
-0.042400032 -0.0067314566 0.20958892
-0.043349307 -0.0085821953 0.21316974
-0.043912955 -0.01098282 0.21573766
-0.044489451 -0.013132473 0.21853957
-0.044118185 -0.016601823 0.22085565
-0.044592686 -0.020144587 0.22460324
-0.043775246 -0.022209361 0.22702277
-0.034380902 0.043286711 0.17761607
-0.034231268 0.041810866 0.17907396
-0.033855017 0.039493687 0.18112865
-0.033864737 0.036811575 0.18253608
-0.034098744 0.033180386 0.18438765
-0.034622326 0.028819978 0.18716428
-0.035225175 0.025186865 0.18795635
-0.035818476 0.021868089 0.18924378
-0.036280051 0.018422777 0.19061504
-0.036699608 0.014935675 0.19204055
-0.037248351 0.010737343 0.19337381
-0.039006494 0.0062577864 0.19455686
-0.038228747 0.001695036 0.19744454
-0.037670016 -0.0014296479 0.20108688
-0.038649034 -0.0038944201 0.20607868
-0.038935214 -0.0070531834 0.21062617
-0.039819777 -0.0091042062 0.21386915
-0.0402091 -0.011355467 0.21595292
-0.040010944 -0.014387667 0.21849217
-0.040363587 -0.017738296 0.22083549
-0.040755015 -0.020814558 0.22438261
-0.040292811 -0.022347605 0.22738042
-0.031439569 0.0435021 0.17805164
-0.031180762 0.042099312 0.17943752
-0.030896792 0.039727852 0.18134847
-0.030724976 0.037142098 0.18321122
-0.030697977 0.033645526 0.18524848
-0.031504653 0.029573362 0.18801351
-0.03190719 0.026038049 0.18913329
-0.032706555 0.021912966 0.19044764
-0.03341433 0.017963396 0.19208178
-0.03394644 0.014467478 0.19365357
-0.034713764 0.010363501 0.19471018
-0.036156628 0.0067396201 0.19539617
-0.035313766 0.0028764801 0.19861329
-0.035020422 0.00025712137 0.20249784
-0.035981979 -0.0023369924 0.20697927
-0.03638931 -0.0055586728 0.21110079
-0.036705557 -0.0083429283 0.21486834
-0.037065584 -0.01084565 0.21722455
-0.036779109 -0.01397153 0.21940388
-0.037041336 -0.017507844 0.22138016
-0.037130676 -0.020621464 0.22400694
-0.036168568 -0.022470905 0.22695909
-0.028476777 0.043554351 0.17838736
-0.028156783 0.042151514 0.17965236
-0.02807745 0.039690241 0.18136033
-0.027723579 0.037174601 0.18362264
-0.027488619 0.033746477 0.18576717
-0.02815078 0.030561937 0.18848412
-0.028743302 0.026950845 0.19034478
-0.029483661 0.022839447 0.19173631
-0.030710777 0.017959112 0.19412272
-0.031260401 0.013727305 0.19620787
-0.032047655 0.010436059 0.1964514
-0.032740857 0.0078557571 0.19669038
-0.032294497 0.0048724078 0.20021008
-0.031829305 0.0021868409 0.20398918
-0.032824099 -0.0015815295 0.20791793
-0.033533435 -0.0046265707 0.21172613
-0.033698309 -0.0075463299 0.21643399
-0.034028869 -0.010441316 0.21859428
-0.034036428 -0.013741271 0.22077562
-0.034112152 -0.017118437 0.22319514
-0.03374806 -0.02006115 0.22545414
-0.032782141 -0.022348257 0.22765443
-0.025418557 0.043696236 0.17885597
-0.025125703 0.042433165 0.18018636
-0.024873963 0.039865043 0.18149869
-0.024550645 0.036994115 0.18340491
-0.024385337 0.034103308 0.18592638
-0.024941938 0.031262226 0.18861039
-0.025559492 0.027946047 0.19139735
-0.02635158 0.02344477 0.19360985
-0.027747007 0.017813284 0.19687988
-0.028420389 0.013424287 0.19854148
-0.028282113 0.010921125 0.19894582
-0.029403539 0.0092878351 0.19917636
-0.029364899 0.0061035263 0.20298895
-0.029219076 0.0029324805 0.20589902
-0.02970987 -0.0010019031 0.21015616
-0.029650088 -0.0041124532 0.21445574
-0.030353658 -0.0075617805 0.21832809
-0.030723771 -0.010451877 0.2202592
-0.03099015 -0.013413833 0.2221384
-0.030775847 -0.016598718 0.2245525
-0.029816661 -0.019571263 0.22658877
-0.029900959 -0.022282144 0.22809471
-0.030307652 -0.02488263 0.23134315
-0.022220824 0.044257235 0.17945175
-0.021831369 0.042729855 0.18060145
-0.021727854 0.039772075 0.18199177
-0.021331524 0.036802903 0.18346898
-0.021469124 0.034185201 0.18651704
-0.021905612 0.031522591 0.18894768
-0.022255665 0.028784212 0.19170482
-0.023277307 0.025414106 0.1946082
-0.02460113 0.018644925 0.19930968
-0.025154257 0.014198798 0.20101739
-0.025363846 0.011699849 0.2019504
-0.02604311 0.0094779273 0.20242625
-0.02646324 0.0066086943 0.20512806
-0.026696125 0.0033211575 0.20834154
-0.026119405 -0.00020572735 0.21214916
-0.025877787 -0.0035151141 0.21591954
-0.026675578 -0.0070136036 0.21967781
-0.027083026 -0.010145576 0.22157067
-0.027031545 -0.012834183 0.22351784
-0.026885631 -0.015859682 0.22623928
-0.026185887 -0.01892009 0.22701213
-0.026585106 -0.02254938 0.22831048
-0.026496321 -0.025856903 0.232356
-0.01880989 0.042521771 0.18160726
-0.018636292 0.040174242 0.18331866
-0.018401377 0.037246909 0.1845962
-0.018670779 0.034365486 0.18682954
-0.018958844 0.031598043 0.18912287
-0.019330682 0.029036427 0.19162415
-0.020297619 0.025826035 0.19579268
-0.020920947 0.020529374 0.19937487
-0.02125157 0.015882455 0.20238559
-0.021746373 0.012408498 0.20402396
-0.022277774 0.010082972 0.20535634
-0.023242034 0.0074156276 0.20749404
-0.023165893 0.0041030198 0.21122056
-0.022352755 0.00089448725 0.21449852
-0.022157086 -0.0026019404 0.21725525
-0.022568027 -0.0061303293 0.22094508
-0.023011258 -0.0094145657 0.22286201
-0.022512285 -0.012755799 0.22451757
-0.021990865 -0.015783569 0.22709648
-0.022159843 -0.018706685 0.22740297
-0.022304775 -0.022515362 0.22785363
-0.022586931 -0.02624364 0.23301211
-0.015694438 0.040267419 0.18447593
-0.015624386 0.037508924 0.18577185
-0.015771409 0.03445629 0.18768725
-0.016293744 0.031347029 0.1898319
-0.016803322 0.028823813 0.19217603
-0.017158171 0.025491426 0.19661941
-0.017875841 0.021018034 0.20031279
-0.017720832 0.017366683 0.20287722
-0.017996134 0.013475733 0.20485365
-0.018364562 0.010797739 0.20764451
-0.019334685 0.0082414104 0.20999603
-0.019261591 0.0051094946 0.21309355
-0.018728897 0.001903865 0.21613909
-0.0181426 -0.0017524274 0.2189378
-0.018185016 -0.0051782401 0.22248648
-0.018638778 -0.008608697 0.22425437
-0.018223338 -0.012155461 0.22549784
-0.018341586 -0.015662212 0.22681002
-0.01928385 -0.019295363 0.22814968
-0.019158538 -0.022854341 0.22998708
-0.019115617 -0.026234252 0.23474188
-0.013178611 0.037304018 0.18722089
-0.013228107 0.033805944 0.18897176
-0.013636142 0.030859724 0.19086371
-0.014006714 0.028170818 0.1928218
-0.013911081 0.025344694 0.19612595
-0.014611788 0.021743411 0.20055456
-0.014813907 0.018209141 0.20398813
-0.014635873 0.014534589 0.20695636
-0.014544189 0.011631146 0.2095048
-0.014674866 0.0088804541 0.21190639
-0.014761897 0.006119092 0.21443102
-0.014570818 0.0024989422 0.21724749
-0.014235052 -0.0011178344 0.22068255
-0.014536609 -0.0043933974 0.22350153
-0.014622499 -0.0081582665 0.22487675
-0.014556278 -0.012472047 0.22645226
-0.014975374 -0.016531825 0.2282434
-0.015794592 -0.020146839 0.230221
-0.015886262 -0.023441702 0.23288159
-0.01560533 -0.026184501 0.23666987
-0.010808734 0.033892073 0.18989746
-0.01047111 0.031104732 0.19164941
-0.010569075 0.028070504 0.19331515
-0.010533793 0.025272988 0.19634192
-0.011210433 0.022504544 0.20067258
-0.011825575 0.019204486 0.2048981
-0.011299254 0.016030353 0.20779236
-0.010916937 0.012455178 0.21025226
-0.010599541 0.0092550889 0.21249418
-0.010478413 0.0061974828 0.21525919
-0.010492428 0.0029275522 0.2178781
-0.010400453 -0.00066365284 0.22147311
-0.010704887 -0.003962731 0.22372104
-0.011178947 -0.0079356069 0.22489338
-0.011032987 -0.012303538 0.22606179
-0.011332263 -0.016538983 0.22950412
-0.011598796 -0.020099867 0.2315919
-0.012187829 -0.023791261 0.23537116
-0.012787007 -0.025958857 0.23769398
-0.0072956993 0.031128002 0.19292669
-0.0071017384 0.028400728 0.19507948
-0.0072740708 0.02542288 0.19804861
-0.0079144174 0.02277635 0.20129442
-0.0082665132 0.020119302 0.20531099
-0.0078220237 0.016795091 0.20829359
-0.0072521442 0.01312815 0.21045929
-0.0068515791 0.0095939897 0.21250571
-0.0066743144 0.0061296383 0.21564822
-0.0065682735 0.002782969 0.21860148
-0.0066988794 -0.00072507933 0.22201979
-0.0067550372 -0.0041175135 0.22328155
-0.0074323909 -0.0078865224 0.22523828
-0.0075745191 -0.012459106 0.22625761
-0.0076492676 -0.016647717 0.23021528
-0.0082953414 -0.020213518 0.23239326
-0.0091406768 -0.023068415 0.23473373
-0.0047184546 0.030669829 0.19461082
-0.0035744123 0.028700059 0.19703734
-0.0038490039 0.025712427 0.19938484
-0.0043723779 0.022991629 0.20166062
-0.004338047 0.020161014 0.20465131
-0.0043875528 0.016813163 0.20773804
-0.0036609669 0.013202988 0.21016878
-0.0032634556 0.0098506436 0.21248253
-0.0029980582 0.0063500386 0.21541576
-0.002957654 0.0029313643 0.21807916
-0.00278104 -0.00068348728 0.22155347
-0.002934169 -0.0046068565 0.22289532
-0.0035357897 -0.0085064033 0.22534111
-0.0042761164 -0.012704907 0.22683638
-0.0051520928 -0.01622835 0.22999525
-0.00067505933 0.028190013 0.19862288
-0.00061896193 0.025841039 0.19997315
-0.00092075765 0.023137979 0.20173489
-0.00096284348 0.020097919 0.20410027
-0.00077753467 0.016601438 0.20677575
-0.00017991525 0.013244771 0.20958409
0.00025586845 0.0099350922 0.21210484
0.00055267767 0.0064064451 0.214486
0.0003400587 0.0030644103 0.21688296
0.00082547101 -0.00065544667 0.21991538
0.00029139873 -0.0044705234 0.22269909
-0.0013450494 -0.0080004409 0.22589114
0.0028730861 0.025662713 0.20052765
0.0031090295 0.02282892 0.20199324
0.0028829202 0.019711923 0.20372395
0.0027590459 0.016470768 0.20646021
0.0034260885 0.013009967 0.20892672
0.0030614135 0.010227453 0.21120393
0 0 0 1 0 0 0 1 0 0 0 1 0 0 0 0 0 346 1 0 0
