ply
format ascii 1.0
comment PCL generated
element vertex 346
property float x
property float y
property float z
element camera 1
property float view_px
property float view_py
property float view_pz
property float x_axisx
property float x_axisy
property float x_axisz
property float y_axisx
property float y_axisy
property float y_axisz
property float z_axisx
property float z_axisy
property float z_axisz
property float focal
property float scalex
property float scaley
property float centerx
property float centery
property int viewportx
property int viewporty
property float k1
property float k2
end_header
-0.057869244 0.028111586 0.18869749
-0.058589932 0.025368188 0.19000313
-0.0587813 0.022493206 0.19145796
-0.058717076 0.019509962 0.19303453
-0.058737911 0.016789386 0.19444478
-0.057759706 0.012301143 0.19604394
-0.053895473 0.031025855 0.1852926
-0.055339813 0.028436178 0.18682492
-0.055134557 0.025346486 0.18754804
-0.055289477 0.022417501 0.18933122
-0.055746522 0.019463435 0.19128624
-0.056069426 0.01606114 0.19337691
-0.055894963 0.012276267 0.19481517
-0.056062195 0.008964628 0.19699198
-0.056254309 0.0063719116 0.19895087
-0.048070978 0.033522479 0.18181871
-0.049272228 0.031332802 0.18299291
-0.05080352 0.028441487 0.18392596
-0.05158253 0.025314292 0.1855588
-0.051639941 0.022452131 0.18784167
-0.052064579 0.019406065 0.18957745
-0.052414846 0.015952181 0.19130044
-0.052809253 0.012009108 0.19319376
-0.053524736 0.0078809084 0.19611974
-0.054730222 0.0043870686 0.19883618
-0.05476075 0.0012402476 0.20147961
-0.054704696 -0.0015729442 0.20357044
-0.044704605 0.035886608 0.17934422
-0.04519568 0.033797126 0.18071759
-0.045757659 0.031479716 0.18217593
-0.046636462 0.028823977 0.18357801
-0.047929596 0.025510401 0.18546438
-0.048320793 0.022371152 0.18744956
-0.048629418 0.019168468 0.18884666
-0.049090765 0.015832394 0.19011778
-0.049740434 0.011348242 0.19243585
-0.050653115 0.0067043975 0.19561458
-0.051802985 0.002306297 0.1967096
-0.052595228 -0.00078143989 0.20015223
-0.052321468 -0.0037005944 0.20368768
-0.052126795 -0.0057236352 0.20766304
-0.05224698 -0.0068879784 0.21145254
-0.041699346 0.038571574 0.17786299
-0.04227348 0.036666535 0.17911033
-0.042347517 0.034252346 0.18071584
-0.042678695 0.031921618 0.18238288
-0.043321613 0.029245453 0.18433893
-0.044474844 0.025433574 0.18561746
-0.044825926 0.022009773 0.18697585
-0.045038581 0.018861583 0.18801801
-0.045807701 0.015332075 0.18918805
-0.046709049 0.011094697 0.1912742
-0.047382057 0.0056472537 0.1947442
-0.048098151 0.00046216283 0.19529206
-0.048316602 -0.0033908724 0.19854173
-0.048785411 -0.0047689709 0.20354404
-0.049088545 -0.0064292955 0.20814513
-0.050018348 -0.0077868407 0.21230207
-0.050679155 -0.0096965395 0.21523142
-0.051187597 -0.011654492 0.21918406
-0.039696243 0.03983194 0.17763217
-0.039610207 0.037224133 0.17957409
-0.039751425 0.034658432 0.18125321
-0.039944228 0.032187819 0.18288678
-0.040319949 0.029059593 0.18492679
-0.04152517 0.025116127 0.1862231
-0.041718096 0.021836573 0.18717523
-0.042099498 0.018805571 0.18766373
-0.042354938 0.01550873 0.18850423
-0.043147288 0.01122939 0.1902853
-0.044442985 0.0046011005 0.19381143
-0.043799486 -0.0011804203 0.19391333
-0.04159122 -0.0057017254 0.19644004
-0.044914465 -0.0062409691 0.20379789
-0.045671117 -0.0070788544 0.20880231
-0.046476781 -0.0076713315 0.21292377
-0.047379192 -0.0095114689 0.21650647
-0.048604719 -0.011785907 0.22047041
-0.048372895 -0.01463907 0.22316472
-0.047037397 -0.01786178 0.22395864
-0.036677808 0.042181112 0.17663276
-0.037054162 0.04070292 0.1781631
-0.03710977 0.038018417 0.17983307
-0.037001338 0.035045046 0.18148048
-0.037005652 0.032430708 0.18364538
-0.037771169 0.028610459 0.1859422
-0.038471103 0.024934579 0.18717241
-0.038926542 0.021784971 0.18803647
-0.039242342 0.01855104 0.18856794
-0.039502516 0.015103722 0.18910319
-0.039947066 0.010913256 0.19045232
-0.04181622 0.0040341825 0.19313893
-0.040489074 -0.00086783915 0.19516334
-0.03928471 -0.0046019931 0.19864768
-0.041199505 -0.0069567561 0.20440347
-0.042226955 -0.0076282234 0.20933294
-0.043299027 -0.0088838488 0.21332748
-0.044052392 -0.010480325 0.21651617
-0.044670466 -0.011795653 0.21975452
-0.044237006 -0.015810879 0.22265291
-0.04414187 -0.020452326 0.22586212
-0.043031361 -0.022985078 0.2276964
-0.03399295 0.042845841 0.17671072
-0.033892259 0.041527431 0.17835541
-0.033574242 0.039223373 0.18045633
-0.033609133 0.036593042 0.18192488
-0.033799484 0.032920018 0.18392847
-0.034660514 0.028572325 0.18731007
-0.035410646 0.02512465 0.18840402
-0.036091417 0.021780398 0.18944423
-0.036567349 0.018155145 0.19020075
-0.0369399 0.014534418 0.19114913
-0.037403155 0.010219038 0.19220211
-0.038851406 0.0051936093 0.19333483
-0.037911221 0.00063795678 0.19632855
-0.03731095 -0.0024507567 0.20007813
-0.03814923 -0.0052093989 0.20522855
-0.038766991 -0.0082033798 0.21036655
-0.039897103 -0.009637936 0.21409984
-0.040382635 -0.011382243 0.21665709
-0.040299073 -0.014088351 0.21974723
-0.040410083 -0.017749513 0.22180478
-0.040358644 -0.021276349 0.22487931
-0.039470688 -0.023170603 0.2274773
-0.031054486 0.043075953 0.17727776
-0.030841798 0.041752096 0.17881092
-0.030639311 0.039398447 0.18075635
-0.030531611 0.036885612 0.18268289
-0.030600831 0.03329486 0.18487734
-0.031516612 0.029133575 0.18785712
-0.032103073 0.025806373 0.18944381
-0.033151612 0.021805197 0.19101103
-0.03389205 0.01768636 0.19194148
-0.034333725 0.014023688 0.19299789
-0.034942817 0.0098033603 0.19372045
-0.036113489 0.0059136855 0.19435896
-0.035121024 0.0020181395 0.19760208
-0.034739546 -0.00068633858 0.20155029
-0.035498444 -0.0034671242 0.20604876
-0.036039315 -0.0067467797 0.21051028
-0.036610641 -0.0089025889 0.21498156
-0.037118934 -0.011037892 0.21762186
-0.036954451 -0.013861818 0.22013433
-0.037026782 -0.017583715 0.22182699
-0.036816597 -0.021001082 0.22397156
-0.035473041 -0.023122679 0.2264653
-0.028132582 0.043177791 0.1778923
-0.027833385 0.041780092 0.1791638
-0.027812622 0.039310608 0.18086016
-0.027561434 0.036928903 0.18320656
-0.027273087 0.033250261 0.18533938
-0.028033286 0.029954975 0.18804845
-0.028835768 0.026572015 0.19033398
-0.02988876 0.022655662 0.19217202
-0.031290092 0.017555289 0.19404672
-0.031675499 0.013130136 0.19555555
-0.032277204 0.0098383082 0.19557016
-0.032834519 0.0072700325 0.19584905
-0.03224095 0.0041435058 0.1993427
-0.031705506 0.0015083648 0.20319301
-0.032475181 -0.0024240699 0.20712443
-0.033144947 -0.0055030342 0.21104702
-0.033658657 -0.0079727778 0.21637794
-0.034029432 -0.010698405 0.21876355
-0.034089375 -0.013816684 0.22114196
-0.033877745 -0.017403629 0.22320835
-0.033232447 -0.020577019 0.22500147
-0.032159768 -0.022879153 0.22679591
-0.025113288 0.043351911 0.17855591
-0.02483701 0.042062528 0.17985034
-0.02460745 0.039445501 0.18108431
-0.024278808 0.036593467 0.18302111
-0.024093801 0.033698425 0.18556035
-0.024692075 0.030758249 0.18821432
-0.025546318 0.027578229 0.19124296
-0.026635459 0.02319897 0.19380437
-0.02819185 0.01726914 0.19662088
-0.02864622 0.012719138 0.19777112
-0.028394226 0.010269213 0.19811469
-0.029536683 0.0087359892 0.19836944
-0.029426735 0.0056288643 0.20230404
-0.029360265 0.0026394683 0.20533675
-0.029662615 -0.0014220128 0.20967945
-0.029682303 -0.0043161353 0.21439211
-0.030452017 -0.0077046808 0.21842875
-0.030731583 -0.010633351 0.22032155
-0.030929875 -0.013570102 0.22219335
-0.030417856 -0.016995782 0.2242026
-0.029310184 -0.020007955 0.22574526
-0.029392824 -0.02262938 0.22705309
-0.029611489 -0.02537098 0.23016952
-0.021959659 0.044016652 0.17942686
-0.02156627 0.042439107 0.18045613
-0.021426622 0.039425239 0.18171075
-0.021040158 0.036564678 0.1832632
-0.021247013 0.034025252 0.18640862
-0.021718472 0.031423289 0.18892846
-0.022188561 0.02885782 0.19183053
-0.023159493 0.025108721 0.19439329
-0.024159072 0.018386004 0.19832237
-0.02477207 0.013700453 0.19979052
-0.025177753 0.011137065 0.20086052
-0.026036605 0.0089367842 0.20159863
-0.02654307 0.0062427651 0.20447575
-0.026906114 0.0032640856 0.2079042
-0.026512649 6.7968722e-05 0.21235639
-0.026332051 -0.0030481913 0.21660684
-0.027191846 -0.0065193293 0.22042818
-0.027375938 -0.0098676374 0.22211181
-0.027134787 -0.01279289 0.22368114
-0.026587632 -0.0162453 0.22569868
-0.025853112 -0.019108487 0.22595413
-0.026213758 -0.022658665 0.22710845
-0.02589488 -0.026188353 0.23097143
-0.018581979 0.042362448 0.18158734
-0.018453274 0.04006613 0.18334949
-0.018213438 0.037170321 0.18465982
-0.018519746 0.034420956 0.18699712
-0.018849196 0.031899203 0.18951869
-0.019157667 0.029299321 0.1918844
-0.019977819 0.025571607 0.19539821
-0.020401416 0.020572864 0.19860663
-0.020647276 0.01576082 0.20127706
-0.021226661 0.012022952 0.20274298
-0.022053009 0.0096201068 0.20432006
-0.023256507 0.0070955954 0.2067589
-0.023340331 0.0041489187 0.21087824
-0.022847194 0.0013704443 0.21493277
-0.022868579 -0.0017668012 0.21820919
-0.023387654 -0.00506526 0.22226082
-0.023530414 -0.0088086501 0.22369669
-0.022649998 -0.012527782 0.22424634
-0.021766853 -0.015869884 0.22565663
-0.021867162 -0.018759781 0.22556698
-0.021957017 -0.0225359 0.22605279
-0.021947639 -0.026593722 0.23120287
-0.015606294 0.040348481 0.18475769
-0.015544511 0.037618265 0.18611594
-0.015720336 0.034804236 0.18808393
-0.016240198 0.031908128 0.19044724
-0.01663541 0.029255979 0.19256307
-0.016876575 0.02572944 0.19657861
-0.0175256 0.021315036 0.19991706
-0.017324865 0.017593052 0.20228294
-0.017426992 0.013429512 0.20383948
-0.017990381 0.01042906 0.20656987
-0.01927596 0.0079407925 0.20928057
-0.019460173 0.0051730503 0.21281737
-0.019166782 0.0023773613 0.21639164
-0.018880334 -0.00082891883 0.21977699
-0.018798444 -0.0041088243 0.22344466
-0.019057807 -0.008014868 0.22460549
-0.018284988 -0.011934921 0.22436273
-0.018216262 -0.01556561 0.22486071
-0.018986296 -0.019337827 0.22585106
-0.018743362 -0.023030173 0.2278237
-0.018442944 -0.026634319 0.23264685
-0.01314802 0.037622258 0.18765858
-0.013226991 0.034501828 0.18961708
-0.01363038 0.031743195 0.19169812
-0.013842069 0.028961223 0.19347906
-0.013605419 0.026190476 0.19660741
-0.014413535 0.022368159 0.20068109
-0.01462818 0.018603563 0.20378551
-0.014360875 0.014708241 0.20643009
-0.014338036 0.011631432 0.20889246
-0.014747848 0.0089187939 0.21151929
-0.014993141 0.0064208396 0.21438003
-0.015021717 0.0030407668 0.21745582
-0.014720501 -0.00044118115 0.22096719
-0.014941577 -0.0037894084 0.22366719
-0.014936351 -0.0078078816 0.22437501
-0.014621798 -0.012293767 0.22494686
-0.014864332 -0.016434215 0.22616705
-0.015561101 -0.020199353 0.22789185
-0.015493647 -0.023605978 0.23067951
-0.015010463 -0.026520032 0.23450513
-0.010657107 0.034562808 0.19032094
-0.010373332 0.032047238 0.19242822
-0.010521435 0.029292652 0.19446597
-0.010364148 0.02667632 0.19744906
-0.011149796 0.023582695 0.20137563
-0.01181356 0.019912999 0.20524034
-0.011274462 0.016560562 0.20792516
-0.010887463 0.012893302 0.21034625
-0.010695855 0.0095930956 0.21243598
-0.010765943 0.006571467 0.21520448
-0.010882724 0.003379046 0.2177708
-0.010707006 -0.00035619817 0.22118096
-0.0110149 -0.0036562483 0.22325392
-0.011465352 -0.007588522 0.22422698
-0.011117453 -0.011951647 0.22487552
-0.011313096 -0.01633 0.22786297
-0.011434993 -0.019963086 0.22982773
-0.011853114 -0.023891686 0.23344788
-0.012276551 -0.026195889 0.23560897
-0.007175772 0.032142729 0.193675
-0.0070546991 0.029746683 0.19622515
-0.0072256364 0.027000464 0.19941986
-0.0079299547 0.024144553 0.20248827
-0.0083945254 0.021191951 0.20630939
-0.0079565989 0.017644562 0.20903529
-0.0073150629 0.01378209 0.21098207
-0.0069060186 0.010075529 0.21273759
-0.0068917987 0.0064621069 0.21551217
-0.0068506487 0.0030816779 0.21819435
-0.0070167962 -0.00044899684 0.22157562
-0.0070707295 -0.00378388 0.22283004
-0.0077006221 -0.0075172465 0.22468676
-0.0076410207 -0.011906454 0.22539786
-0.0075728819 -0.016289214 0.22894768
-0.0081190765 -0.019948749 0.23086464
-0.0088573648 -0.022972751 0.23302171
-0.0045767832 0.031806778 0.19540563
-0.0033895925 0.029992733 0.19797811
-0.0036943308 0.027094642 0.20057093
-0.0043449132 0.024296781 0.20291303
-0.0043823342 0.021341493 0.20582214
-0.0045119869 0.017868994 0.208832
-0.0037403696 0.014047063 0.21102847
-0.0033534365 0.01049102 0.21307155
-0.0031844447 0.0067514456 0.21550621
-0.0031830342 0.0033072047 0.21785867
-0.0031039731 -0.00021653742 0.22142275
-0.0031681471 -0.0040525026 0.22282797
-0.0037670834 -0.007945179 0.22510874
-0.0043583163 -0.01206353 0.22601654
-0.0050791586 -0.015745385 0.22882999
-0.00042965214 0.029437093 0.19948132
-0.00044845353 0.027073391 0.20102935
-0.00084714638 0.02430925 0.20289388
-0.00095471652 0.02133261 0.20541681
-0.00082495291 0.01785367 0.20827194
-0.00025929717 0.014344907 0.21086138
0.00015415484 0.010862591 0.21313928
0.00044624237 0.0071144933 0.21512552
0.00018688364 0.003664732 0.21703911
0.00063640403 4.4976579e-05 0.22017564
7.9197504e-05 -0.0037283902 0.22304542
-0.0016477786 -0.0073590404 0.22582784
0.0029803219 0.026910409 0.20167412
0.0031944416 0.024130272 0.20335393
0.0029382741 0.021088576 0.20527603
0.0027589635 0.017892564 0.20821366
0.0034054939 0.014341945 0.21060756
0.0029911499 0.011405358 0.21264009
0 0 0 1 0 0 0 1 0 0 0 1 0 0 0 0 0 346 1 0 0
