ply
format ascii 1.0
comment PCL generated
element vertex 346
property float x
property float y
property float z
element camera 1
property float view_px
property float view_py
property float view_pz
property float x_axisx
property float x_axisy
property float x_axisz
property float y_axisx
property float y_axisy
property float y_axisz
property float z_axisx
property float z_axisy
property float z_axisz
property float focal
property float scalex
property float scaley
property float centerx
property float centery
property int viewportx
property int viewporty
property float k1
property float k2
end_header
-0.057988677 0.027734123 0.18811938
-0.05866361 0.025127375 0.18970408
-0.058909595 0.022422506 0.1914822
-0.058906376 0.019589776 0.19342057
-0.058947291 0.016896101 0.19513266
-0.057945453 0.012631879 0.19767822
-0.053911403 0.030204499 0.18425494
-0.055367716 0.02790039 0.186213
-0.055161916 0.024905752 0.18731765
-0.055367559 0.02219815 0.18949451
-0.055886429 0.019455757 0.19180398
-0.056253545 0.016259478 0.19430463
-0.056019727 0.012652725 0.19659945
-0.056187548 0.0092672724 0.1989986
-0.056436881 0.0065748966 0.20081224
-0.047698159 0.032052934 0.17976783
-0.048966084 0.03000636 0.18123417
-0.050665017 0.027553666 0.18313418
-0.051522616 0.024689393 0.18536539
-0.051642563 0.022124182 0.18807635
-0.052143179 0.019315081 0.19024728
-0.052482557 0.016125014 0.19254012
-0.052836422 0.012447714 0.19531389
-0.053591851 0.0082735792 0.19847412
-0.054873385 0.0046538068 0.20079729
-0.05495061 0.0014169703 0.20310186
-0.054903895 -0.0014252384 0.20491728
-0.044278525 0.03475273 0.17758729
-0.044727091 0.032538254 0.17876872
-0.045291066 0.03017267 0.18020551
-0.046276059 0.027668385 0.18204315
-0.047844697 0.024889758 0.18526699
-0.048283413 0.02203889 0.18780366
-0.048581734 0.019087836 0.18975821
-0.049046576 0.016025534 0.19164242
-0.049710419 0.011911833 0.19493617
-0.050665587 0.0071475646 0.19828932
-0.051825941 0.0027076888 0.1990702
-0.05264955 -0.00044055333 0.20199321
-0.052382223 -0.0033174884 0.20515896
-0.052281704 -0.0055032191 0.20895019
-0.052579597 -0.0069075064 0.21251135
-0.041434348 0.037907813 0.17677251
-0.041921154 0.035766635 0.17763977
-0.04195682 0.033215769 0.17904671
-0.042290021 0.030842323 0.18064275
-0.042993076 0.028207017 0.18273979
-0.044388767 0.024987621 0.18568219
-0.044785615 0.021789808 0.18774983
-0.044982009 0.018837877 0.18931448
-0.045710906 0.015535937 0.1910823
-0.04662171 0.01163901 0.19401461
-0.047388446 0.0060632974 0.19754326
-0.048125274 0.00082129374 0.19794069
-0.048256557 -0.0028630777 0.20068978
-0.048782211 -0.0041399556 0.20516206
-0.049242761 -0.0060670143 0.20956403
-0.050364267 -0.0077416925 0.21343963
-0.051114239 -0.0099139456 0.21611525
-0.051795594 -0.01224214 0.21980803
-0.039596919 0.039456561 0.17703196
-0.03937006 0.036533259 0.17842627
-0.039466742 0.033833098 0.17987321
-0.039683718 0.031327579 0.18148904
-0.040141381 0.028390778 0.18399398
-0.041498877 0.024907658 0.18668765
-0.041729704 0.021799957 0.18812847
-0.04214903 0.018883562 0.18912971
-0.042393278 0.015754672 0.19050026
-0.043128874 0.011755193 0.19289972
-0.044537034 0.0048697772 0.19640738
-0.044006251 -0.0010366621 0.19632982
-0.041779824 -0.0055380519 0.1987187
-0.044923298 -0.0053963596 0.20554604
-0.04589805 -0.0065037645 0.21038319
-0.046897925 -0.0074775638 0.21434736
-0.047932018 -0.0097069843 0.217622
-0.04930488 -0.012411973 0.22123846
-0.049081434 -0.015540943 0.22362632
-0.047531359 -0.018645484 0.22441964
-0.036814742 0.04233595 0.17674865
-0.037141446 0.04060483 0.17800932
-0.037009787 0.037632491 0.17917135
-0.03683351 0.03447444 0.18045646
-0.036911447 0.03188983 0.18268549
-0.037697628 0.028269652 0.18567632
-0.038409654 0.024795372 0.18755421
-0.038925223 0.021831371 0.18889011
-0.039324857 0.018733894 0.18991719
-0.039630312 0.015346879 0.19080651
-0.040143799 0.011355281 0.19246368
-0.042037521 0.0041575162 0.19539566
-0.040712699 -0.00076600496 0.19729732
-0.039473955 -0.0043611517 0.2007778
-0.041333493 -0.0059846644 0.2062894
-0.04252445 -0.0068411399 0.21112445
-0.043694139 -0.0084541533 0.21493696
-0.044510633 -0.010583561 0.21776716
-0.045262177 -0.012336343 0.2207486
-0.044735447 -0.016403118 0.22356117
-0.044662807 -0.020855282 0.22712538
-0.043621644 -0.023285775 0.22911908
-0.034185965 0.043208361 0.17702782
-0.034069397 0.041735977 0.17848177
-0.033647951 0.039315045 0.18026213
-0.03366581 0.036720973 0.18166038
-0.033814568 0.032911271 0.18368186
-0.034613114 0.028470192 0.18721935
-0.035321753 0.025081512 0.18862428
-0.035982579 0.02183814 0.19002992
-0.0364304 0.018303659 0.19108108
-0.036813647 0.014738213 0.19227761
-0.037472583 0.01052411 0.19368716
-0.039101366 0.0052332436 0.19520202
-0.038099781 0.0007631444 0.19827148
-0.037508883 -0.0021294365 0.20202367
-0.038644377 -0.0043063322 0.2072069
-0.03914218 -0.0072478256 0.21239267
-0.040343247 -0.0090546096 0.21597019
-0.040842958 -0.01104565 0.21837115
-0.04067089 -0.014126789 0.22133318
-0.040786006 -0.018044785 0.22334178
-0.04084754 -0.021539981 0.22645429
-0.040052783 -0.023376221 0.22923891
-0.031210819 0.043497395 0.17759773
-0.030975351 0.042070109 0.17898107
-0.030766694 0.039662104 0.18085413
-0.03070615 0.037159503 0.18277583
-0.030694768 0.033497863 0.18498546
-0.031595182 0.029272007 0.18804409
-0.0321289 0.025943054 0.18970649
-0.032995541 0.021956919 0.19143857
-0.033539578 0.017755648 0.19236451
-0.034007147 0.014170116 0.19368076
-0.034869004 0.0099759148 0.19484164
-0.036285922 0.0059497207 0.19596541
-0.035255287 0.0021801521 0.1993147
-0.03498359 -0.00031067486 0.20328198
-0.036033023 -0.0026726124 0.20791645
-0.036673173 -0.005791245 0.21257004
-0.037127696 -0.0083807856 0.21707273
-0.037637588 -0.010585742 0.21965794
-0.037340309 -0.013919112 0.22198947
-0.037412856 -0.017849255 0.22353476
-0.037277427 -0.021251541 0.22572954
-0.036063232 -0.023264511 0.22856025
-0.028253647 0.043520801 0.17825378
-0.027952924 0.042116314 0.17951898
-0.027960358 0.039654266 0.18119936
-0.027784348 0.037274543 0.18357697
-0.027684731 0.034091134 0.18644901
-0.028338147 0.030566355 0.18889976
-0.029109139 0.027013596 0.19097069
-0.02988507 0.022976913 0.19261554
-0.030650778 0.017525364 0.1939541
-0.031086059 0.013213068 0.19580458
-0.032002665 0.0099150017 0.19633113
-0.032808773 0.00729771 0.1970745
-0.032241486 0.0042975261 0.20076492
-0.031792689 0.0017497801 0.20466734
-0.032923151 -0.0018177463 0.20884106
-0.033739127 -0.0047682342 0.21292485
-0.034043651 -0.0078008501 0.21830934
-0.034446005 -0.010585298 0.22071989
-0.034481689 -0.014009742 0.22301465
-0.034335285 -0.017616447 0.22507077
-0.033763558 -0.020767301 0.22702147
-0.0327003 -0.02297952 0.22929417
-0.025254738 0.043697424 0.17902541
-0.025013279 0.042436551 0.18033682
-0.024804901 0.039848126 0.18165189
-0.024667617 0.037221007 0.18385729
-0.024674509 0.034750935 0.18694928
-0.025223874 0.03184865 0.18967834
-0.026049117 0.028431989 0.19241801
-0.026922219 0.02377566 0.19455886
-0.027330346 0.017185669 0.19611584
-0.027880687 0.012664768 0.19779135
-0.027990438 0.010214224 0.19889463
-0.029245436 0.0087009342 0.1994289
-0.029227091 0.0056113191 0.20349798
-0.029218314 0.0025903326 0.20651084
-0.029881041 -0.0011408402 0.2111529
-0.029864604 -0.0044869077 0.21574244
-0.030618886 -0.00802036 0.21999007
-0.031036403 -0.010845237 0.22202989
-0.031338934 -0.0137978 0.22412491
-0.030911906 -0.017196937 0.22628099
-0.029861502 -0.020126538 0.22824208
-0.029870437 -0.022725532 0.22986542
-0.030011216 -0.025538381 0.2331775
-0.022043046 0.044233155 0.17978466
-0.02165015 0.042645399 0.18084852
-0.021608593 0.039691113 0.18225901
-0.02145661 0.037065592 0.1840845
-0.021745469 0.034927689 0.18756951
-0.022215689 0.032487936 0.19031422
-0.022608923 0.030007811 0.1932929
-0.023705369 0.026339492 0.19589247
-0.02428255 0.018816864 0.19848843
-0.024719145 0.01383831 0.20035604
-0.024990439 0.011076362 0.20188478
-0.025764963 0.0087775057 0.20268509
-0.026280694 0.0059929956 0.20550443
-0.026621304 0.0029257229 0.20882852
-0.026306804 -0.00054720882 0.21317209
-0.026167074 -0.0038693689 0.21747726
-0.027010251 -0.0073047364 0.22148442
-0.027411604 -0.010577423 0.22355987
-0.027308432 -0.013158443 0.22576702
-0.026805794 -0.01610465 0.22848
-0.026128937 -0.019133125 0.22917919
-0.026583541 -0.022937166 0.23019783
-0.026187859 -0.026513452 0.23407197
-0.018613217 0.042453237 0.18187344
-0.018578449 0.040297583 0.1838084
-0.018525716 0.037577841 0.18531781
-0.018980606 0.035132531 0.18794365
-0.01928561 0.032760836 0.19064227
-0.019525107 0.030225534 0.19296555
-0.020276673 0.026836615 0.19676802
-0.02095508 0.021347916 0.19941755
-0.021235351 0.016289005 0.2019939
-0.021526938 0.01222254 0.20361339
-0.021988668 0.0094405515 0.20524074
-0.022959521 0.0066546062 0.207633
-0.023044683 0.00352299 0.21158959
-0.022549249 0.00047219999 0.2154364
-0.022546869 -0.0027464484 0.21874551
-0.02305162 -0.0060022143 0.22279844
-0.023350285 -0.0095199104 0.2247147
-0.02255895 -0.012824571 0.22656286
-0.021717759 -0.015644079 0.22923103
-0.021955527 -0.01867065 0.22961107
-0.022257419 -0.022770066 0.22973864
-0.022208329 -0.026930526 0.23440343
-0.015697561 0.040538274 0.18514445
-0.01576768 0.037927575 0.18669778
-0.016079491 0.035177629 0.18860844
-0.016558608 0.03226677 0.19087549
-0.016953673 0.029701196 0.19304219
-0.017126782 0.02635403 0.19727044
-0.017994156 0.021862488 0.20047702
-0.017875653 0.018095275 0.20285718
-0.018023372 0.013867326 0.20452344
-0.018199675 0.010374378 0.20727375
-0.019085433 0.0073397593 0.20990276
-0.019189788 0.0044136951 0.21329811
-0.018813299 0.0014580633 0.21673685
-0.018540708 -0.0018152433 0.22011279
-0.018563692 -0.0047839065 0.22406891
-0.018875588 -0.0084704831 0.22560543
-0.018204527 -0.01223703 0.22670731
-0.018227866 -0.015687237 0.22808245
-0.019093771 -0.019395104 0.22967868
-0.018914163 -0.023248265 0.23137628
-0.018459791 -0.02702463 0.23575895
-0.013306613 0.037751403 0.18796124
-0.013437526 0.034368869 0.18941011
-0.013810922 0.031483412 0.19135882
-0.014133529 0.02881054 0.19329721
-0.013970934 0.026124142 0.19654207
-0.014795157 0.022627439 0.20096377
-0.015053569 0.01896059 0.20414743
-0.014829414 0.015087637 0.20689291
-0.014499523 0.011476317 0.20926048
-0.014517019 0.0081866467 0.21176006
-0.014631174 0.0055414261 0.21461311
-0.014718986 0.0022049909 0.21779278
-0.01458293 -0.0011066231 0.22147982
-0.01479031 -0.0042729676 0.22435082
-0.014738024 -0.0081220586 0.22556587
-0.014528167 -0.012636038 0.22680894
-0.014776422 -0.01676425 0.22873212
-0.015351725 -0.020409016 0.23092028
-0.015231453 -0.023934728 0.23347019
-0.014674818 -0.026999341 0.23695369
-0.010939009 0.034380168 0.19007231
-0.010611692 0.031667691 0.19191368
-0.010642725 0.028702758 0.19360934
-0.010598768 0.025946599 0.1966784
-0.011352614 0.023335734 0.20114511
-0.011986269 0.020027198 0.20530751
-0.011446434 0.016646799 0.20805071
-0.010842618 0.012516949 0.21034627
-0.010482128 0.0090612546 0.21262003
-0.010512019 0.0060289931 0.21564604
-0.01074575 0.0029688878 0.21863742
-0.010690738 -0.00062285695 0.22216757
-0.010910966 -0.0039405115 0.22414859
-0.011295924 -0.0079031009 0.22520153
-0.011066113 -0.012435359 0.22601205
-0.011029817 -0.016835373 0.22926618
-0.011038688 -0.020466479 0.23125501
-0.011295306 -0.024425443 0.23500909
-0.011709808 -0.026776275 0.23733497
-0.0074146627 0.031773206 0.19324729
-0.007187251 0.029054677 0.19545092
-0.0073120571 0.025953557 0.19836767
-0.0079399366 0.02346139 0.20175125
-0.008170737 0.020765094 0.20577124
-0.0077323373 0.017217986 0.20856899
-0.0071665789 0.0132644 0.210683
-0.0067512165 0.0097051598 0.2128256
-0.006704866 0.0062527698 0.21620531
-0.0068112197 0.0030213615 0.21941587
-0.0069977487 -0.00059446023 0.22269841
-0.0069729886 -0.0040183752 0.22378667
-0.0075286636 -0.0078202793 0.22543974
-0.0075756619 -0.012483816 0.22598857
-0.0073022242 -0.016951652 0.22962976
-0.0077262907 -0.020623308 0.23158027
-0.0083263321 -0.023640927 0.23391572
-0.0048403773 0.031365607 0.1950579
-0.0036343071 0.029258288 0.19741431
-0.0037934396 0.026058588 0.19948769
-0.0043555219 0.023357855 0.20177023
-0.0042907712 0.020444762 0.20472659
-0.00434817 0.01704845 0.20777825
-0.0036228583 0.013329201 0.21033981
-0.0032133602 0.0099669388 0.21277338
-0.0030470956 0.006583408 0.21597977
-0.0031405953 0.0032882523 0.21898596
-0.0030720558 -0.00035366134 0.22247553
-0.0030682525 -0.0043195509 0.22365877
-0.0036376768 -0.0082300687 0.22574213
-0.0042923265 -0.012611725 0.22653165
-0.0048483144 -0.016455041 0.22931153
-0.00061844126 0.028546516 0.19872499
-0.00050855672 0.025892934 0.19964159
-0.00092759891 0.023068015 0.20126773
-0.0010307351 0.020045353 0.20370705
-0.0008893378 0.016467458 0.20638157
-0.0002579065 0.01306257 0.20933774
0.00017838087 0.0098510021 0.21201584
0.00047543459 0.0064600431 0.21468429
0.00020723895 0.0034434907 0.21770863
0.00068276329 -0.00010319048 0.22112267
0.00015596085 -0.0039835759 0.22375634
-0.0014812313 -0.007712 0.22643223
0.002931373 0.025329469 0.19961162
0.0030705845 0.022389671 0.20100018
0.0027262017 0.019314457 0.2028584
0.0025785863 0.015971757 0.20563896
0.0031745601 0.0123502 0.20804675
0.0028630316 0.0097835064 0.21063717
0 0 0 1 0 0 0 1 0 0 0 1 0 0 0 0 0 346 1 0 0
