ply
format ascii 1.0
comment PCL generated
element vertex 346
property float x
property float y
property float z
element camera 1
property float view_px
property float view_py
property float view_pz
property float x_axisx
property float x_axisy
property float x_axisz
property float y_axisx
property float y_axisy
property float y_axisz
property float z_axisx
property float z_axisy
property float z_axisz
property float focal
property float scalex
property float scaley
property float centerx
property float centery
property int viewportx
property int viewporty
property float k1
property float k2
end_header
-0.056722756 0.031204503 0.18766125
-0.057499234 0.028364439 0.18821108
-0.057901036 0.02560937 0.1896511
-0.058320168 0.022830525 0.19148208
-0.058476228 0.019942479 0.19304197
-0.057962142 0.01703064 0.19462973
-0.052441336 0.033394221 0.18413447
-0.053553078 0.030946126 0.18556552
-0.053497795 0.02798016 0.18575008
-0.053992435 0.025238972 0.18739189
-0.05459094 0.022577794 0.18943723
-0.055166956 0.019843163 0.19173491
-0.055373434 0.016934397 0.19344723
-0.055671751 0.013655901 0.19486934
-0.05529128 0.010257398 0.19615003
-0.047714394 0.03584047 0.17977215
-0.048638053 0.03348748 0.18121327
-0.049230177 0.030619804 0.18260582
-0.049779691 0.027570615 0.18401605
-0.050330777 0.025065484 0.18636805
-0.050997794 0.02233753 0.18838981
-0.051573172 0.019884594 0.19093332
-0.052044842 0.01727597 0.19310525
-0.052419126 0.013598766 0.19436841
-0.052948471 0.009378395 0.19605236
-0.05360318 0.0055371709 0.19976266
-0.053359341 0.0021893908 0.20266044
-0.044326022 0.038292594 0.1774634
-0.044916045 0.035935085 0.17848445
-0.045305379 0.033388611 0.18003088
-0.04572241 0.030660713 0.1818193
-0.046468042 0.027724365 0.18406095
-0.047034685 0.024981981 0.18667686
-0.047655217 0.022402139 0.18898199
-0.048364263 0.019963158 0.19137034
-0.048877973 0.017381197 0.19392999
-0.049241327 0.013524204 0.19490199
-0.049495947 0.0089192521 0.19551232
-0.050218653 0.0046358621 0.19908564
-0.050633803 0.0011964903 0.20427196
-0.05158563 -0.0018193913 0.20806476
-0.051998299 -0.003763997 0.2120391
-0.041044913 0.040935136 0.17680001
-0.04173369 0.038823847 0.17753893
-0.041950565 0.036219209 0.17885424
-0.042245265 0.033661284 0.18050787
-0.042801276 0.030963497 0.18258546
-0.043222893 0.027657477 0.1847664
-0.043729916 0.02493706 0.18751584
-0.04430297 0.02237696 0.18976331
-0.045000773 0.019789202 0.19195636
-0.045756731 0.017386021 0.19448364
-0.045917794 0.013336072 0.195783
-0.045758747 0.0085376166 0.19592752
-0.045895491 0.0038880347 0.1992611
-0.047307812 0.0010320303 0.20531824
-0.048329085 -0.0018569087 0.20929924
-0.049439851 -0.0040574796 0.21301652
-0.050164055 -0.0061866371 0.21598309
-0.050728749 -0.0085526034 0.21918479
-0.038753316 0.041817106 0.17681059
-0.038959589 0.039237488 0.17840403
-0.039098382 0.036511689 0.17971334
-0.039446086 0.03384757 0.18142344
-0.039639536 0.030692413 0.18326248
-0.040060438 0.027164469 0.18558121
-0.040627629 0.024881007 0.18830866
-0.041185271 0.02250831 0.19037578
-0.041693233 0.01993126 0.19255421
-0.042510841 0.017319066 0.19523588
-0.042401675 0.013158819 0.19667666
-0.041663349 0.0084526818 0.19759701
-0.041160833 0.0035166785 0.20059024
-0.043886285 0.00051990902 0.20649907
-0.045046311 -0.0018710764 0.21058962
-0.045826338 -0.0036855922 0.21419092
-0.046837922 -0.006073839 0.21726952
-0.048100479 -0.0091973618 0.22018009
-0.048620827 -0.01259819 0.22327322
-0.048247579 -0.016272128 0.22454827
-0.035571154 0.043928761 0.17597313
-0.036025532 0.042472899 0.17743933
-0.036234509 0.039814148 0.1790812
-0.036304776 0.0367915 0.18028952
-0.036542084 0.034101453 0.18226273
-0.036728453 0.03035545 0.18425584
-0.037000619 0.027206013 0.18654433
-0.037660416 0.025097078 0.18908319
-0.038345851 0.022809546 0.19175401
-0.038873561 0.020208025 0.19385368
-0.039581265 0.01733147 0.19689201
-0.039379727 0.013576321 0.19868447
-0.039008383 0.0087545142 0.20080584
-0.038900156 0.0039334255 0.20332484
-0.040521376 0.00058869866 0.20805135
-0.041687105 -0.0014196142 0.21209176
-0.042474698 -0.0036466066 0.21518105
-0.042753424 -0.0069017648 0.21665771
-0.04343858 -0.010180304 0.21877842
-0.0444047 -0.014355493 0.22129989
-0.045069154 -0.018459473 0.22448111
-0.044084713 -0.021019883 0.22678381
-0.03288978 0.044418398 0.17662014
-0.033046789 0.042891331 0.17789066
-0.032980435 0.04022995 0.17976937
-0.033128761 0.03748877 0.18119135
-0.03338581 0.034504358 0.18302047
-0.033719521 0.030778747 0.18576613
-0.034040216 0.027698569 0.18751673
-0.034666639 0.025192361 0.19015947
-0.035348751 0.022926329 0.19310109
-0.036015086 0.020284163 0.19601896
-0.036734704 0.017338365 0.19908586
-0.036606792 0.014359933 0.200546
-0.036397971 0.0096300431 0.20278166
-0.036467176 0.0053550052 0.20574215
-0.037628222 0.0020144826 0.20976718
-0.038418341 -0.00086446502 0.21333219
-0.038947124 -0.003636796 0.21592836
-0.039072856 -0.0070170457 0.21686479
-0.039598715 -0.011004445 0.21885042
-0.040264953 -0.015114064 0.22096263
-0.040608034 -0.018923795 0.22373487
-0.040703017 -0.021459688 0.22675945
-0.029857662 0.044352558 0.17700614
-0.029812185 0.042715263 0.17797923
-0.029968539 0.040196184 0.17987619
-0.030222002 0.037649561 0.18202421
-0.030456768 0.034762844 0.18418424
-0.030791765 0.031258408 0.18680978
-0.031087287 0.0282476 0.18858825
-0.031620681 0.025414195 0.19120625
-0.032231461 0.022822879 0.1948681
-0.033075213 0.020210871 0.19770369
-0.033897109 0.017336849 0.20066731
-0.033849407 0.014626902 0.20225568
-0.033465974 0.010241479 0.20458354
-0.033601943 0.0064013475 0.20748577
-0.034563322 0.0031168675 0.21112606
-0.035175078 -0.00039036357 0.21412334
-0.03542247 -0.0037128679 0.21623142
-0.035673104 -0.0071641891 0.21752767
-0.036331318 -0.011226065 0.21982729
-0.036762506 -0.014998011 0.2219093
-0.036815431 -0.018688953 0.22361206
-0.036634825 -0.021494281 0.22649737
-0.026803773 0.044366408 0.17701432
-0.026809195 0.042752985 0.17816769
-0.027062455 0.040076401 0.17985986
-0.027123921 0.037703499 0.18239631
-0.02737374 0.034932241 0.1849456
-0.02775009 0.031739384 0.18738973
-0.028043028 0.028642163 0.1895342
-0.028474255 0.025745893 0.19220243
-0.029264724 0.022989416 0.1966133
-0.030169191 0.020061543 0.2001538
-0.030894062 0.017470827 0.20239389
-0.030566972 0.015060306 0.20412816
-0.030585596 0.011195539 0.20694587
-0.030559778 0.007400692 0.20918322
-0.031254981 0.0034210568 0.21230929
-0.031842574 -9.0830297e-05 0.21476971
-0.032030351 -0.0039268248 0.21732384
-0.032371502 -0.0074519655 0.21830086
-0.033000693 -0.011278243 0.22078291
-0.03346492 -0.014876463 0.22375432
-0.033289213 -0.018376317 0.22564103
-0.033222828 -0.021627229 0.22811086
-0.023900151 0.044469774 0.17772178
-0.023845879 0.043003559 0.17890121
-0.023864478 0.040163692 0.18021114
-0.024127871 0.037681755 0.18259896
-0.024438126 0.035218347 0.18546681
-0.02464525 0.032195508 0.18778506
-0.025027042 0.029023798 0.1906088
-0.02543417 0.025764057 0.19377032
-0.026193578 0.022921553 0.19864577
-0.026904203 0.019605484 0.20183285
-0.026615122 0.017559232 0.20432015
-0.027098689 0.015382922 0.20629627
-0.027727231 0.011525251 0.20987879
-0.027886681 0.0078162309 0.21183814
-0.028246073 0.003797306 0.21463872
-0.028413499 -8.3518738e-05 0.21640864
-0.02887411 -0.0041682147 0.2189016
-0.028979229 -0.007682587 0.22013162
-0.029543791 -0.011247045 0.22206344
-0.029939951 -0.014645671 0.22515537
-0.029609185 -0.018119805 0.22713752
-0.029811963 -0.021987831 0.22917427
-0.029997218 -0.025284793 0.23280701
-0.020968681 0.044917446 0.17886834
-0.020826252 0.043393031 0.1800866
-0.020941058 0.040489189 0.18167874
-0.021085791 0.03775781 0.18320587
-0.021340918 0.035160154 0.18621983
-0.021650027 0.032369647 0.18848523
-0.022033785 0.029441489 0.19135991
-0.022433186 0.025996927 0.19442521
-0.022904657 0.022525119 0.19965261
-0.023378246 0.019005511 0.20274298
-0.02295357 0.016577592 0.20587674
-0.023412932 0.01434295 0.20802712
-0.024194872 0.011176509 0.21101485
-0.024965815 0.0078133466 0.21401286
-0.024872662 0.0038180801 0.21559064
-0.024696482 -0.0003526904 0.21710318
-0.025366059 -0.0040438953 0.22030181
-0.025696069 -0.0077314577 0.22214742
-0.025787221 -0.011196102 0.22382772
-0.026054107 -0.014401024 0.22689876
-0.025869569 -0.018274749 0.22820306
-0.026210289 -0.022580294 0.22913297
-0.026065405 -0.026513314 0.23279983
-0.018148478 0.043383859 0.18159777
-0.018067647 0.041154612 0.18345283
-0.018077634 0.038113251 0.18466161
-0.018311573 0.035292238 0.18660595
-0.018514339 0.032522883 0.18912348
-0.018786067 0.029723622 0.191634
-0.019054467 0.026210016 0.19591756
-0.019426944 0.022842892 0.19934887
-0.019615781 0.019355621 0.2027577
-0.019651864 0.016126974 0.20563972
-0.019883085 0.01335093 0.20838548
-0.020611096 0.010407469 0.21122581
-0.021286603 0.0069089783 0.2139249
-0.021069968 0.0033610936 0.21561269
-0.021164216 -0.0002658981 0.21802217
-0.0216773 -0.0039736186 0.22156473
-0.022221871 -0.0077748741 0.22379625
-0.022033446 -0.011323304 0.22484206
-0.021694185 -0.014811066 0.2273768
-0.021664869 -0.018509638 0.2280008
-0.021939356 -0.022711655 0.22836973
-0.022213267 -0.027000243 0.23316903
-0.015223159 0.041257802 0.18468787
-0.015208197 0.038507473 0.18615396
-0.01525199 0.035502125 0.18752261
-0.015462912 0.032571666 0.18997808
-0.015805116 0.029736666 0.19212571
-0.015789388 0.026579378 0.19645262
-0.016200194 0.023089379 0.200216
-0.016283317 0.019725468 0.2026218
-0.016475355 0.016231606 0.20475018
-0.01631158 0.012977196 0.20831467
-0.016954053 0.010192434 0.21123126
-0.017338274 0.006860855 0.21357611
-0.017362082 0.0035155993 0.21620186
-0.017489918 -0.00012056535 0.21966486
-0.017884772 -0.0036751686 0.22266945
-0.0181795 -0.0073507712 0.22490543
-0.017883359 -0.011170737 0.22593339
-0.017670998 -0.014956619 0.22706062
-0.01811387 -0.018827517 0.22833094
-0.018197011 -0.023086915 0.23011111
-0.01853181 -0.027299548 0.23490082
-0.012473769 0.038212512 0.18749027
-0.012214079 0.035385147 0.18857504
-0.012436725 0.032454111 0.19078051
-0.012624984 0.029538441 0.19253163
-0.012528807 0.02684675 0.19607674
-0.012976685 0.023480847 0.20042646
-0.013165887 0.020042134 0.2034954
-0.01310443 0.016505893 0.2062654
-0.013155677 0.0132726 0.20896456
-0.0133039 0.010453603 0.21151432
-0.013319897 0.0073585878 0.21413679
-0.013582039 0.0038831548 0.2174692
-0.01403784 0.00014969673 0.22098362
-0.014116356 -0.0034163091 0.22329043
-0.014186171 -0.0070961346 0.2248089
-0.014029011 -0.011438431 0.22675547
-0.014090556 -0.015370096 0.22825328
-0.01435518 -0.019161081 0.23006096
-0.014639216 -0.023613315 0.2330966
-0.014693895 -0.027017338 0.2368754
-0.0095640793 0.035168536 0.189521
-0.0090948232 0.032747258 0.19146204
-0.0092951963 0.029900214 0.19346553
-0.0093010506 0.027322344 0.19687064
-0.0098553468 0.024223257 0.2009615
-0.0099626202 0.020568805 0.20446253
-0.0098097762 0.01705719 0.207086
-0.0098714316 0.013853943 0.20963934
-0.009698581 0.010770237 0.21184917
-0.0096384073 0.0076778769 0.21535268
-0.01008142 0.0041619968 0.2185961
-0.010225343 0.00034433362 0.22153962
-0.010334693 -0.0033034403 0.22349167
-0.010712811 -0.0071508782 0.22533694
-0.010359988 -0.011235836 0.22630362
-0.01046866 -0.015358487 0.22973423
-0.010614172 -0.019160805 0.23148941
-0.010935214 -0.023667889 0.23519678
-0.011573459 -0.026392251 0.237417
-0.0060634976 0.03266884 0.19253887
-0.0060154311 0.030221941 0.19501069
-0.0062962738 0.027472675 0.19863433
-0.00653922 0.024489414 0.20129408
-0.0067801499 0.021017913 0.20473975
-0.0064934134 0.017519083 0.20756902
-0.0062766559 0.01431096 0.2100403
-0.006249743 0.011194701 0.21218838
-0.0061548827 0.0078695146 0.21580064
-0.0063832831 0.0041311337 0.21918732
-0.006552822 0.00026787029 0.22224206
-0.006639387 -0.0033670741 0.22353248
-0.0069501759 -0.0071254815 0.22592252
-0.0067910715 -0.011370811 0.22699304
-0.006847505 -0.015550739 0.23051462
-0.0074026012 -0.019514456 0.23276569
-0.0079776375 -0.022516944 0.23440412
-0.003500062 0.032300852 0.19442831
-0.0027385561 0.030488696 0.19712211
-0.0028933622 0.027675096 0.19940779
-0.0030235888 0.024599874 0.20159179
-0.0029684959 0.021283863 0.20432998
-0.0030422744 0.017744467 0.20714295
-0.0026547587 0.014442987 0.21004944
-0.0027261116 0.011296702 0.21267974
-0.0026340578 0.0081507582 0.21594454
-0.00273514 0.0041799857 0.21875204
-0.0027397196 0.00045746003 0.22183289
-0.0028890288 -0.0034127166 0.2232368
-0.0031423704 -0.0075069424 0.22609299
-0.0035064006 -0.011536186 0.22764713
-0.0042374711 -0.01501289 0.23008242
0.00014736172 0.030273035 0.19889924
0.00039668256 0.028159499 0.20041806
0.0003980035 0.025120467 0.20217934
0.00053455203 0.021739366 0.20406623
0.00065887289 0.018269958 0.20640269
0.00087775732 0.014710898 0.20930144
0.00094118132 0.011373204 0.21215868
0.0010702498 0.0081288423 0.21481863
0.00075005193 0.0045035197 0.21754888
0.00098521041 0.00061035348 0.22032951
0.00041146646 -0.0031803453 0.22294138
-0.00086029898 -0.0068221316 0.22660825
0.0036318232 0.028463986 0.20111606
0.0040843491 0.025520319 0.20265292
0.0041845595 0.0221234 0.20400591
0.0040405109 0.01851329 0.2064034
0.0042055845 0.015012725 0.2083959
0.0038243702 0.011831758 0.21078382
0 0 0 1 0 0 0 1 0 0 0 1 0 0 0 0 0 346 1 0 0
