ply
format ascii 1.0
comment PCL generated
element vertex 346
property float x
property float y
property float z
element camera 1
property float view_px
property float view_py
property float view_pz
property float x_axisx
property float x_axisy
property float x_axisz
property float y_axisx
property float y_axisy
property float y_axisz
property float z_axisx
property float z_axisy
property float z_axisz
property float focal
property float scalex
property float scaley
property float centerx
property float centery
property int viewportx
property int viewporty
property float k1
property float k2
end_header
-0.058258176 0.026622184 0.18784881
-0.05894291 0.023837851 0.18899405
-0.059255555 0.02105727 0.19046804
-0.059358824 0.018203042 0.19224609
-0.05951412 0.01546 0.19386442
-0.058154382 0.011655312 0.19812246
-0.054265991 0.029589556 0.18482541
-0.055621233 0.02706214 0.18635598
-0.055389185 0.023846336 0.18709075
-0.055635054 0.020990567 0.1888639
-0.056294519 0.018158589 0.1908884
-0.056799743 0.014897178 0.19323197
-0.056392979 0.011652091 0.1970192
-0.056034863 0.0085844174 0.20070112
-0.055800438 0.0058475463 0.20279354
-0.048222456 0.031870782 0.18097438
-0.049432602 0.029734675 0.18214309
-0.050955746 0.027093472 0.18360186
-0.051632363 0.023850948 0.18544418
-0.05175275 0.020999102 0.18770307
-0.052417047 0.01817037 0.18962617
-0.0529579 0.014973386 0.19190814
-0.053291179 0.01160259 0.19592984
-0.05347538 0.0076526143 0.20042066
-0.054274846 0.0040961239 0.2027255
-0.054302774 0.00097016845 0.20487319
-0.054370292 -0.001721248 0.20641258
-0.044831779 0.034624867 0.17920323
-0.045348775 0.032372862 0.1801226
-0.045924861 0.030010091 0.18135372
-0.046784289 0.02749536 0.18285677
-0.04792808 0.024121201 0.18558818
-0.048409007 0.021044541 0.18787012
-0.048965525 0.018183379 0.18982692
-0.049563978 0.015194377 0.19181632
-0.050252628 0.011452408 0.19604668
-0.050503988 0.0066349893 0.20016883
-0.051144235 0.0021920046 0.20082732
-0.051952299 -0.00075120275 0.2036595
-0.051860165 -0.0034900627 0.20635296
-0.052038103 -0.0058369008 0.20987116
-0.052661818 -0.0073618032 0.21333504
-0.041967366 0.037834827 0.17846337
-0.042474199 0.0356551 0.17919666
-0.042535726 0.033082198 0.18043907
-0.042957455 0.030673688 0.1818417
-0.043634806 0.02800007 0.18372414
-0.044465907 0.024378385 0.18658906
-0.044788301 0.021120097 0.18869452
-0.045139138 0.018326947 0.19032003
-0.04607036 0.015136147 0.19217251
-0.047198735 0.011572449 0.19562891
-0.047053516 0.0057388432 0.19906892
-0.046919003 0.00033519094 0.19888785
-0.046844427 -0.0032805216 0.20160583
-0.048262607 -0.004239534 0.20640619
-0.049037255 -0.0063830633 0.21063855
-0.050496552 -0.0082245171 0.21429756
-0.051383235 -0.010533897 0.21670745
-0.052126177 -0.013143044 0.22041085
-0.040064197 0.039288487 0.1783254
-0.039926261 0.036438238 0.17992391
-0.040061273 0.033729915 0.18118642
-0.040351529 0.031122917 0.18268701
-0.040676262 0.028043726 0.18496603
-0.041332841 0.0242498 0.18783638
-0.041500751 0.02124464 0.18938272
-0.041988425 0.018518381 0.19045047
-0.042359442 0.015627269 0.19205028
-0.043366536 0.011853495 0.19486569
-0.043574631 0.0046238094 0.19743216
-0.04159138 -0.001317887 0.1962139
-0.038707074 -0.0058641704 0.198144
-0.044389777 -0.0057746517 0.20655403
-0.04577202 -0.006874593 0.2114117
-0.047139689 -0.0078561632 0.21543668
-0.04843891 -0.010155244 0.21852414
-0.049953256 -0.013143431 0.22184157
-0.04975136 -0.016242236 0.22433798
-0.048155487 -0.018336592 0.22717986
-0.037146553 0.041923329 0.17721079
-0.037382666 0.040378988 0.17871258
-0.03745598 0.037588928 0.18043052
-0.037489381 0.034271955 0.18173157
-0.037586167 0.031623121 0.18381445
-0.037996452 0.027754346 0.18681544
-0.038279917 0.024175109 0.18888147
-0.038683545 0.021334099 0.19022472
-0.038952354 0.018414557 0.19132476
-0.039156917 0.015265586 0.19252621
-0.039677214 0.011447538 0.19452593
-0.040487796 0.0040895008 0.19622014
-0.038214721 -0.00088484254 0.19734237
-0.037008155 -0.0046786172 0.20075478
-0.040836513 -0.0067043309 0.20704585
-0.042444885 -0.0073438263 0.21212099
-0.044143897 -0.0085932305 0.21637072
-0.045362379 -0.010564777 0.21928188
-0.046264369 -0.012394914 0.22206786
-0.045889039 -0.015689529 0.22683668
-0.04510029 -0.020010026 0.23146622
-0.043517284 -0.022692099 0.23270357
-0.034538537 0.042921703 0.17724186
-0.034312241 0.041535068 0.17869703
-0.03384003 0.039366338 0.18054393
-0.033813685 0.03700009 0.18227965
-0.034210719 0.032865871 0.18465416
-0.034868021 0.027923213 0.18853013
-0.035371754 0.024573065 0.19011845
-0.03594958 0.021445384 0.19170456
-0.036284298 0.018333508 0.19290541
-0.036562577 0.015010941 0.19427212
-0.036969628 0.010811606 0.19579674
-0.037522301 0.0054420922 0.19625707
-0.036052734 0.00078195333 0.19880719
-0.035721868 -0.0023454716 0.20252794
-0.037938032 -0.0046196003 0.20784676
-0.039216429 -0.0076811286 0.21379259
-0.041020889 -0.0091378596 0.21770464
-0.041836806 -0.010897384 0.22017717
-0.04228339 -0.013246158 0.22427693
-0.042509045 -0.016825829 0.22720528
-0.041752569 -0.020636126 0.22960794
-0.0402021 -0.022840038 0.23129834
-0.0315511 0.043342274 0.17764871
-0.031232523 0.042078741 0.17908673
-0.030879984 0.039871532 0.18120131
-0.030737069 0.037582368 0.18330918
-0.030786086 0.033568311 0.18587469
-0.031820823 0.028772695 0.18916991
-0.032349259 0.025515741 0.19100772
-0.033123661 0.021763241 0.19323598
-0.033619735 0.018168062 0.1945678
-0.033966213 0.014728517 0.19600558
-0.034562796 0.010473642 0.19715242
-0.03509675 0.0063742283 0.19733784
-0.033837747 0.0024217782 0.20032883
-0.033823758 -0.00031223643 0.20417024
-0.035426091 -0.0027102532 0.20875077
-0.036732044 -0.0060034106 0.21380733
-0.03820394 -0.0081676692 0.21892318
-0.039022814 -0.010029413 0.2216754
-0.039091777 -0.01269341 0.22497678
-0.039205778 -0.016662091 0.22622049
-0.038650922 -0.020348804 0.22768532
-0.036800597 -0.022730978 0.22910824
-0.028588831 0.043469526 0.1783302
-0.02820765 0.042241514 0.17967883
-0.028117849 0.03997336 0.18154858
-0.027737446 0.037731022 0.1840696
-0.027474031 0.033709463 0.18662234
-0.028258804 0.029917188 0.18935187
-0.029234519 0.026520934 0.19187087
-0.030083405 0.022783339 0.19402677
-0.030969739 0.01819236 0.19647731
-0.031270329 0.014027189 0.19854756
-0.031990655 0.010619042 0.19890383
-0.032397699 0.0080610672 0.19894451
-0.031566821 0.0048590074 0.20209657
-0.031039711 0.002012905 0.20575543
-0.032588411 -0.0016395678 0.2100471
-0.033859316 -0.0045861513 0.21422438
-0.035545945 -0.0070882114 0.22049114
-0.035870962 -0.0096699055 0.22303782
-0.036205351 -0.012957423 0.22532369
-0.03585878 -0.016837267 0.22659166
-0.034974992 -0.020250166 0.22752005
-0.033385333 -0.022377701 0.22812246
-0.0255989 0.043776684 0.17900844
-0.025293302 0.042681623 0.18038276
-0.024889627 0.040285226 0.18196496
-0.02455971 0.03734095 0.18409839
-0.024308952 0.0342496 0.18656254
-0.024864465 0.031062292 0.1892395
-0.02589583 0.027664797 0.19253361
-0.027093045 0.023402216 0.19553354
-0.027853679 0.018190421 0.19896759
-0.028265899 0.013787348 0.20096941
-0.028127071 0.011280385 0.20134051
-0.029248264 0.0096995542 0.2015276
-0.028806927 0.0063305395 0.20493405
-0.028617973 0.0030644028 0.20777017
-0.030060012 -0.00056982483 0.21284384
-0.03080558 -0.0029816756 0.21839169
-0.031878944 -0.0070562246 0.22200547
-0.032342013 -0.010084368 0.22370149
-0.032871295 -0.013115726 0.22521611
-0.032198653 -0.016840098 0.22638564
-0.030782521 -0.019663254 0.22679253
-0.030490212 -0.021895776 0.22737648
-0.030090785 -0.024635959 0.2301399
-0.022459188 0.044624321 0.17971615
-0.021967145 0.04302014 0.18093216
-0.021741541 0.039944492 0.18241158
-0.021359053 0.036850441 0.18392877
-0.021393392 0.03434268 0.18709897
-0.021867966 0.031717945 0.18975317
-0.022342626 0.02913725 0.19265491
-0.0233369 0.025629768 0.19586445
-0.024561213 0.020340268 0.20063396
-0.025144706 0.015242973 0.20296262
-0.024995333 0.012211314 0.20402086
-0.025511287 0.0096720625 0.20452584
-0.025862092 0.0066268677 0.20707588
-0.026262436 0.0033259732 0.21029578
-0.026738374 0.00066436856 0.21531516
-0.02683585 -0.0023965391 0.21959254
-0.027367285 -0.0068533244 0.22194405
-0.028006023 -0.010096776 0.22293167
-0.027943213 -0.012925927 0.22394013
-0.027409 -0.016344862 0.22542296
-0.026691552 -0.018589502 0.225465
-0.027077965 -0.021797411 0.22671866
-0.026238704 -0.025236398 0.23037799
-0.018781185 0.04247205 0.1817504
-0.018593414 0.040151145 0.18361844
-0.018385679 0.037238121 0.18494329
-0.018653058 0.034464512 0.18739972
-0.018914051 0.032085437 0.19010261
-0.019205071 0.02986259 0.19277422
-0.01991163 0.027117124 0.19718559
-0.020770347 0.022733845 0.20080228
-0.021356523 0.017812438 0.20389698
-0.021713637 0.013510501 0.20587923
-0.021903371 0.010450858 0.20729351
-0.022620395 0.0072361017 0.2094195
-0.023005817 0.0040178047 0.21318679
-0.022763997 0.0012145216 0.21699655
-0.022713859 -0.0022386406 0.219689
-0.022838129 -0.0062308777 0.22222744
-0.023405949 -0.0093876189 0.22292764
-0.02270796 -0.012756095 0.22370976
-0.021896685 -0.015912538 0.22558622
-0.022174301 -0.018413555 0.22543609
-0.022584086 -0.021801895 0.22563449
-0.022258891 -0.025733106 0.23039564
-0.015591347 0.04030738 0.18468507
-0.015593658 0.037637904 0.18618467
-0.015731266 0.034525976 0.18819927
-0.016322318 0.031995229 0.19081986
-0.016681816 0.029901287 0.19343406
-0.016832773 0.02726642 0.19809151
-0.017760294 0.023109563 0.2015983
-0.017777737 0.019376649 0.2041847
-0.018179398 0.015152153 0.2062929
-0.01830483 0.011458154 0.20927072
-0.019153317 0.007942412 0.2116818
-0.019254291 0.0048828558 0.2147886
-0.018787744 0.0016316244 0.21775508
-0.01834123 -0.0019823136 0.22020532
-0.018264957 -0.0054587768 0.22332075
-0.018733643 -0.0087927757 0.22428451
-0.018242212 -0.012111709 0.22447968
-0.018263701 -0.015584364 0.22519396
-0.019250423 -0.019150386 0.22587623
-0.01916901 -0.022461992 0.22728817
-0.018584104 -0.02599242 0.23166248
-0.013176477 0.037479594 0.18747857
-0.013388828 0.034215815 0.18955542
-0.013644839 0.03185999 0.19185497
-0.013865435 0.029622536 0.19417456
-0.013694674 0.027228251 0.19758581
-0.01453892 0.023707075 0.20185013
-0.014782147 0.019908629 0.20501345
-0.01463488 0.016109949 0.20798583
-0.014563774 0.012425061 0.21056142
-0.014634158 0.0086764535 0.21295516
-0.014678443 0.0057909037 0.21559632
-0.014639917 0.0023267556 0.21839415
-0.014446847 -0.0012245898 0.22154537
-0.014607754 -0.0046642362 0.22382422
-0.014682781 -0.0082539609 0.22469264
-0.014540585 -0.012419112 0.22517979
-0.014839841 -0.016608449 0.22622135
-0.015511198 -0.02024617 0.22791895
-0.015531854 -0.023406083 0.23008981
-0.014926652 -0.026195958 0.2334981
-0.01093362 0.0343614 0.19020817
-0.010492289 0.031873826 0.19228999
-0.010572533 0.029389717 0.19462793
-0.010380716 0.026964949 0.19783144
-0.011107915 0.024129884 0.20191084
-0.01159987 0.020549277 0.20569102
-0.011110704 0.01704766 0.20833424
-0.010813241 0.012876269 0.21059574
-0.010446607 0.0092408638 0.21287189
-0.010445212 0.0060443333 0.21594721
-0.010677419 0.002924907 0.21883014
-0.010679204 -0.00077961152 0.22218134
-0.010881352 -0.0041860109 0.22378948
-0.011288315 -0.0079710595 0.22443432
-0.011079517 -0.012150296 0.22472873
-0.011122367 -0.01657084 0.2274517
-0.011236154 -0.020142416 0.2293939
-0.011724252 -0.023919158 0.23274906
-0.012171159 -0.026135843 0.23468959
-0.0070777973 0.031707644 0.19329681
-0.0068414048 0.029412875 0.19607057
-0.0070499266 0.026702419 0.19924401
-0.0076972516 0.023962477 0.20220567
-0.0079590119 0.020902202 0.20585144
-0.0075865882 0.017206363 0.20840581
-0.0070580253 0.01324101 0.21036796
-0.0067109987 0.0096004242 0.21243398
-0.0066116317 0.0060430844 0.21597734
-0.0068146912 0.0028126554 0.21931052
-0.0070197117 -0.00086466607 0.2223901
-0.0070934622 -0.0043271105 0.22330382
-0.0076016742 -0.0079654716 0.22471806
-0.0075671221 -0.012221755 0.2249576
-0.0074435794 -0.016548345 0.22849488
-0.0080311038 -0.020226644 0.23033841
-0.0087483274 -0.023187775 0.23250225
-0.00429348 0.031287245 0.19508655
-0.0030302992 0.029472223 0.19791614
-0.003415985 0.026537018 0.20024811
-0.0041395398 0.023787554 0.20226403
-0.0041174567 0.020668877 0.20503731
-0.0041661779 0.017023327 0.20769466
-0.0034530263 0.013159408 0.2098204
-0.0030832656 0.0097829979 0.21208684
-0.0029351369 0.0062120031 0.21527262
-0.0032202303 0.002922181 0.21850373
-0.0031832182 -0.00068960851 0.22184901
-0.0031814117 -0.0046684365 0.22284096
-0.0037531136 -0.0085180728 0.22481596
-0.0042915205 -0.012357304 0.22564934
-0.0049689244 -0.015986551 0.2285884
-9.2005299e-05 0.028772019 0.19935054
-0.00021401604 0.026336975 0.20050998
-0.00064650481 0.023587426 0.20204717
-0.00081779395 0.020470986 0.20422108
-0.00061933033 0.016659092 0.20653969
-5.0766455e-05 0.013099887 0.20913488
0.00038134956 0.0097952746 0.21144077
0.00059696322 0.0061936532 0.21388161
1.824225e-05 0.0030535606 0.21690851
0.00045090154 -0.00050498685 0.22014122
5.8056707e-05 -0.0044366927 0.22259489
-0.0014868627 -0.0080798054 0.2253273
0.0031594797 0.026011221 0.20064409
0.0033570048 0.023145949 0.20202126
0.002990643 0.020008611 0.20368047
0.0028579077 0.016472859 0.20605321
0.0035352169 0.012738882 0.20826589
0.003093417 0.0099612782 0.21041819
0 0 0 1 0 0 0 1 0 0 0 1 0 0 0 0 0 346 1 0 0
