ply
format ascii 1.0
comment PCL generated
element vertex 346
property float x
property float y
property float z
element camera 1
property float view_px
property float view_py
property float view_pz
property float x_axisx
property float x_axisy
property float x_axisz
property float y_axisx
property float y_axisy
property float y_axisz
property float z_axisx
property float z_axisy
property float z_axisz
property float focal
property float scalex
property float scaley
property float centerx
property float centery
property int viewportx
property int viewporty
property float k1
property float k2
end_header
-0.058928028 0.02774469 0.18930569
-0.059569716 0.024804207 0.19041938
-0.059816554 0.021841804 0.19175431
-0.059837114 0.018784758 0.19331756
-0.059898235 0.01581851 0.1946685
-0.058244985 0.011725071 0.19840267
-0.055080451 0.030790662 0.18622422
-0.056391679 0.028225057 0.18776846
-0.056159373 0.024875697 0.18848936
-0.056299552 0.021793239 0.19008881
-0.056844674 0.018729663 0.19184822
-0.057215512 0.015195552 0.19385694
-0.056561064 0.011675075 0.19721785
-0.056015562 0.0087031713 0.20075646
-0.055808932 0.0060638157 0.20294881
-0.048653834 0.032544766 0.18218438
-0.050025757 0.030658517 0.18355367
-0.051841281 0.028166471 0.18503098
-0.052524112 0.024876041 0.18682016
-0.052489955 0.021789853 0.18884133
-0.053035509 0.018711904 0.19044021
-0.053431276 0.015195968 0.19226763
-0.053551283 0.011490582 0.19588971
-0.053600036 0.0077077118 0.20040867
-0.054342527 0.0042660232 0.20285006
-0.054336488 0.0011679231 0.20501198
-0.054408222 -0.0015502601 0.20652629
-0.045076009 0.03477231 0.17981018
-0.045683589 0.032728005 0.18116537
-0.046386439 0.030626332 0.18274997
-0.047434412 0.028375061 0.18447571
-0.048791058 0.025051044 0.18692967
-0.049109329 0.0216753 0.18883407
-0.049508646 0.018458912 0.19027033
-0.050010592 0.015199872 0.19183315
-0.050550275 0.011170081 0.19568887
-0.05072752 0.0065889275 0.19998486
-0.051365625 0.0022234945 0.20083562
-0.052072555 -0.00063962326 0.20373017
-0.051907133 -0.0033971316 0.20641601
-0.052018616 -0.0056713303 0.20995417
-0.052653328 -0.0071433336 0.2134091
-0.042099416 0.037712369 0.17832333
-0.042670019 0.035674114 0.17951812
-0.042823263 0.033313002 0.18121612
-0.043336637 0.031174816 0.18306942
-0.04412391 0.02882663 0.18536954
-0.045151804 0.025103148 0.18811634
-0.045390673 0.021536136 0.18967125
-0.045674503 0.018523712 0.19082314
-0.046532348 0.01507217 0.19211942
-0.047541976 0.011125315 0.19496711
-0.047397599 0.005514292 0.1987035
-0.047372568 0.00013313611 0.19880886
-0.04707855 -0.0034110001 0.20162617
-0.048284322 -0.0042156228 0.20641513
-0.049007878 -0.0062500234 0.21070686
-0.050497837 -0.0080219088 0.21437827
-0.051470779 -0.010234255 0.2168425
-0.052356534 -0.012647004 0.22065008
-0.040177334 0.039125241 0.17786936
-0.040076517 0.036430568 0.1799514
-0.040288515 0.033925325 0.18176709
-0.040675107 0.031619363 0.1837333
-0.041175283 0.02882137 0.18645827
-0.04193794 0.024729928 0.18914419
-0.042066824 0.021646546 0.19047268
-0.042603418 0.018854858 0.19135429
-0.042925 0.015772281 0.19246706
-0.043744147 0.011547188 0.19439547
-0.043974619 0.004271077 0.19729401
-0.042075031 -0.0016655122 0.19642726
-0.039102718 -0.0062665362 0.19823493
-0.044349629 -0.0058863307 0.20655073
-0.045713831 -0.0068086241 0.21146667
-0.047142494 -0.0076739914 0.21553916
-0.04856807 -0.0097950855 0.21872652
-0.050217189 -0.012601453 0.22214073
-0.050136097 -0.01562291 0.22462556
-0.048911557 -0.018050449 0.22608571
-0.037239939 0.041666914 0.17648676
-0.037478566 0.040247358 0.17811255
-0.037559282 0.037553873 0.18008819
-0.03770816 0.0344241 0.18215337
-0.037865169 0.032109417 0.18466528
-0.038419686 0.028183527 0.18777946
-0.038735818 0.024414904 0.18960604
-0.039150719 0.021565814 0.19097976
-0.03946986 0.018659644 0.19200644
-0.039600544 0.015377144 0.19291441
-0.039841488 0.011263242 0.19425978
-0.040844571 0.0036526923 0.19631918
-0.038579069 -0.0013160941 0.19744438
-0.03722633 -0.0051177167 0.20072806
-0.040779844 -0.0069603133 0.20702222
-0.042382129 -0.0073563526 0.21215907
-0.044143725 -0.0083776396 0.21653728
-0.045459047 -0.010188652 0.21953467
-0.046468876 -0.011891724 0.22237897
-0.04659906 -0.015596904 0.22604376
-0.046341468 -0.02044243 0.22958897
-0.044877749 -0.0233096 0.23065376
-0.034620855 0.042693023 0.17646551
-0.034397122 0.041422427 0.17810388
-0.033896621 0.039224844 0.18001378
-0.033829823 0.036749572 0.18173151
-0.03433539 0.032833345 0.18468004
-0.035093546 0.027906943 0.18859071
-0.035604924 0.024572499 0.19023742
-0.03612994 0.021377606 0.19170432
-0.03646395 0.018207198 0.19270283
-0.036637045 0.014770682 0.19374152
-0.036860988 0.010378713 0.1949327
-0.037763841 0.0048942221 0.19614236
-0.036277097 0.00024162643 0.19872038
-0.035783302 -0.0028116419 0.20237179
-0.037860855 -0.0049054245 0.20763524
-0.039154667 -0.0076586297 0.21390641
-0.041046709 -0.0089292545 0.21793908
-0.041955262 -0.010625839 0.22043328
-0.042740259 -0.012993379 0.22392574
-0.043326344 -0.016861884 0.2260011
-0.042805821 -0.020920809 0.22797625
-0.041413616 -0.023361014 0.22964576
-0.031621862 0.043186404 0.17702183
-0.031290442 0.041941456 0.17859302
-0.030909022 0.039660838 0.18068327
-0.03071163 0.037312351 0.18272787
-0.030782321 0.033263706 0.18536541
-0.031967934 0.028682835 0.18897328
-0.032458849 0.025389977 0.19076647
-0.033005334 0.021418782 0.19254301
-0.033517104 0.017752578 0.19356373
-0.03374074 0.014261073 0.19477928
-0.034235429 0.0098406738 0.1957407
-0.035163049 0.0055984445 0.19681211
-0.033852536 0.0017129977 0.19991732
-0.033734392 -0.00081032322 0.20376374
-0.035279311 -0.0030545474 0.20839585
-0.036626816 -0.0060609332 0.21381651
-0.038258124 -0.0079872534 0.21931587
-0.039207827 -0.0098433206 0.2220455
-0.039602298 -0.012569605 0.22481777
-0.039932139 -0.016673336 0.22536996
-0.039546438 -0.020518733 0.22642653
-0.037792198 -0.023082165 0.2279285
-0.028632993 0.043319598 0.17779984
-0.028228944 0.042076837 0.17914513
-0.028109074 0.039760429 0.18098167
-0.027686119 0.037439656 0.18343858
-0.027336245 0.033291981 0.18580188
-0.028339837 0.02978758 0.18898338
-0.029360367 0.026442718 0.19161744
-0.029986098 0.022411479 0.19320297
-0.030565763 0.017560296 0.19477025
-0.03063982 0.013351477 0.19664553
-0.031369895 0.0097482633 0.19701895
-0.032022361 0.0070207301 0.19762343
-0.031180922 0.0039559733 0.20111889
-0.03073808 0.0014340732 0.20500976
-0.032387868 -0.002042772 0.20959915
-0.033696041 -0.0048171352 0.21403603
-0.035631102 -0.0069269673 0.22118323
-0.036100037 -0.0094990423 0.22370706
-0.036750708 -0.012939204 0.2253556
-0.036615912 -0.016960876 0.22600992
-0.035838183 -0.020486396 0.22664569
-0.034227468 -0.022685463 0.22761697
-0.025604656 0.043631155 0.1784339
-0.025295395 0.042486567 0.17978567
-0.024839319 0.040074725 0.18131869
-0.024460696 0.037168834 0.18348292
-0.024138944 0.033943139 0.18580377
-0.024878459 0.030857312 0.1886671
-0.026085434 0.027715625 0.192378
-0.027036365 0.023148105 0.19479601
-0.027125493 0.017393474 0.19689821
-0.027271606 0.012846624 0.19865817
-0.027203491 0.010101281 0.19937593
-0.028364185 0.0084491903 0.19973402
-0.028185768 0.005425693 0.20367719
-0.028255571 0.0024901968 0.20690702
-0.029769344 -0.001038222 0.21230659
-0.030646941 -0.0034763352 0.21802473
-0.031934876 -0.0070904656 0.22267869
-0.03255111 -0.010107963 0.22441453
-0.033337861 -0.013187331 0.22555651
-0.032917634 -0.017032119 0.22618283
-0.031489938 -0.019931264 0.22672763
-0.031194385 -0.022180118 0.22757465
-0.030964935 -0.025007037 0.2305458
-0.022482377 0.044522617 0.17910135
-0.021983722 0.042992711 0.18048452
-0.021743629 0.039984178 0.18200114
-0.021270165 0.036906701 0.18349259
-0.021349436 0.034195896 0.18655498
-0.02190084 0.031660493 0.18930629
-0.022516649 0.029341718 0.19246863
-0.023518912 0.025700752 0.19564787
-0.02404917 0.019388419 0.19991411
-0.024269195 0.014074267 0.20174064
-0.024208559 0.01109223 0.20268668
-0.024845041 0.0086129457 0.20321161
-0.025446175 0.0058769663 0.20607835
-0.026105082 0.0028716966 0.20961608
-0.02658575 6.6158791e-05 0.21473493
-0.026760096 -0.00304171 0.21909374
-0.027349528 -0.007266012 0.22186603
-0.028139947 -0.010462024 0.22321755
-0.028205317 -0.013252833 0.22450843
-0.027860178 -0.016472602 0.22638178
-0.027168352 -0.018775331 0.22668393
-0.027646163 -0.022096099 0.22765183
-0.027048105 -0.025612086 0.23136677
-0.018816434 0.04261981 0.18155012
-0.018605994 0.040232863 0.18331718
-0.018366534 0.037322994 0.18460865
-0.018670451 0.034456354 0.18708679
-0.01899785 0.032166965 0.18986189
-0.019316688 0.029786091 0.19242837
-0.020016173 0.026579941 0.19656464
-0.020615214 0.021983655 0.20057228
-0.020797757 0.016823065 0.20364307
-0.021026723 0.012497014 0.20514163
-0.021392204 0.0095846765 0.20630173
-0.022396041 0.006613486 0.20863819
-0.022950822 0.0035513621 0.21266063
-0.022683263 0.00067663664 0.21666352
-0.022685558 -0.0027340956 0.21951997
-0.022834528 -0.006665783 0.22220819
-0.023495754 -0.0098453527 0.22336133
-0.022951709 -0.013090678 0.22496204
-0.022291001 -0.015897233 0.22738782
-0.022525931 -0.018481545 0.22729759
-0.023000486 -0.022027982 0.22727858
-0.02302766 -0.026072592 0.23176594
-0.015574936 0.040316019 0.18435141
-0.015576137 0.037605528 0.18575819
-0.015781449 0.034563478 0.18797632
-0.016405933 0.031844281 0.19055878
-0.016773894 0.029519172 0.19293271
-0.016896915 0.026588202 0.19745289
-0.017631216 0.022540767 0.20139271
-0.017340191 0.018676896 0.20397028
-0.017416095 0.014217683 0.20580332
-0.017762374 0.01057338 0.20836213
-0.019011114 0.0072619556 0.21091522
-0.019121667 0.0042918012 0.21419685
-0.018715488 0.0012083981 0.21753283
-0.01837514 -0.002186443 0.22051476
-0.018416118 -0.005576523 0.22377692
-0.018932514 -0.0089728767 0.22507787
-0.018483192 -0.012201852 0.22609963
-0.018532678 -0.015568531 0.22710936
-0.0195769 -0.019154197 0.22791752
-0.019625248 -0.022618376 0.22914727
-0.019352173 -0.026287977 0.23334868
-0.01314095 0.037322845 0.18702602
-0.013398569 0.034040153 0.1892464
-0.013679717 0.031496879 0.19145633
-0.01394276 0.029050665 0.19357911
-0.013706122 0.02662503 0.19709522
-0.014474336 0.023394436 0.20168819
-0.014385218 0.019382557 0.20479178
-0.013901525 0.015294744 0.20739134
-0.013923722 0.011505857 0.2094149
-0.01434042 0.0078721559 0.21199431
-0.014518605 0.0051736259 0.2150519
-0.014552891 0.0020035226 0.21832077
-0.014539646 -0.0013100972 0.22203986
-0.014801603 -0.0046865102 0.22464663
-0.014867184 -0.0082466193 0.22586201
-0.014751673 -0.012386969 0.22693016
-0.015094833 -0.016514391 0.22818701
-0.015821334 -0.020126408 0.22995311
-0.015972089 -0.023411592 0.23210926
-0.015570812 -0.026236691 0.23546951
-0.010969093 0.034109168 0.18986782
-0.010530918 0.031634014 0.19201267
-0.010565806 0.029123157 0.19436343
-0.010355713 0.02668348 0.19762935
-0.011090597 0.024094604 0.20189731
-0.011317718 0.020293158 0.20556501
-0.010633158 0.016597221 0.20786354
-0.010439659 0.012379928 0.20964624
-0.010171298 0.0088516353 0.21220884
-0.010328238 0.0057728388 0.21575868
-0.010665897 0.0027961296 0.21917669
-0.010757754 -0.00074533169 0.22278853
-0.011056866 -0.00414286 0.22473386
-0.01144575 -0.0079767704 0.22577435
-0.011266597 -0.012140579 0.22651707
-0.011362399 -0.01640445 0.22936583
-0.011498046 -0.01992736 0.23135033
-0.012115828 -0.023698095 0.23477401
-0.012700049 -0.025986319 0.23681967
-0.00715762 0.031714007 0.19327091
-0.0069187139 0.029465331 0.19610226
-0.0070530614 0.026758479 0.19930664
-0.007627618 0.024162399 0.20245625
-0.0078476919 0.021027667 0.20608757
-0.0074209375 0.017169923 0.20834771
-0.0068625081 0.013171325 0.20992161
-0.0064968346 0.0096896375 0.21224803
-0.0065557738 0.0062056365 0.21620899
-0.0068186247 0.0028847144 0.21984674
-0.0070044198 -0.00081003987 0.22287659
-0.0070823715 -0.0042950176 0.22389105
-0.007707186 -0.0078893853 0.2258451
-0.0077435258 -0.012219363 0.22667891
-0.0076501858 -0.016415287 0.23018485
-0.0082657319 -0.020009026 0.23218451
-0.0090362672 -0.022911191 0.23446658
-0.0044501913 0.031494886 0.19521883
-0.0031301866 0.02976373 0.19805984
-0.0033722196 0.026829448 0.20047106
-0.0040182057 0.024097815 0.20267244
-0.0039726435 0.020929564 0.20543176
-0.003998667 0.017129254 0.20791295
-0.0032480443 0.013336233 0.20986328
-0.0029082578 0.010145461 0.21235532
-0.0028677492 0.0067294156 0.21587269
-0.0031927824 0.0031150912 0.21909033
-0.0031134458 -0.00070184463 0.2222373
-0.0031452598 -0.0047084843 0.22326045
-0.0038087296 -0.008507682 0.22560513
-0.0044220788 -0.012405433 0.22701263
-0.0051209582 -0.01594493 0.23011425
-0.00011742201 0.029177841 0.19952068
-7.5690456e-05 0.026713951 0.20082279
-0.00044405228 0.023939965 0.20252781
-0.00063593191 0.02078291 0.20470873
-0.00041633373 0.016819246 0.20692219
0.00014498552 0.013387137 0.209526
0.00057181419 0.010257054 0.21200059
0.00076928915 0.0068340222 0.21471046
0.0001111872 0.0033770162 0.21764033
0.00050642568 -0.00055701414 0.2204704
0.00011419623 -0.0045490325 0.22284393
-0.001517438 -0.0080912495 0.2259887
0.0033036822 0.026499361 0.20127808
0.0035194235 0.023597773 0.20277192
0.0032003038 0.020418335 0.20433784
0.0030585416 0.016811877 0.20660508
0.0037450544 0.013115759 0.20886864
0.0033225867 0.010425776 0.21108907
0 0 0 1 0 0 0 1 0 0 0 1 0 0 0 0 0 346 1 0 0
