ply
format ascii 1.0
comment PCL generated
element vertex 346
property float x
property float y
property float z
element camera 1
property float view_px
property float view_py
property float view_pz
property float x_axisx
property float x_axisy
property float x_axisz
property float y_axisx
property float y_axisy
property float y_axisz
property float z_axisx
property float z_axisy
property float z_axisz
property float focal
property float scalex
property float scaley
property float centerx
property float centery
property int viewportx
property int viewporty
property float k1
property float k2
end_header
-0.058906112 0.027125349 0.18930596
-0.059517745 0.024334392 0.1902753
-0.059721928 0.021526538 0.19136608
-0.059836637 0.018446255 0.19276425
-0.060086459 0.015595577 0.19378376
-0.058834542 0.011830798 0.19618639
-0.055090245 0.030094527 0.18637921
-0.056354035 0.027598025 0.18780319
-0.056059126 0.024480008 0.18844619
-0.056219053 0.021605387 0.18995798
-0.056845035 0.018619018 0.19146113
-0.057365615 0.01520491 0.19315438
-0.057096358 0.011972524 0.19525002
-0.056806758 0.0088903159 0.19743747
-0.056608438 0.0061109173 0.1993044
-0.048509244 0.032227688 0.18247898
-0.049841899 0.030170973 0.18365292
-0.051738441 0.027626568 0.18501101
-0.052382529 0.02453913 0.18681608
-0.052348156 0.021731872 0.18886136
-0.052964862 0.018766688 0.19034694
-0.053465385 0.01544096 0.19196241
-0.054028459 0.012103021 0.19420339
-0.054468371 0.0081037609 0.19682033
-0.055166822 0.0043364321 0.19905677
-0.05503406 0.0010914207 0.20161049
-0.055040389 -0.0015944727 0.20379378
-0.045145679 0.034859758 0.18031496
-0.045618702 0.032663211 0.18144321
-0.046197455 0.030344948 0.18283716
-0.047187593 0.028020222 0.18433338
-0.048636161 0.024774928 0.18696931
-0.048981965 0.021759678 0.18902776
-0.049415879 0.018645404 0.19050348
-0.049963798 0.015459668 0.19192827
-0.050969359 0.012039572 0.19401194
-0.051641755 0.007348008 0.19591324
-0.052334126 0.0026376734 0.19639646
-0.052869715 -0.00068099133 0.20002395
-0.052608103 -0.0034832759 0.2037337
-0.052621905 -0.0054961485 0.20757924
-0.053106155 -0.0066780127 0.21140891
-0.042373814 0.038055599 0.17909655
-0.042794932 0.035851557 0.18004188
-0.042794723 0.033367842 0.18148829
-0.043149747 0.031037249 0.18312976
-0.043827742 0.0284635 0.18521471
-0.045067288 0.02510231 0.1881851
-0.045366965 0.021780062 0.1899744
-0.045565899 0.018763727 0.19116481
-0.046380695 0.015283812 0.19237332
-0.047822323 0.012099729 0.1936511
-0.048227772 0.0068401601 0.19399333
-0.048004556 0.0015235239 0.19291846
-0.047640443 -0.0030123359 0.19643752
-0.049016073 -0.0043141749 0.20373158
-0.049583074 -0.0060832077 0.20824146
-0.050934218 -0.007567964 0.21230458
-0.051986165 -0.0094454233 0.21512201
-0.052910533 -0.011224736 0.21928579
-0.040544715 0.03965858 0.17877865
-0.040263198 0.036683146 0.18048233
-0.040298212 0.034026805 0.18201855
-0.040525418 0.031541303 0.18378346
-0.040971234 0.028552856 0.18617237
-0.04198182 0.024864828 0.18901415
-0.042087965 0.02190805 0.19060041
-0.042574506 0.019155826 0.19163921
-0.042814344 0.016046947 0.19269957
-0.043781698 0.012114529 0.19365008
-0.044079095 0.0059057283 0.19192331
-0.040979955 3.1302091e-06 0.19047143
-0.038122084 -0.0049360711 0.19265695
-0.045171987 -0.0058644903 0.20374873
-0.046314452 -0.0066425223 0.20895381
-0.047506761 -0.0073090941 0.21320596
-0.048985384 -0.0089441789 0.21685126
-0.050721448 -0.011052726 0.220716
-0.050757051 -0.013612768 0.22352944
-0.049455464 -0.016087327 0.22374707
-0.03766872 0.042447098 0.17756788
-0.037837878 0.040863067 0.17902775
-0.037846819 0.037961379 0.18067807
-0.037750132 0.034595076 0.18241349
-0.03774504 0.032090627 0.18477193
-0.038364001 0.028171832 0.18750119
-0.03881469 0.024578428 0.18940046
-0.03920082 0.021795757 0.19094005
-0.039516721 0.018999418 0.19209735
-0.039653555 0.015762102 0.19283685
-0.039753109 0.011703045 0.19326033
-0.039997548 0.0052855485 0.19145337
-0.037569005 0.00017281604 0.19245359
-0.036982451 -0.0041804053 0.195869
-0.041651182 -0.0068163048 0.2040835
-0.043008696 -0.007261449 0.20948191
-0.04446331 -0.0081235301 0.21402602
-0.045777407 -0.0090275435 0.21746325
-0.046782278 -0.010050223 0.22072007
-0.046840116 -0.013847199 0.22331642
-0.046780203 -0.018621121 0.22599417
-0.045508437 -0.021348746 0.22733682
-0.035023835 0.043438151 0.17739512
-0.034701027 0.042010982 0.17888527
-0.03413124 0.039622668 0.18044764
-0.034045435 0.037149008 0.18219288
-0.034353331 0.033314466 0.18520448
-0.035079051 0.028251035 0.18870899
-0.035733853 0.024800852 0.19008397
-0.036268342 0.021666301 0.19160071
-0.036632352 0.018635849 0.19257247
-0.036767669 0.015285727 0.19333804
-0.036698006 0.011049439 0.19352272
-0.036856238 0.0064702127 0.19243787
-0.035777133 0.001486231 0.19462141
-0.035977889 -0.002134556 0.19832914
-0.038492665 -0.0046108146 0.20443214
-0.039746277 -0.0078527089 0.21102177
-0.041390877 -0.0086866207 0.21526204
-0.042212989 -0.0097175268 0.21797597
-0.04290092 -0.011719367 0.22099668
-0.043498542 -0.015555169 0.22245198
-0.043274004 -0.01934479 0.22456476
-0.04210024 -0.021563135 0.22662462
-0.031962816 0.043634214 0.17754026
-0.031526309 0.042222913 0.17892264
-0.031080607 0.039908156 0.18090937
-0.030842975 0.037674367 0.18302782
-0.030722665 0.033825047 0.18620382
-0.031867459 0.028986173 0.18946862
-0.032590244 0.025619196 0.19086879
-0.033287086 0.021864308 0.19257516
-0.03389319 0.018385869 0.19343485
-0.033913042 0.014907676 0.19431686
-0.034137275 0.010700153 0.19432189
-0.034657989 0.0070518795 0.1940064
-0.033820141 0.00275301 0.19676819
-0.034113638 -0.00027693732 0.20052569
-0.035889357 -0.0027708758 0.20534106
-0.037245952 -0.0061522471 0.21064979
-0.038488422 -0.0077518551 0.21604943
-0.039434135 -0.0093075698 0.21885228
-0.039822895 -0.011849562 0.22091275
-0.040169023 -0.015546064 0.22178032
-0.03999925 -0.019219154 0.22327988
-0.038445063 -0.021547133 0.22544684
-0.028887616 0.043332096 0.17790188
-0.028427955 0.042087354 0.17920545
-0.028217034 0.03987781 0.18104258
-0.027777862 0.03765519 0.18364213
-0.027427148 0.033970583 0.18712504
-0.028174484 0.030026138 0.18981943
-0.029388582 0.026436562 0.19191705
-0.030400654 0.022721013 0.19341564
-0.031079227 0.018408131 0.19482085
-0.030911438 0.014105666 0.19610748
-0.031481545 0.01073579 0.19586432
-0.032027442 0.0083096949 0.19585724
-0.031501941 0.0049596741 0.1989271
-0.031239906 0.0021310656 0.20256503
-0.033000633 -0.0018687538 0.20673281
-0.034320705 -0.004901764 0.21092699
-0.035847116 -0.0068723196 0.21745765
-0.036635518 -0.0093771927 0.21997042
-0.037168968 -0.012339613 0.22145566
-0.037049714 -0.015871316 0.22265385
-0.03643129 -0.019245466 0.22391279
-0.035022434 -0.021429019 0.22604215
-0.025811253 0.043436974 0.17827229
-0.025455786 0.042330485 0.17958869
-0.024946533 0.040025074 0.18114382
-0.024560509 0.037329968 0.18392436
-0.024295017 0.034556475 0.1869211
-0.024898198 0.031262603 0.1895431
-0.025954131 0.027327938 0.19266258
-0.027426371 0.02310865 0.19502811
-0.02781871 0.018232269 0.19712394
-0.027761405 0.013751575 0.19823685
-0.027700877 0.011259193 0.1985102
-0.028817693 0.0096530719 0.19858696
-0.028871117 0.0063804192 0.20215285
-0.029073095 0.0032380738 0.20510468
-0.030374907 -0.0010797876 0.20959267
-0.030613082 -0.0043369252 0.2148255
-0.032453325 -0.0073459907 0.21910958
-0.03350665 -0.010142339 0.22084711
-0.034173422 -0.012670665 0.22209565
-0.033678874 -0.01604406 0.22344714
-0.032263394 -0.018841289 0.22537956
-0.032050483 -0.021539206 0.22690609
-0.031928219 -0.02472253 0.23015006
-0.022423584 0.04422988 0.17855236
-0.021811407 0.042802658 0.18017527
-0.021675112 0.039916608 0.18204586
-0.021388801 0.036990326 0.18405345
-0.021446742 0.034631222 0.18732624
-0.021823701 0.031860705 0.18978408
-0.022259802 0.028888922 0.19233385
-0.023451492 0.025119064 0.19559325
-0.024216222 0.019401832 0.19984993
-0.02463611 0.014498887 0.20128804
-0.024847476 0.011959133 0.20199735
-0.025659904 0.0096445968 0.2021803
-0.026398836 0.0066994186 0.20474303
-0.027098939 0.0035087725 0.20796607
-0.026790803 -0.00029376056 0.21268697
-0.026623426 -0.0038779147 0.21693601
-0.027856482 -0.0076333513 0.2200733
-0.029038291 -0.010667629 0.22167243
-0.029229924 -0.013248349 0.22354318
-0.028721871 -0.016079059 0.2261108
-0.027694466 -0.018782184 0.22695512
-0.02836301 -0.022266656 0.22773769
-0.027983479 -0.025918296 0.23142342
-0.018571185 0.042653464 0.18190624
-0.018536957 0.040402651 0.18380822
-0.01847782 0.037473723 0.18513104
-0.018728243 0.034690708 0.18761209
-0.018941972 0.032131981 0.19000939
-0.01920414 0.029566377 0.19226246
-0.019856865 0.026269859 0.19661328
-0.020370729 0.021701617 0.2005558
-0.020786626 0.016880427 0.20363441
-0.021452518 0.013073902 0.20500351
-0.02217122 0.010452091 0.20585205
-0.023331158 0.0074386634 0.2077049
-0.023632348 0.0041023022 0.21174897
-0.02278181 0.00046700821 0.21571146
-0.022821698 -0.0030565914 0.2184445
-0.023314474 -0.0068569565 0.22143154
-0.02410261 -0.010162852 0.22277535
-0.023405988 -0.013358342 0.22480917
-0.022503216 -0.016168911 0.22735552
-0.022689285 -0.018896503 0.22743106
-0.023355652 -0.022559568 0.22748239
-0.023692127 -0.026655167 0.23186564
-0.015558125 0.040584184 0.18510793
-0.015694495 0.037916414 0.18654622
-0.015849276 0.034708105 0.18848214
-0.01646694 0.031704549 0.19076456
-0.016764076 0.029223295 0.19292405
-0.016770951 0.026101053 0.19739713
-0.017375533 0.022154124 0.20135278
-0.017216105 0.018654812 0.20402671
-0.017553167 0.014601937 0.20625994
-0.01831926 0.011511316 0.20880935
-0.019744432 0.0082353121 0.21095739
-0.019586049 0.0049166884 0.21430802
-0.019025553 0.0013939913 0.2172392
-0.018587034 -0.0021249172 0.22024643
-0.018610876 -0.0055053062 0.22354652
-0.019125417 -0.009164162 0.22449592
-0.018625369 -0.01254871 0.2256421
-0.018497951 -0.016010521 0.22683105
-0.019574789 -0.019657498 0.22791919
-0.019757895 -0.023251439 0.22928481
-0.019888075 -0.026966443 0.23338132
-0.013288761 0.037606239 0.18782111
-0.013569348 0.034110345 0.18974599
-0.013795396 0.031272031 0.19161361
-0.013986797 0.02868185 0.19344388
-0.013660317 0.026002683 0.19678947
-0.014138545 0.022784235 0.20139351
-0.014273703 0.019356513 0.2048437
-0.013993271 0.015836386 0.20807293
-0.014162431 0.012602119 0.2106473
-0.014775702 0.0090816477 0.21308656
-0.014952075 0.005905163 0.21563233
-0.014834744 0.0022411838 0.21842864
-0.014709989 -0.0013599425 0.22194403
-0.015017412 -0.0047191358 0.22449391
-0.014987644 -0.008321139 0.22568911
-0.014794013 -0.012569302 0.226844
-0.014985002 -0.016794721 0.22834274
-0.015639152 -0.020446133 0.23025693
-0.016045747 -0.023803936 0.23233227
-0.015955709 -0.026703883 0.23556927
-0.011198587 0.034119342 0.19013643
-0.010694953 0.031303477 0.19187582
-0.010642003 0.028499648 0.19382907
-0.010307645 0.025852391 0.19685571
-0.010703322 0.023146275 0.20109698
-0.011103646 0.020076476 0.20534322
-0.010518482 0.017031968 0.20837668
-0.010370913 0.013294355 0.21070608
-0.0102279 0.0097926315 0.21325597
-0.010516305 0.0063436511 0.21638316
-0.010827264 0.0027902601 0.21926337
-0.010860698 -0.00092409831 0.22267514
-0.011257867 -0.0041433149 0.22477439
-0.011586898 -0.0078712907 0.22583102
-0.011346028 -0.012056783 0.2267209
-0.011431582 -0.016399944 0.22970428
-0.011533734 -0.019975429 0.23171055
-0.012291829 -0.023914566 0.23497371
-0.013007013 -0.026314586 0.23699692
-0.0073330766 0.031138569 0.19278196
-0.0070838863 0.028632618 0.19531666
-0.0069815321 0.025813164 0.1981934
-0.0073491428 0.023252035 0.20131268
-0.0075314501 0.020633621 0.20531861
-0.0070352932 0.01756856 0.20843881
-0.0066267415 0.013993021 0.21070428
-0.0063567869 0.010332768 0.21292447
-0.0065149111 0.0065120119 0.21666688
-0.0068166237 0.002649745 0.21988481
-0.0069461451 -0.00098178023 0.2228061
-0.0070604952 -0.0043449542 0.22401975
-0.0077894586 -0.0077168406 0.22616148
-0.0078730909 -0.011990363 0.22710672
-0.0078417091 -0.016405726 0.2305422
-0.0083817076 -0.019997673 0.23248641
-0.0091416305 -0.023006726 0.23470053
-0.0047923317 0.030578973 0.19417453
-0.0032526017 0.028602922 0.19631961
-0.0032232618 0.025837602 0.19892195
-0.0038067973 0.023500562 0.20167898
-0.0037026482 0.02082107 0.20486118
-0.0036370249 0.017682599 0.20804882
-0.0029787973 0.013957438 0.21036722
-0.0026301588 0.010656268 0.21269658
-0.0026607432 0.0068832957 0.21599118
-0.0032130638 0.0029249543 0.21913874
-0.0030895541 -0.00080774276 0.22224237
-0.0030926105 -0.0047229752 0.22343317
-0.0038673128 -0.0083747795 0.22600882
-0.0046461094 -0.012326623 0.22746138
-0.0054350398 -0.016120207 0.2304775
-3.5309778e-05 0.027724529 0.19702739
9.5868534e-05 0.025633391 0.198826
-0.00028696205 0.023434632 0.20139463
-0.0004118956 0.020720921 0.20412156
-9.7139986e-05 0.017270798 0.20702009
0.00046817042 0.01384104 0.20968787
0.00091086933 0.010717926 0.21213838
0.001103814 0.0071482975 0.21471436
0.0001448643 0.0033095626 0.21762703
0.00058366574 -0.00068435934 0.22047293
0.00020846201 -0.0046153902 0.22302254
-0.0015820889 -0.007998216 0.22635965
0.0033948987 0.025382865 0.19902125
0.0036028288 0.022959681 0.20125118
0.003300295 0.02021824 0.20349358
0.0032957331 0.016945371 0.2063158
0.004059996 0.013132903 0.20873979
0.0036388487 0.01067334 0.21112134
0 0 0 1 0 0 0 1 0 0 0 1 0 0 0 0 0 346 1 0 0
