ply
format ascii 1.0
comment PCL generated
element vertex 346
property float x
property float y
property float z
element camera 1
property float view_px
property float view_py
property float view_pz
property float x_axisx
property float x_axisy
property float x_axisz
property float y_axisx
property float y_axisy
property float y_axisz
property float z_axisx
property float z_axisy
property float z_axisz
property float focal
property float scalex
property float scaley
property float centerx
property float centery
property int viewportx
property int viewporty
property float k1
property float k2
end_header
-0.059240043 0.027225412 0.18972538
-0.059622139 0.024378236 0.19066109
-0.059847798 0.021656759 0.19172125
-0.05999852 0.018670615 0.19299902
-0.060316663 0.015919089 0.19385
-0.058986038 0.01251779 0.19597717
-0.055679306 0.030237528 0.18677357
-0.056833483 0.027700568 0.18815307
-0.056431692 0.024620984 0.18882117
-0.056477476 0.021775451 0.190277
-0.057043888 0.018856291 0.19170082
-0.057554569 0.015559332 0.19325007
-0.057244904 0.012628867 0.1950824
-0.057058804 0.00970947 0.19699828
-0.056999821 0.0069717513 0.19868703
-0.049179338 0.032427378 0.18296605
-0.050544214 0.030403389 0.18405159
-0.052413113 0.027850315 0.18531415
-0.052822668 0.024706198 0.18711841
-0.052595787 0.021867229 0.18920444
-0.053112507 0.018956508 0.19067836
-0.053534251 0.01577899 0.19218628
-0.054115526 0.012730691 0.19413927
-0.054796204 0.008902288 0.19633284
-0.055681225 0.0051422026 0.19836788
-0.055580527 0.0018429862 0.20098357
-0.055571385 -0.00085832749 0.20327887
-0.045652341 0.03493724 0.18091179
-0.046271332 0.032807585 0.18197642
-0.046942618 0.030524569 0.18332405
-0.047946136 0.0281948 0.18473566
-0.049056791 0.024919806 0.18729015
-0.049043272 0.021901116 0.18949763
-0.049334049 0.018788604 0.19107068
-0.04983224 0.015682446 0.19240122
-0.050988812 0.012583626 0.19397266
-0.052048467 0.0081403712 0.19534035
-0.053025972 0.0034624115 0.19555824
-0.053529549 4.6317815e-05 0.19927588
-0.053060871 -0.0026937544 0.20315681
-0.053079907 -0.0046907025 0.20703071
-0.053614359 -0.0060718358 0.21082784
-0.042634107 0.03803179 0.1798474
-0.043239672 0.035816975 0.1806592
-0.043404575 0.033447515 0.18204166
-0.043863058 0.031108478 0.18366812
-0.044551134 0.028519426 0.18567094
-0.045289502 0.024994103 0.18849732
-0.045352142 0.021785785 0.19037487
-0.045464888 0.018795697 0.1915317
-0.046215832 0.015357309 0.19272271
-0.047743537 0.012519289 0.19366665
-0.048644196 0.0076446566 0.19334048
-0.048842479 0.0024376758 0.19209217
-0.048592273 -0.0021644335 0.19604118
-0.049404338 -0.0032848632 0.20332693
-0.050064418 -0.0051138094 0.20785265
-0.051452633 -0.0068975878 0.21181503
-0.052495133 -0.0090543563 0.21432085
-0.053492554 -0.011346716 0.21803901
-0.04066721 0.03962424 0.17953148
-0.040602822 0.03664529 0.18109591
-0.04084792 0.034021512 0.18256289
-0.041199367 0.03154492 0.18428442
-0.041590266 0.028463034 0.18662427
-0.042093977 0.024614284 0.18935513
-0.042160872 0.021702176 0.19084896
-0.042654872 0.019022729 0.19180666
-0.042866029 0.016019829 0.19277826
-0.043788612 0.012336734 0.19357741
-0.044623896 0.0065343836 0.19153096
-0.042227555 5.7310561e-05 0.19098622
-0.039766241 -0.0049051163 0.19395155
-0.045562554 -0.0045663305 0.20366423
-0.046851989 -0.0055177282 0.20875238
-0.048085075 -0.0065801539 0.21288344
-0.049565535 -0.0087159267 0.21609356
-0.051418748 -0.011451742 0.21957047
-0.051298138 -0.01426028 0.22187795
-0.049846381 -0.016497668 0.22193134
-0.037787892 0.042420592 0.17803437
-0.03789445 0.040768452 0.17945032
-0.037945054 0.037811559 0.18118969
-0.038315423 0.03452383 0.18294352
-0.038392872 0.031977043 0.18523139
-0.038712073 0.027829589 0.18788743
-0.038925417 0.024250692 0.18971343
-0.039314058 0.021506103 0.19119219
-0.039715331 0.018831531 0.1923032
-0.040054161 0.01581273 0.1930732
-0.04054933 0.011986515 0.19347526
-0.040875137 0.0053002867 0.19151171
-0.038869351 7.6153818e-05 0.19318378
-0.038560886 -0.0038659081 0.19699086
-0.042059563 -0.0053279339 0.20434809
-0.043615494 -0.005699079 0.20958692
-0.04512424 -0.0069407499 0.21378015
-0.04651748 -0.0088804653 0.21660441
-0.047458388 -0.010773028 0.21945553
-0.047179349 -0.014216722 0.2216707
-0.047221974 -0.018229034 0.22468857
-0.046063486 -0.020837352 0.22632095
-0.035171147 0.043512534 0.17776187
-0.034829002 0.042008847 0.1792367
-0.034283217 0.039757032 0.18103625
-0.034206897 0.037376869 0.18297134
-0.034742694 0.033227459 0.18582477
-0.035233818 0.02773598 0.18885952
-0.035785627 0.024305265 0.19011125
-0.036340576 0.021298399 0.1916533
-0.036849014 0.018461879 0.19271621
-0.037301928 0.015290446 0.19359069
-0.037692472 0.011106472 0.19380793
-0.037608739 0.0061791018 0.19243501
-0.036977611 0.0014431651 0.19522871
-0.037335712 -0.0017221823 0.19918282
-0.039429944 -0.003779023 0.20493646
-0.040508326 -0.005700944 0.21154504
-0.042188957 -0.0074360385 0.21529493
-0.042971682 -0.0094865011 0.2174136
-0.043251615 -0.012195022 0.21947612
-0.043653641 -0.015637415 0.22106799
-0.043678965 -0.019228596 0.22349599
-0.042472195 -0.021303246 0.22563103
-0.032157026 0.043759637 0.17802469
-0.031722095 0.042336535 0.17950357
-0.031232316 0.0400085 0.18153578
-0.030986121 0.037808482 0.18365781
-0.030977268 0.033901121 0.18692096
-0.032072864 0.028605014 0.18969451
-0.032622702 0.025103591 0.19073848
-0.033174936 0.021325145 0.19218481
-0.034186505 0.018104602 0.19351462
-0.034551244 0.014721593 0.19457889
-0.035191607 0.010462724 0.19458546
-0.035354111 0.0066511133 0.19395065
-0.034829129 0.0027405533 0.19721444
-0.035226021 0.00013634074 0.2011774
-0.036986083 -0.0021436675 0.20586656
-0.038367987 -0.0045406385 0.21136224
-0.039390773 -0.0067437789 0.21632454
-0.04021677 -0.0092832064 0.21829425
-0.040056657 -0.012369119 0.21931086
-0.040361978 -0.01579283 0.22039907
-0.040378671 -0.019316191 0.22230199
-0.038931139 -0.021458309 0.22464842
-0.029112382 0.043421518 0.17855646
-0.028621417 0.042134386 0.17982553
-0.02837145 0.03987734 0.18157937
-0.027878108 0.037595484 0.1841477
-0.027600497 0.033783406 0.18733624
-0.028461954 0.029985897 0.19037279
-0.029498711 0.026087934 0.19202395
-0.030336019 0.022150729 0.19306448
-0.031436648 0.017955249 0.19489309
-0.03181684 0.0137499 0.19653355
-0.032599453 0.010366803 0.19619529
-0.032753211 0.0079362681 0.19579491
-0.032327089 0.0051765493 0.19920149
-0.031996887 0.0025021499 0.20294707
-0.034181852 -0.0011113102 0.20739183
-0.035744663 -0.0036317096 0.21188471
-0.036579255 -0.0065878867 0.21762
-0.037220716 -0.0098673692 0.21893767
-0.037407063 -0.012886302 0.21988784
-0.037318464 -0.016161857 0.22138079
-0.03686149 -0.019414749 0.2229448
-0.03535942 -0.021485094 0.22542061
-0.026044779 0.04350869 0.17891562
-0.025641451 0.042374153 0.18016833
-0.025091777 0.039978433 0.18155339
-0.024662549 0.036995556 0.18394132
-0.024448683 0.034227043 0.18688856
-0.025158634 0.031298392 0.18999906
-0.026231194 0.027428534 0.19323395
-0.027435577 0.02256313 0.19487113
-0.028286431 0.017565491 0.19728696
-0.028935662 0.01343004 0.1988793
-0.0288925 0.011360215 0.19922096
-0.02985632 0.0098578976 0.19906393
-0.029675258 0.0067551173 0.20270254
-0.029778039 0.0035454324 0.2056136
-0.031838313 -1.119787e-05 0.21047443
-0.031772807 -0.003498418 0.21611145
-0.033114549 -0.0077155121 0.21905057
-0.03415405 -0.01094424 0.21998379
-0.034499042 -0.013303692 0.22084586
-0.03409753 -0.016418654 0.22231787
-0.032618351 -0.019111428 0.22470592
-0.031861108 -0.021620689 0.22657512
-0.031266198 -0.024692329 0.23000994
-0.022647616 0.044491835 0.179291
-0.021955926 0.042877477 0.18067336
-0.02178715 0.039730456 0.18211369
-0.02150223 0.036591977 0.18394898
-0.021601306 0.034314543 0.18732932
-0.022060083 0.03184659 0.19009595
-0.022606576 0.029347286 0.19311351
-0.023653284 0.025233546 0.1961257
-0.024732934 0.01845718 0.19983321
-0.025461411 0.014144297 0.20169593
-0.025906729 0.012215137 0.20268239
-0.026663264 0.01011101 0.20298742
-0.027318174 0.007106788 0.20550074
-0.028044792 0.0039358335 0.20873383
-0.027802587 0.00034156084 0.21390085
-0.027469138 -0.0034478654 0.21843928
-0.028731268 -0.0077408515 0.22097905
-0.029660856 -0.011334197 0.22191669
-0.029692473 -0.013876474 0.22345775
-0.028911445 -0.01658804 0.2260033
-0.027338181 -0.018966611 0.2270003
-0.027692627 -0.022237282 0.22773324
-0.027048744 -0.025683796 0.23149461
-0.018605636 0.042401556 0.18200406
-0.018574666 0.040105652 0.18377273
-0.018581659 0.037134629 0.18503316
-0.018896656 0.034410849 0.18764524
-0.019168919 0.032015905 0.19028941
-0.019463893 0.02970748 0.19281979
-0.020090904 0.026550934 0.19719158
-0.020926265 0.021680672 0.20099945
-0.021366952 0.016346971 0.20379271
-0.022159072 0.012727442 0.20529608
-0.022978844 0.010564615 0.2064463
-0.024275227 0.007820026 0.20858711
-0.024485603 0.0044555487 0.21271354
-0.023507791 0.00080766901 0.2169397
-0.023656799 -0.0026913502 0.21994443
-0.024118621 -0.0066321688 0.22276263
-0.024666427 -0.010317857 0.22358635
-0.023717662 -0.013523721 0.22559883
-0.022642743 -0.016061386 0.22825335
-0.022610849 -0.018628208 0.22811222
-0.022913903 -0.022200067 0.22791247
-0.022906965 -0.026107265 0.23204648
-0.015523466 0.040170401 0.18504034
-0.015729938 0.03751361 0.18647926
-0.016042698 0.034549259 0.1887514
-0.016749104 0.031705569 0.19133615
-0.017084228 0.02945528 0.1937111
-0.01706971 0.026671775 0.1982055
-0.018061509 0.022527635 0.20214248
-0.017927883 0.018816559 0.2046929
-0.018122396 0.01419511 0.20655209
-0.018896593 0.01124139 0.20911872
-0.020387294 0.0082900478 0.21158585
-0.020084674 0.0050150831 0.21502838
-0.019645305 0.0016353603 0.21818148
-0.019294474 -0.0016205447 0.22163236
-0.019098205 -0.0049721822 0.22492839
-0.019610608 -0.0087996097 0.22560321
-0.018973466 -0.01230875 0.22654884
-0.018804723 -0.015677657 0.22773507
-0.019714141 -0.019233946 0.22868462
-0.019522972 -0.022718001 0.22979942
-0.019189753 -0.026374726 0.23373498
-0.01336295 0.037232812 0.18791245
-0.013892835 0.034107912 0.19031867
-0.014160573 0.031551763 0.19244798
-0.014321361 0.029183848 0.19448934
-0.013873582 0.026898239 0.19801824
-0.014747306 0.023711111 0.20266725
-0.015117596 0.019788763 0.20585434
-0.014834058 0.015856009 0.20881279
-0.01471759 0.012318344 0.2111325
-0.015010662 0.0087102083 0.21337362
-0.015212993 0.0056704869 0.21594292
-0.015138866 0.0022563126 0.21886128
-0.015070498 -0.0011112484 0.22256376
-0.015370573 -0.0045312615 0.22500847
-0.015320144 -0.0082211308 0.22611982
-0.015105185 -0.01260496 0.22716981
-0.01523863 -0.016753901 0.22865766
-0.015738443 -0.020393195 0.23049751
-0.015838187 -0.023599792 0.23243195
-0.015466692 -0.026396463 0.23547451
-0.011461481 0.034160413 0.19077036
-0.011016223 0.031648356 0.19291991
-0.01105636 0.029253265 0.19528116
-0.010586325 0.027067248 0.19857186
-0.011235567 0.024540121 0.20289409
-0.01197238 0.021039279 0.20674452
-0.011408692 0.017483283 0.20944729
-0.011046669 0.013162536 0.21145812
-0.01060041 0.0093686851 0.21374337
-0.010709917 0.0059956848 0.21658532
-0.010917534 0.0027315996 0.21945252
-0.011055273 -0.00077723927 0.22286938
-0.011561972 -0.0040867045 0.22465269
-0.011849775 -0.0079778163 0.22576922
-0.011715489 -0.012309617 0.22656959
-0.011528002 -0.016651183 0.22931218
-0.011517492 -0.020301931 0.23111632
-0.011957202 -0.024195779 0.23436354
-0.012495272 -0.026470011 0.2365263
-0.0076511707 0.031515226 0.19389744
-0.0074186367 0.029384667 0.19669543
-0.0073438962 0.027016494 0.20004447
-0.0079788063 0.024529051 0.20316537
-0.0083529688 0.021676008 0.20691963
-0.0079135057 0.01786386 0.20939863
-0.0073166192 0.013734915 0.21117428
-0.0068123969 0.0099067027 0.21330498
-0.0067153126 0.0061784852 0.21684641
-0.0069737919 0.0027074232 0.21992114
-0.0070800409 -0.00075322558 0.22280595
-0.0071946373 -0.0041524009 0.22393088
-0.0079008564 -0.0078449221 0.22586389
-0.008220694 -0.01247409 0.22651803
-0.0078857513 -0.016886834 0.22969732
-0.0083224466 -0.020510942 0.23150291
-0.0088944705 -0.023536768 0.23370866
-0.0049800337 0.031024804 0.19534169
-0.0035095406 0.029324083 0.19778293
-0.0037306338 0.026686722 0.20058399
-0.004538157 0.024125626 0.20305955
-0.0045374515 0.021148875 0.20597886
-0.0046359585 0.017578261 0.20866762
-0.0038316087 0.013532477 0.21053346
-0.0032798208 0.010120252 0.21278284
-0.0029886896 0.0064334753 0.21601775
-0.0034104185 0.0029206681 0.21904755
-0.0032212303 -0.00055371877 0.22207658
-0.0032164045 -0.0044871825 0.22323267
-0.0039903745 -0.0083708744 0.22564071
-0.0049130134 -0.012693289 0.22660582
-0.0054972237 -0.01660197 0.22942573
-0.00037858507 0.028506838 0.19887847
-0.00049167359 0.026381752 0.20059945
-0.0010403228 0.023785638 0.20266882
-0.0013134946 0.020784518 0.20506327
-0.0011929433 0.016964108 0.20748067
-0.00052405568 0.013336243 0.20991042
4.3618096e-05 0.010098835 0.21212234
0.00042742502 0.006510396 0.2145562
-0.00019797693 0.0031399808 0.21733536
0.0003922919 -0.00045597862 0.22014256
0.00010993753 -0.0043418556 0.22274414
-0.0016702553 -0.0079171555 0.22595991
0.0028638006 0.025994861 0.20082098
0.0029756275 0.023208931 0.20260003
0.0024555547 0.020185165 0.20443915
0.0022847177 0.016633963 0.20692635
0.0031169956 0.012721371 0.20917797
0.0026420765 0.010095671 0.21121536
0 0 0 1 0 0 0 1 0 0 0 1 0 0 0 0 0 346 1 0 0
