ply
format ascii 1.0
comment PCL generated
element vertex 346
property float x
property float y
property float z
element camera 1
property float view_px
property float view_py
property float view_pz
property float x_axisx
property float x_axisy
property float x_axisz
property float y_axisx
property float y_axisy
property float y_axisz
property float z_axisx
property float z_axisy
property float z_axisz
property float focal
property float scalex
property float scaley
property float centerx
property float centery
property int viewportx
property int viewporty
property float k1
property float k2
end_header
-0.059622891 0.027409369 0.18985599
-0.059958994 0.024634916 0.19094294
-0.060121942 0.021982001 0.19216284
-0.060248815 0.019049849 0.19355136
-0.06057426 0.016305748 0.19450256
-0.058864761 0.013241132 0.19739452
-0.056180034 0.030481286 0.18692864
-0.057316687 0.027912773 0.18830957
-0.056813665 0.024857759 0.18913595
-0.05677722 0.022063607 0.19072497
-0.057286765 0.019229701 0.19235933
-0.057760552 0.016020494 0.19414917
-0.057177294 0.013336055 0.19648819
-0.056798149 0.010455842 0.19843532
-0.056674249 0.0076540876 0.19993672
-0.049363103 0.032574065 0.1833221
-0.050857048 0.03072652 0.18454154
-0.05288763 0.028155034 0.1856751
-0.053236626 0.024978274 0.18750419
-0.052885205 0.022193009 0.18976912
-0.053340811 0.019360915 0.19148566
-0.053679664 0.016312489 0.19334365
-0.054093346 0.013432305 0.19551241
-0.054580469 0.0096351542 0.19766022
-0.05542618 0.005808041 0.19947501
-0.055408236 0.0023969451 0.20184518
-0.055503789 -0.0004036508 0.20393421
-0.045727804 0.034517072 0.18074757
-0.046392802 0.03265598 0.18214378
-0.047195368 0.030642683 0.1837855
-0.048279051 0.028533284 0.18538056
-0.049428973 0.025298228 0.1878006
-0.049218573 0.022250718 0.19017038
-0.049425658 0.019239107 0.19204196
-0.049908768 0.016237946 0.19356257
-0.050966259 0.01324916 0.19516817
-0.05194531 0.0088536907 0.19641915
-0.053004958 0.0041898158 0.19647536
-0.053425767 0.00062027643 0.20001312
-0.052992322 -0.0022838388 0.20366725
-0.053053256 -0.0043758508 0.20745087
-0.053653248 -0.0057293191 0.21126048
-0.04251951 0.037160132 0.17900883
-0.043252856 0.035226598 0.18027398
-0.04350666 0.033098374 0.18195538
-0.044025235 0.030997446 0.18388459
-0.044726625 0.028619342 0.1860957
-0.045389723 0.024942437 0.18862136
-0.045419585 0.021823658 0.19065112
-0.045537405 0.018973092 0.19203122
-0.046295501 0.015715128 0.19350834
-0.047800682 0.013076667 0.19457115
-0.048839722 0.0083291838 0.19393431
-0.049248524 0.0031626455 0.19229558
-0.048662819 -0.0015920269 0.19618854
-0.049356401 -0.0029532341 0.20378135
-0.05005483 -0.0048529785 0.20826723
-0.051507652 -0.0065716803 0.21223848
-0.05259477 -0.0086541427 0.21476386
-0.053669363 -0.010801781 0.21853611
-0.040431719 0.038576797 0.17828499
-0.04052978 0.035921112 0.18039623
-0.040895082 0.033569284 0.18223166
-0.041299857 0.031311642 0.18422334
-0.041692689 0.028276408 0.18660362
-0.042172026 0.024293052 0.18907182
-0.042247031 0.021517241 0.1907862
-0.042759091 0.018984484 0.19194955
-0.042997323 0.016078653 0.19307901
-0.043853238 0.012630293 0.19404835
-0.044961199 0.0070907092 0.19140528
-0.042487692 0.00050987216 0.19056483
-0.04014381 -0.0045881737 0.19364038
-0.045645107 -0.0044119144 0.20399985
-0.046935733 -0.0053134109 0.20912704
-0.048158176 -0.0062540667 0.21331738
-0.049692024 -0.0082567129 0.21656671
-0.051690105 -0.010858052 0.22015169
-0.05159473 -0.013505668 0.22256313
-0.050319109 -0.015595108 0.22290502
-0.037642658 0.041332066 0.1766492
-0.037730429 0.039740622 0.17810696
-0.037728049 0.036919463 0.18006413
-0.03832186 0.033939775 0.18240806
-0.038414348 0.031587657 0.18492381
-0.038805932 0.027429614 0.18759595
-0.039053809 0.023954738 0.18953253
-0.039447602 0.02131651 0.19111922
-0.03984376 0.018739447 0.19235572
-0.04009416 0.015772734 0.19318153
-0.040410701 0.011967422 0.1933616
-0.040932991 0.0056996401 0.19106908
-0.039069481 0.00038741608 0.1928139
-0.038965628 -0.0036174487 0.19674093
-0.042298492 -0.0052657365 0.20457676
-0.043771159 -0.0055692387 0.20987096
-0.04522144 -0.0066912505 0.21415757
-0.046683893 -0.0082929032 0.21715042
-0.04767397 -0.0099853948 0.22014181
-0.047699727 -0.013208409 0.22274017
-0.048196442 -0.016694635 0.22633316
-0.047261432 -0.019025501 0.22838257
-0.035074662 0.042535435 0.17646438
-0.034704894 0.041082624 0.17791039
-0.034039326 0.0386419 0.1792715
-0.033868045 0.036134046 0.18098378
-0.034646969 0.032363664 0.18476094
-0.03537849 0.027438393 0.18895431
-0.036013864 0.024132473 0.19019504
-0.036577307 0.021218529 0.19181702
-0.037012935 0.018493928 0.19282785
-0.037269041 0.015297097 0.19364077
-0.037424508 0.011112845 0.19345236
-0.037597198 0.0064497548 0.19209163
-0.037155766 0.0016629847 0.19490416
-0.037636105 -0.0015754559 0.19901049
-0.039696973 -0.0036060291 0.20501877
-0.040586423 -0.0057041249 0.21172594
-0.042313222 -0.0071593393 0.21571797
-0.043158833 -0.0088140285 0.21814187
-0.043716915 -0.011379058 0.22060509
-0.044427294 -0.014777713 0.22259308
-0.044758186 -0.017963542 0.22547154
-0.043782737 -0.019774513 0.22788309
-0.032107744 0.042954307 0.17678903
-0.031636164 0.041519172 0.17812291
-0.031050593 0.039062101 0.17991464
-0.0307527 0.036721487 0.18186867
-0.030863278 0.033065937 0.18580428
-0.032074034 0.028249277 0.18963417
-0.03270838 0.024851415 0.19076771
-0.03348197 0.02144959 0.19259398
-0.034255337 0.018130582 0.19361834
-0.034445293 0.014715659 0.19444117
-0.034852952 0.010461367 0.19404277
-0.03532026 0.0067918524 0.19362202
-0.034911435 0.0027669198 0.196934
-0.035347141 8.8907524e-05 0.20103018
-0.037155624 -0.0020809416 0.20582002
-0.038512379 -0.0046533635 0.21140274
-0.039417867 -0.0065446934 0.21652387
-0.040382355 -0.0086472807 0.21898621
-0.040587254 -0.011760034 0.22055915
-0.041191816 -0.015234363 0.22201695
-0.041436482 -0.018425489 0.22436699
-0.040205728 -0.020346317 0.22698653
-0.029116159 0.042908229 0.17744553
-0.028566921 0.041574955 0.17863169
-0.028192719 0.039211079 0.1801856
-0.027685521 0.036756888 0.18264468
-0.027431224 0.033260871 0.18631038
-0.028293421 0.029523415 0.18979333
-0.029302049 0.025608804 0.19158877
-0.030380111 0.021998182 0.19303498
-0.031370733 0.017975472 0.1948313
-0.031451065 0.013635202 0.19603318
-0.032082658 0.010207499 0.19546519
-0.032480396 0.0078413272 0.19538049
-0.032110915 0.0050262017 0.19888555
-0.031862687 0.0023515869 0.20266183
-0.034260191 -0.0012595002 0.20724072
-0.035857022 -0.0038960169 0.21177164
-0.036567748 -0.0065948893 0.21764719
-0.037492201 -0.0094476109 0.21965604
-0.0380008 -0.012465602 0.22115614
-0.038158111 -0.015621135 0.22307104
-0.037993103 -0.018666619 0.22509946
-0.03643373 -0.020606847 0.22769949
-0.026083872 0.043260988 0.17804871
-0.025634481 0.042053841 0.17923632
-0.024951225 0.039603826 0.18045184
-0.024431283 0.036667462 0.18302917
-0.024291147 0.033996895 0.18613614
-0.025007406 0.030930979 0.18921588
-0.025841225 0.026802383 0.19229561
-0.027154902 0.022172647 0.19427629
-0.027963806 0.017396256 0.19683295
-0.028394492 0.013170482 0.19824682
-0.028455235 0.011190944 0.1988356
-0.029426636 0.0096758083 0.19872557
-0.029462045 0.0066260723 0.20254417
-0.02961305 0.0033291252 0.20537473
-0.031747293 -0.00041854006 0.21024022
-0.031776965 -0.0040354677 0.215746
-0.033267904 -0.0079167159 0.21909213
-0.034578118 -0.010723917 0.2207751
-0.035108596 -0.012982083 0.22218768
-0.035009217 -0.01595553 0.22411728
-0.033559684 -0.01850763 0.2267253
-0.032155909 -0.02116677 0.2280468
-0.030757925 -0.024313126 0.23105024
-0.022730062 0.044424348 0.17869382
-0.021891633 0.042679604 0.18006775
-0.021551671 0.039569672 0.18159103
-0.021256894 0.036595527 0.18353799
-0.021506201 0.03425055 0.18682528
-0.021965241 0.031662554 0.18952243
-0.022411035 0.028837096 0.19230804
-0.023014424 0.024266703 0.19465339
-0.024161236 0.017529164 0.19827105
-0.025200043 0.013745681 0.2011863
-0.02577796 0.0120537 0.20264456
-0.026546 0.010022222 0.20305158
-0.027180212 0.0069140955 0.20545477
-0.027788466 0.0035030809 0.20849234
-0.027624547 -0.0001872088 0.2134365
-0.027446173 -0.0039425632 0.21796457
-0.028911605 -0.0080330726 0.22091885
-0.030095952 -0.011269781 0.22265144
-0.030096756 -0.013688444 0.22452094
-0.02896283 -0.016419636 0.2269181
-0.027041961 -0.018845014 0.22736989
-0.027367329 -0.022015167 0.22817728
-0.026189893 -0.025397381 0.23169984
-0.0185518 0.042392191 0.18185733
-0.0185741 0.040190686 0.18371335
-0.01851766 0.037325867 0.18497913
-0.018864332 0.034518361 0.18736707
-0.019144459 0.032072581 0.18999712
-0.019298907 0.029599499 0.19231884
-0.019762224 0.025790676 0.19611692
-0.020356404 0.020558374 0.19908251
-0.021144282 0.015717305 0.20259294
-0.022154355 0.012475373 0.20496278
-0.02292151 0.010409941 0.20636618
-0.024096221 0.0075045051 0.20849016
-0.024162339 0.0039513423 0.21223101
-0.023277365 0.00034427529 0.21616535
-0.023462944 -0.00319666 0.21913661
-0.024061028 -0.0071361549 0.22207037
-0.024800116 -0.010622175 0.22342497
-0.023662647 -0.013746493 0.22530538
-0.022218781 -0.016194966 0.22724263
-0.022246813 -0.018656822 0.22711623
-0.022504134 -0.02212828 0.22719036
-0.022075888 -0.02589252 0.2314398
-0.015657088 0.040479001 0.18526362
-0.015857752 0.037832137 0.18671089
-0.016109753 0.034813713 0.18875015
-0.016813304 0.031988241 0.19132037
-0.017015254 0.029508719 0.19347483
-0.016923074 0.026152669 0.19730982
-0.017646223 0.021469761 0.20028688
-0.017641393 0.018065305 0.20316586
-0.018095465 0.014001068 0.2058215
-0.018945938 0.011240985 0.20883895
-0.020176476 0.0080064069 0.21123095
-0.019809794 0.0046202359 0.21437015
-0.019329123 0.0011239703 0.21727169
-0.018927583 -0.0022953101 0.22030236
-0.018700423 -0.0057884259 0.22323966
-0.019305218 -0.0094007822 0.224068
-0.018758209 -0.012544774 0.22500694
-0.018525276 -0.015812052 0.2260493
-0.019315278 -0.019273482 0.22717682
-0.019027144 -0.022609791 0.22852524
-0.018368982 -0.026171377 0.23262839
-0.013501249 0.037588146 0.18810712
-0.013946385 0.034483738 0.19040273
-0.014254549 0.031924974 0.19255073
-0.014324036 0.029444549 0.19447127
-0.013802521 0.026528295 0.19719574
-0.014560246 0.022594426 0.20098674
-0.014939545 0.019061508 0.2043601
-0.014921894 0.015774082 0.20798644
-0.014835866 0.01233968 0.21077923
-0.014834242 0.0085912254 0.21303922
-0.014940036 0.0054340535 0.21544173
-0.014856736 0.0019261036 0.21815938
-0.014789873 -0.0016328275 0.22139484
-0.015069868 -0.0050869598 0.22351976
-0.01503355 -0.0086055715 0.22454672
-0.014967762 -0.012685216 0.22564161
-0.015120685 -0.016679134 0.22728127
-0.015616357 -0.020236205 0.22922908
-0.015564285 -0.023365894 0.23125207
-0.015015705 -0.026093911 0.23437551
-0.011322312 0.034366779 0.19061103
-0.010961227 0.031834923 0.19278553
-0.011029084 0.029155836 0.19487812
-0.0105254 0.0264668 0.19756678
-0.011226345 0.023357956 0.20133622
-0.011955158 0.020147752 0.20519286
-0.011485269 0.017137773 0.2084496
-0.01105924 0.013026583 0.21111511
-0.010461905 0.0093280887 0.21364327
-0.010513645 0.0060040993 0.21644133
-0.010723947 0.0025953199 0.21913278
-0.010886413 -0.0010802576 0.22218719
-0.011339937 -0.0043762117 0.22363268
-0.011617312 -0.0081691016 0.22454444
-0.011555151 -0.012314212 0.22543152
-0.011525421 -0.016414316 0.22849427
-0.011559641 -0.019935971 0.23049851
-0.011957287 -0.023723943 0.23369262
-0.012366851 -0.026007166 0.23577699
-0.0075841742 0.031507056 0.19364995
-0.0073924661 0.0290739 0.19620623
-0.0073101348 0.026193587 0.19898695
-0.0080990586 0.023395816 0.20162818
-0.0085486881 0.020655036 0.20541477
-0.0080440938 0.017271332 0.20840876
-0.0073005296 0.013628021 0.21094592
-0.0066922535 0.0099823344 0.21337678
-0.0065597733 0.0063738883 0.2170027
-0.0068567935 0.0026816328 0.2198181
-0.0069656107 -0.00093600299 0.22245578
-0.0070625003 -0.0043222834 0.22345893
-0.0077492716 -0.0079516983 0.22513606
-0.0080963494 -0.012381734 0.22578898
-0.0079009812 -0.016596803 0.22930863
-0.0084173875 -0.020044578 0.23120308
-0.0090120332 -0.023022106 0.23344991
-0.0049648695 0.030865971 0.19501714
-0.0034603316 0.028774766 0.19706176
-0.0037297062 0.025688309 0.19923471
-0.0046732333 0.02311492 0.20161277
-0.0046576676 0.02035002 0.20477946
-0.0047581755 0.017189885 0.20795751
-0.0038072655 0.013598246 0.21049587
-0.0031397867 0.010361652 0.21303433
-0.0028400198 0.0067973151 0.21639158
-0.0032423153 0.0030684583 0.21909858
-0.0031069298 -0.00066684978 0.22185569
-0.0030931339 -0.0046371515 0.22289428
-0.0038988744 -0.0085215773 0.22518784
-0.0048541967 -0.01268004 0.22618374
-0.0055287131 -0.016347758 0.22921626
-0.0003357605 0.027627343 0.19766468
-0.00056211744 0.025305536 0.19902822
-0.0011841787 0.022830516 0.20125191
-0.0014047456 0.02011445 0.2040567
-0.0012402575 0.01673116 0.20711906
-0.00038518757 0.01353669 0.21010302
0.0002301838 0.010512324 0.21259664
0.00062419992 0.0070667332 0.21523462
-8.046095e-06 0.003482213 0.21767874
0.00053129415 -0.00047233701 0.22002937
0.00023023393 -0.0044978098 0.22246316
-0.0015954372 -0.0081061097 0.22556095
0.0026625416 0.025083393 0.19938968
0.0027395193 0.022543071 0.20152293
0.0023187518 0.019736813 0.20372237
0.0023451548 0.016630037 0.20687898
0.0033733372 0.013140772 0.20973562
0.0028950775 0.010637327 0.21190262
0 0 0 1 0 0 0 1 0 0 0 1 0 0 0 0 0 346 1 0 0
