ply
format ascii 1.0
comment PCL generated
element vertex 346
property float x
property float y
property float z
element camera 1
property float view_px
property float view_py
property float view_pz
property float x_axisx
property float x_axisy
property float x_axisz
property float y_axisx
property float y_axisy
property float y_axisz
property float z_axisx
property float z_axisy
property float z_axisz
property float focal
property float scalex
property float scaley
property float centerx
property float centery
property int viewportx
property int viewporty
property float k1
property float k2
end_header
-0.059701685 0.026363004 0.19045907
-0.06009227 0.023568647 0.19132783
-0.060302649 0.020906197 0.19235258
-0.060472082 0.018017707 0.19369967
-0.060818251 0.015299167 0.19473575
-0.059518449 0.012151989 0.19739416
-0.056344178 0.029241811 0.18729837
-0.057522528 0.026862744 0.18893997
-0.057057671 0.023740569 0.18955524
-0.056994285 0.020943666 0.19095905
-0.057527222 0.018161772 0.19242153
-0.058047909 0.014923085 0.19418895
-0.057808563 0.012231128 0.19651304
-0.057636227 0.0097258482 0.19863021
-0.057583962 0.0070483983 0.2005734
-0.049047567 0.030213842 0.18173167
-0.05064708 0.028688103 0.18342569
-0.053224184 0.02675356 0.18575324
-0.053564359 0.023732256 0.18774155
-0.053081717 0.020938713 0.18977715
-0.053557802 0.01821564 0.19145602
-0.054033834 0.015157942 0.19332524
-0.054772064 0.012313941 0.19574168
-0.055466756 0.0088581536 0.19828571
-0.056303795 0.0052252738 0.20028175
-0.056177624 0.0019750469 0.20254412
-0.056161471 -0.00075151521 0.20456173
-0.045252785 0.03238301 0.17908441
-0.045812242 0.030483108 0.18048987
-0.046702106 0.02844497 0.18232177
-0.048083287 0.026550235 0.18432234
-0.049594343 0.023724478 0.18766131
-0.049379192 0.020895641 0.19016674
-0.049804784 0.018112646 0.19228277
-0.050469209 0.015206092 0.19405007
-0.051738746 0.01233605 0.19578257
-0.052771717 0.0079965545 0.19753841
-0.053748451 0.003351985 0.19781935
-0.054239631 0.00018496689 0.20087421
-0.053737 -0.0025788408 0.20419493
-0.053618263 -0.0045823087 0.2078688
-0.054046009 -0.0057970267 0.21155307
-0.042273197 0.035657994 0.17773579
-0.042826701 0.03342576 0.17876509
-0.043051019 0.031165527 0.18047287
-0.043592043 0.029123623 0.18256149
-0.044414267 0.026969366 0.18504664
-0.045408797 0.023609882 0.18868253
-0.045689687 0.020877123 0.19128622
-0.046085618 0.018224576 0.19309941
-0.047014374 0.015121518 0.19491383
-0.048570767 0.012343341 0.19590899
-0.049511589 0.0074091791 0.19572712
-0.050105292 0.0020368833 0.19490452
-0.049855843 -0.0022235415 0.19834186
-0.050094306 -0.0033473638 0.20405716
-0.050591227 -0.005132711 0.20847291
-0.051883899 -0.0066283317 0.21241966
-0.052980818 -0.0085973348 0.21504976
-0.054043651 -0.010605337 0.21888791
-0.040459301 0.037630264 0.17753552
-0.040289611 0.034421753 0.17913863
-0.040559195 0.031892482 0.18095869
-0.041043505 0.029792 0.18318036
-0.041590646 0.027205115 0.18629198
-0.042348113 0.023312878 0.18951817
-0.042612292 0.020777987 0.19161782
-0.043366682 0.018452534 0.19322874
-0.043926332 0.016059017 0.19499956
-0.045009036 0.012697379 0.19659474
-0.046590175 0.0063958163 0.19447191
-0.045075905 0.00062940543 0.19396244
-0.042231936 -0.0039381534 0.19636875
-0.04625985 -0.0048688133 0.20431027
-0.047405921 -0.0055979635 0.20924516
-0.048471209 -0.0063538407 0.21329591
-0.050041821 -0.0082554948 0.21669653
-0.052081347 -0.010700564 0.22044477
-0.051846858 -0.013413522 0.2228536
-0.05005265 -0.016241224 0.22249265
-0.037885752 0.041001942 0.17674537
-0.03793418 0.039237466 0.17796749
-0.037766814 0.036031585 0.17934582
-0.038169537 0.032626875 0.18143934
-0.038435869 0.030533133 0.18430859
-0.039072774 0.026759023 0.18804225
-0.039389398 0.023228412 0.19040087
-0.040016517 0.020773215 0.19231677
-0.040827952 0.018538669 0.19401938
-0.04182015 0.016306117 0.1959224
-0.04294515 0.013194251 0.19734669
-0.044298716 0.0058930768 0.19469181
-0.041953787 0.0010926204 0.19596957
-0.04104742 -0.0028900302 0.19929191
-0.042837381 -0.0054149791 0.20528142
-0.044239618 -0.0056907772 0.21015616
-0.045545354 -0.0067965272 0.21388997
-0.046751533 -0.0084225144 0.21690102
-0.047676332 -0.010085586 0.21999861
-0.04739571 -0.013637636 0.22233358
-0.047870751 -0.017097594 0.22554246
-0.046587933 -0.019852772 0.22743611
-0.035359755 0.042442154 0.17654569
-0.034904767 0.041130371 0.17807901
-0.034055088 0.038904291 0.17954722
-0.033809748 0.036386345 0.18131725
-0.03483294 0.032017175 0.1849584
-0.035912842 0.026695887 0.18960612
-0.03647222 0.023596503 0.19130024
-0.037397958 0.020964859 0.19346221
-0.038443793 0.018754769 0.19538818
-0.039575484 0.016213369 0.19737403
-0.041108701 0.012480058 0.19834754
-0.041617516 0.0073416699 0.1959275
-0.040097333 0.0025734745 0.19799894
-0.039770495 -0.0008407929 0.20142721
-0.040905666 -0.0033767668 0.20656545
-0.041052386 -0.0055026365 0.21191329
-0.042513009 -0.0072102393 0.21507128
-0.043190088 -0.009185994 0.21717902
-0.043626849 -0.011939125 0.21958658
-0.044202454 -0.015339411 0.22170028
-0.044329777 -0.018709473 0.22437699
-0.043103501 -0.020744797 0.22645253
-0.032333378 0.043247584 0.17694262
-0.031719852 0.041944817 0.17863117
-0.031078819 0.039499912 0.18041556
-0.030728946 0.037146155 0.1824041
-0.031068571 0.032903418 0.18605201
-0.032712281 0.027738353 0.19019762
-0.033231203 0.024579197 0.1918139
-0.034358822 0.021274095 0.19426119
-0.036187533 0.018486034 0.1968255
-0.037201539 0.01554813 0.19869713
-0.038987406 0.0116554 0.19922678
-0.039332978 0.0078943726 0.19753988
-0.0378673 0.0039157481 0.20000316
-0.037376765 0.00079140131 0.20323579
-0.038501315 -0.0017946782 0.20753802
-0.03924226 -0.0042530904 0.21216235
-0.039973408 -0.0063681621 0.21641655
-0.04077065 -0.0090450775 0.21815737
-0.040705595 -0.012384303 0.21927798
-0.041081138 -0.015767979 0.22077918
-0.041160677 -0.01907932 0.22293401
-0.039671704 -0.021231487 0.22519386
-0.029226262 0.043296412 0.17789137
-0.028685486 0.041952938 0.17913444
-0.028202748 0.039573241 0.18072443
-0.027692802 0.037142254 0.18325442
-0.027530747 0.033333886 0.18652454
-0.028872918 0.029456213 0.19030756
-0.029992133 0.02565809 0.19262135
-0.031204874 0.02205129 0.19474471
-0.033641763 0.018256281 0.19840321
-0.034711607 0.014333339 0.20080556
-0.036264893 0.011216972 0.20045455
-0.036501471 0.0092528295 0.19962786
-0.034974795 0.0060208915 0.20191897
-0.033845589 0.0028122838 0.20492418
-0.035502434 -0.0010155683 0.20885964
-0.036781408 -0.0035740659 0.21308126
-0.037333999 -0.0061159767 0.21788692
-0.037918482 -0.0096033094 0.21897931
-0.038010404 -0.012937212 0.21982598
-0.038025457 -0.016203789 0.22142667
-0.037659995 -0.019388914 0.22324367
-0.035821509 -0.021445019 0.22575232
-0.026130864 0.043511435 0.17838939
-0.025637217 0.042301837 0.17960003
-0.025002435 0.039869938 0.18088414
-0.024534274 0.036897842 0.18331085
-0.024353102 0.03405853 0.18624365
-0.025278617 0.031124836 0.18963553
-0.026513645 0.027299916 0.1932743
-0.028119067 0.022622963 0.19614427
-0.030355942 0.017360251 0.20051987
-0.031258561 0.013585867 0.20247701
-0.030995259 0.011694887 0.20255062
-0.032248415 0.010308824 0.20214985
-0.031143036 0.0068997894 0.20484696
-0.030893229 0.003361963 0.20721096
-0.032779798 -0.00037878568 0.21170963
-0.032272916 -0.0040462385 0.21627943
-0.033654127 -0.0077310666 0.2187071
-0.034729421 -0.010843111 0.21983895
-0.035110466 -0.013406898 0.22076412
-0.034792632 -0.016582683 0.22223669
-0.033149213 -0.019274643 0.22447449
-0.031607557 -0.021333935 0.22649325
-0.030425265 -0.023911992 0.23038617
-0.022665147 0.044422112 0.17864564
-0.021883085 0.042653367 0.1799016
-0.021636507 0.039538268 0.18143985
-0.02140669 0.036584858 0.1834338
-0.021611795 0.034180202 0.18679045
-0.022058874 0.031776469 0.18976185
-0.02259367 0.029397972 0.19305599
-0.023574069 0.025464991 0.19648811
-0.024961064 0.017528767 0.20209371
-0.026067939 0.013605713 0.20423178
-0.026578065 0.011955033 0.20513904
-0.027615929 0.010012385 0.20529917
-0.02805963 0.0066883489 0.20733577
-0.028561939 0.00302643 0.20997141
-0.027915236 -0.00099442026 0.21375293
-0.02748213 -0.0047003631 0.21765587
-0.028893698 -0.0087674074 0.22003469
-0.029992145 -0.011755818 0.22144204
-0.030065367 -0.013981991 0.22331424
-0.029097231 -0.016445205 0.22597256
-0.026929948 -0.018616781 0.22726405
-0.02686231 -0.021668302 0.22821587
-0.025948755 -0.02464479 0.23208503
-0.018506518 0.042102765 0.18110062
-0.018475505 0.039890695 0.1829979
-0.018523563 0.037122168 0.18444912
-0.018987624 0.034297511 0.18718155
-0.019267932 0.031955894 0.18999182
-0.019382851 0.029693842 0.19275443
-0.019711319 0.02695857 0.19765772
-0.020145111 0.021570224 0.20214415
-0.020505048 0.016065015 0.20586681
-0.021806739 0.011926435 0.20741931
-0.022940129 0.00951399 0.20802759
-0.024523068 0.0064958534 0.20978686
-0.024276914 0.0023882878 0.21240206
-0.023013998 -0.0011670749 0.21559575
-0.023510128 -0.0042186896 0.21894215
-0.024065033 -0.0079842061 0.22173865
-0.024709098 -0.011046862 0.22312695
-0.023917105 -0.013688493 0.22592805
-0.022453384 -0.015960503 0.22854201
-0.022285342 -0.018319307 0.22842687
-0.022136902 -0.021685349 0.22853617
-0.021767357 -0.025079945 0.23249997
-0.015448873 0.040056646 0.18428753
-0.015685992 0.037429579 0.18579961
-0.016142368 0.034260008 0.18833029
-0.016845303 0.031492211 0.19110098
-0.017016346 0.029343279 0.19370303
-0.016731091 0.026927605 0.19863309
-0.017258313 0.022316867 0.20276783
-0.016709587 0.018513137 0.20555618
-0.016804107 0.014132855 0.20821147
-0.018063037 0.010311367 0.21002038
-0.020132378 0.0062236083 0.21120408
-0.019732494 0.00296259 0.2139779
-0.019367348 -0.00010521891 0.21726641
-0.019165775 -0.0029855499 0.22107072
-0.019162459 -0.0061810412 0.22450911
-0.019609438 -0.0095052253 0.2254477
-0.019110594 -0.012386143 0.22716731
-0.018920779 -0.015774423 0.22853264
-0.019451568 -0.019026048 0.22923933
-0.01885082 -0.022157211 0.23020977
-0.018069642 -0.0253463 0.23410921
-0.01335596 0.037031844 0.18721527
-0.013903807 0.033719741 0.18984798
-0.014157541 0.031161103 0.19204411
-0.014229678 0.028920582 0.1944003
-0.013691422 0.026788862 0.19816394
-0.014125261 0.023316981 0.20278376
-0.013877436 0.019442901 0.20613122
-0.013273252 0.015885103 0.20956035
-0.013662087 0.012203516 0.2115804
-0.014646973 0.0076396172 0.21305861
-0.01518413 0.0044470159 0.21577527
-0.015325047 0.0012904496 0.21900709
-0.015313315 -0.002017223 0.22281083
-0.015586641 -0.0052236076 0.22517462
-0.015469439 -0.0085158516 0.22654811
-0.015434585 -0.012541411 0.22832382
-0.015426283 -0.016741978 0.22997406
-0.015768541 -0.020292906 0.23151422
-0.015571788 -0.023052862 0.23314691
-0.01510788 -0.025451208 0.2359595
-0.01132734 0.033909 0.19026263
-0.010855304 0.031228393 0.192471
-0.010793906 0.02871304 0.19490016
-0.010404986 0.02648041 0.19835851
-0.010863733 0.023869248 0.2025281
-0.011119737 0.020457733 0.20629849
-0.010430374 0.017321358 0.20941959
-0.010525586 0.013325752 0.211742
-0.010443879 0.0092791757 0.21409751
-0.010848606 0.0055181491 0.21710292
-0.011255903 0.0021371499 0.22009978
-0.011373697 -0.0014323259 0.22338611
-0.011761699 -0.004493753 0.22525524
-0.012057242 -0.008155887 0.22650369
-0.012065516 -0.01222663 0.22807588
-0.011795837 -0.016327754 0.23104274
-0.01168071 -0.01991652 0.2327408
-0.012074579 -0.023514608 0.23564427
-0.012537706 -0.025661144 0.23770261
-0.00732926 0.031116582 0.19360434
-0.0070804106 0.028970066 0.1966148
-0.0070460606 0.026336927 0.19984911
-0.0077221678 0.023820275 0.20280224
-0.0082872193 0.021120528 0.20658508
-0.0077709081 0.017781474 0.20960633
-0.0070850779 0.014254612 0.21187402
-0.0065972018 0.010287455 0.21398818
-0.0068056537 0.0060693938 0.21756707
-0.0072598225 0.0022394725 0.2206309
-0.0072854883 -0.0013040643 0.22335346
-0.0073059844 -0.0046011247 0.22451392
-0.0081781903 -0.0079671312 0.22675103
-0.0085577099 -0.012362833 0.22827123
-0.0080758044 -0.016594434 0.23155773
-0.0084630316 -0.020066319 0.23329216
-0.009024282 -0.022941681 0.23547013
-0.004610463 0.030762717 0.19550474
-0.0031239684 0.029097013 0.19836909
-0.0035309538 0.026315093 0.20105495
-0.0044508344 0.023708843 0.20326775
-0.0045118537 0.020834317 0.20628986
-0.0046031466 0.017795324 0.20947246
-0.003637423 0.014211941 0.21180946
-0.0030156274 0.010727146 0.21397483
-0.0029044133 0.0066838586 0.21693955
-0.0035403741 0.0027359379 0.21974985
-0.0033804842 -0.00095479639 0.22271571
-0.0032707788 -0.0048583723 0.22394554
-0.0041754399 -0.008631574 0.22660984
-0.0050735353 -0.012668186 0.22828211
-0.0055491501 -0.016287148 0.23118968
-0.00010313248 0.028234068 0.19973475
-0.00036981102 0.026022794 0.20114599
-0.00096306799 0.023468401 0.203113
-0.0012284684 0.020555474 0.20569372
-0.0010250349 0.017255953 0.20884728
-9.0474321e-05 0.013955006 0.21160917
0.00049212342 0.010724961 0.21373801
0.00077421643 0.006968277 0.21590817
-0.00015659857 0.0032065331 0.21832801
0.00036620029 -0.00067020865 0.22090384
0.00015696515 -0.0046600173 0.22360145
-0.0018155394 -0.0082396995 0.22683494
0.0030853304 0.025483275 0.20125213
0.0032041217 0.022778479 0.20308368
0.0026517299 0.01999123 0.20529518
0.0026844114 0.016924243 0.20855623
0.0038061282 0.013160183 0.21105692
0.0032528581 0.01067299 0.21302201
0 0 0 1 0 0 0 1 0 0 0 1 0 0 0 0 0 346 1 0 0
