ply
format ascii 1.0
comment Automatically gnerated by model-converter
element vertex 764
property float x
property float y
property float z
element face 0
property list uchar int vertex_indices
end_header
-0.029383155 0.018216097 0.08834418
-0.029882466 0.016874249 0.089936666
-0.029989667 0.015311274 0.090441104
-0.030119353 0.013684167 0.090811629
-0.030408198 0.012079687 0.091599878
-0.030910919 0.010757638 0.092717934
-0.031304151 0.0094972439 0.093754024
-0.031698594 0.0082933298 0.094655283
-0.032568568 0.0072779942 0.096385665
-0.033620083 0.006494968 0.099137466
-0.034862568 0.0048852179 0.10206375
-0.03533169 0.0030647966 0.1030488
-0.035463829 0.0012501838 0.10315636
-0.03550758 -0.00061002813 0.10339239
-0.035699299 -0.0026690032 0.10397159
-0.036173813 -0.0049410069 0.10527
-0.03698736 -0.0074037728 0.10789808
-0.028411749 0.018413316 0.08955912
-0.02868551 0.017078768 0.090794783
-0.028770128 0.01547198 0.091133878
-0.028895832 0.013826092 0.091459133
-0.029253866 0.012263825 0.092322029
-0.029698166 0.010899017 0.093359549
-0.030193529 0.0097341459 0.094719861
-0.030789731 0.0085776471 0.095896993
-0.031480342 0.0075378695 0.097628414
-0.032452014 0.0065676046 0.10011341
-0.033472689 0.0047450455 0.10263522
-0.03392048 0.0029319342 0.10379376
-0.034076724 0.0011538671 0.10399414
-0.034213904 -0.00079107409 0.10448876
-0.034489503 -0.0029312671 0.10527389
-0.034901382 -0.0052391775 0.10647396
-0.035458929 -0.0075380832 0.10806416
-0.026656872 0.018387846 0.088484525
-0.027137941 0.017192436 0.090387769
-0.027495742 0.015506524 0.0916541
-0.027618799 0.013885717 0.092146583
-0.027961046 0.012489862 0.093045943
-0.028287952 0.01106107 0.093941257
-0.028719757 0.0097378888 0.095155112
-0.029327317 0.0086456081 0.096398179
-0.030154161 0.0076806616 0.098704149
-0.031004318 0.0065158906 0.10100911
-0.031835856 0.0046738917 0.10301351
-0.032412929 0.0027307347 0.1045098
-0.032604809 0.00091205867 0.10529199
-0.032790592 -0.0010478842 0.10573537
-0.033149108 -0.0030156164 0.10662016
-0.033514518 -0.0054108959 0.10779897
-0.033803312 -0.0075673587 0.10882363
-0.025006117 0.018408052 0.087925803
-0.025575667 0.017283124 0.090021786
-0.026210777 0.015729236 0.092202846
-0.026346548 0.014051128 0.092953201
-0.026875554 0.01280747 0.094403803
-0.027119428 0.011300622 0.095073406
-0.027419869 0.0098505496 0.095918063
-0.027885364 0.0086657605 0.097142335
-0.028634707 0.007635117 0.099222705
-0.029440699 0.0064513669 0.10191149
-0.030178346 0.0046865362 0.10344657
-0.030681548 0.0027487202 0.10478698
-0.031062216 0.0006813391 0.10618027
-0.031312823 -0.0012673803 0.10701597
-0.031579886 -0.0030807598 0.10766518
-0.031998806 -0.0050327575 0.10865914
-0.032239063 -0.0072838955 0.10975359
-0.02348523 0.018428939 0.087862846
-0.024111135 0.017367276 0.090168651
-0.024815129 0.015964159 0.092321429
-0.024866431 0.01444805 0.093369857
-0.025309245 0.012840864 0.094587367
-0.025534561 0.011327442 0.09536188
-0.026043229 0.009890141 0.096737485
-0.026500104 0.0087992195 0.098205026
-0.027053214 0.0074890326 0.099532396
-0.027673467 0.0062218937 0.10197057
-0.02831583 0.0046440459 0.10319622
-0.028688545 0.0026703143 0.10458164
-0.029446464 0.00066986445 0.10649612
-0.029676075 -0.0013607143 0.10770919
-0.029985033 -0.003228939 0.10856644
-0.030286276 -0.0050474443 0.10943146
-0.030451802 -0.0069637382 0.1102975
-0.02188432 0.018379758 0.08749437
-0.022711293 0.017301923 0.090315781
-0.023169115 0.016034056 0.092338323
-0.023303322 0.014659232 0.093229044
-0.023592827 0.012963668 0.094462696
-0.023894694 0.011302865 0.095547881
-0.024543538 0.0099374293 0.097272121
-0.025001456 0.0085679688 0.098398138
-0.025378823 0.007283858 0.099728253
-0.02585406 0.0059315017 0.10137079
-0.026197223 0.0042869048 0.10263954
-0.026841052 0.002528641 0.10433323
-0.027480404 0.0004465766 0.10629421
-0.027888785 -0.0013962721 0.10787603
-0.028112663 -0.0033551486 0.1087304
-0.02823703 -0.0052136372 0.10953675
-0.028417503 -0.0070803101 0.11036752
-0.020214256 0.018211021 0.087041158
-0.021103741 0.017302149 0.09009115
-0.021485392 0.01610669 0.092119991
-0.021733022 0.014728825 0.093402475
-0.021999328 0.013255146 0.094567682
-0.022357668 0.01144561 0.095848433
-0.023020127 0.0099608563 0.097580243
-0.023311614 0.0085674706 0.098606427
-0.023589998 0.0071620028 0.099692091
-0.023906808 0.0057588813 0.10098399
-0.024207491 0.0041450557 0.10208194
-0.024716234 0.0023732218 0.10397291
-0.02551711 0.00042074606 0.10608373
-0.026045948 -0.0014582828 0.10780148
-0.026271628 -0.0033049373 0.1088376
-0.026280076 -0.0051899627 0.10969421
-0.026685383 -0.0068892485 0.11017924
-0.018848133 0.01801898 0.087220542
-0.019469807 0.017276821 0.089785606
-0.019872334 0.016120872 0.092031017
-0.020094363 0.014745092 0.093288731
-0.020422574 0.0133222 0.094812162
-0.020683024 0.01162974 0.095858731
-0.021246727 0.010001555 0.097481169
-0.021560152 0.0085013625 0.09863934
-0.021834527 0.0069390943 0.099560238
-0.02214499 0.005588341 0.100781
-0.022367186 0.0039437189 0.10162457
-0.022767294 0.0023222324 0.10337789
-0.023343602 0.00046814436 0.10543021
-0.024046337 -0.0014025344 0.10730898
-0.024341515 -0.0031941432 0.10842689
-0.02442869 -0.005121345 0.10931964
-0.024361799 -0.0069664452 0.11005582
-0.017288072 0.018039562 0.086954191
-0.017708636 0.017124954 0.089261193
-0.018110655 0.016121199 0.091556288
-0.018416903 0.014774325 0.093292642
-0.018764407 0.0133174 0.094859205
-0.018951532 0.011572435 0.09574455
-0.019388117 0.009932241 0.097123667
-0.01984284 0.0085291201 0.098804783
-0.020103959 0.0070048512 0.099738098
-0.020316167 0.0054388633 0.10049743
-0.020538085 0.0038802923 0.10138011
-0.020785653 0.0023077999 0.10286783
-0.021080211 0.00058914785 0.10431681
-0.021602113 -0.0013785552 0.10584337
-0.022104164 -0.0032486833 0.10736659
-0.022469615 -0.005004766 0.10825109
-0.022391253 -0.0068724709 0.10904626
-0.022248067 -0.0088908677 0.10977175
-0.015734374 0.017927527 0.086142357
-0.016095615 0.017018948 0.088581033
-0.016303997 0.016064517 0.090680447
-0.016670743 0.014733832 0.092772745
-0.017003184 0.013222042 0.094594366
-0.017146305 0.011572375 0.095743548
-0.017610162 0.0098717795 0.096968428
-0.018111708 0.008564842 0.098763171
-0.01834766 0.0070124594 0.099662531
-0.018460862 0.0053954162 0.10026539
-0.018705046 0.0038613008 0.10115095
-0.018838703 0.0023056396 0.10219193
-0.019103876 0.00054884999 0.10355521
-0.019428265 -0.0013205862 0.10456362
-0.019681495 -0.0032363953 0.10557307
-0.020015517 -0.0051365518 0.10650518
-0.020147148 -0.0070957583 0.10735256
-0.020348073 -0.0089751427 0.1085844
-0.020625796 -0.010931112 0.11036493
-0.014161726 0.017937254 0.085483737
-0.01451361 0.016919799 0.087808535
-0.014678928 0.015772207 0.089839153
-0.014894545 0.014621326 0.092350557
-0.015101789 0.013070441 0.09415818
-0.015176436 0.011464596 0.095556647
-0.01575686 0.0098669678 0.096977193
-0.016319686 0.0084709698 0.098661535
-0.01651657 0.0069890714 0.099610456
-0.016658842 0.0054454398 0.10016848
-0.016792728 0.0038935283 0.10072596
-0.01693874 0.0022553823 0.10152673
-0.017195388 0.00052978899 0.10264114
-0.017285255 -0.0012860356 0.10308043
-0.017404898 -0.0031484459 0.10367527
-0.017462006 -0.0049088264 0.10454489
-0.017823896 -0.0070016871 0.10585248
-0.017984234 -0.0089400066 0.10711735
-0.018308178 -0.010948434 0.10912527
-0.018420503 -0.012511553 0.11084322
-0.012645194 0.01797686 0.085052736
-0.012996572 0.016840554 0.087492779
-0.013069091 0.015659394 0.089183551
-0.013109502 0.014517391 0.091773857
-0.013246754 0.013052885 0.093548622
-0.013148757 0.011559139 0.095072676
-0.012859072 0.010109893 0.096571472
-0.013381384 0.0085906485 0.098213672
-0.014621324 0.0070529114 0.099269226
-0.014556922 0.0056239988 0.099865284
-0.014827849 0.0039459055 0.10047291
-0.014944775 0.0021851732 0.10079106
-0.015121219 0.00047355086 0.10141679
-0.015202293 -0.0012302262 0.10206599
-0.015227056 -0.0030519095 0.1023853
-0.015343909 -0.004837682 0.10320479
-0.015620267 -0.006801443 0.10447462
-0.015814917 -0.0087211612 0.10581299
-0.016129214 -0.010695484 0.10779134
-0.016509897 -0.012757634 0.11049659
-0.011206283 0.017907117 0.084674854
-0.011393402 0.016756218 0.086617329
-0.011500081 0.015511198 0.08860686
-0.011407911 0.014295007 0.09059339
-0.011338278 0.013126535 0.092839346
-0.011108677 0.011666777 0.093780995
-0.010704905 0.010290549 0.094964523
-0.010205898 0.0089673595 0.096346557
-0.0097195212 0.00762238 0.097773664
-0.012484178 0.0055912742 0.098983236
-0.012957366 0.0038277338 0.099852335
-0.013130039 0.0021298353 0.10040076
-0.013213574 0.00037939987 0.10068785
-0.013288501 -0.0013819119 0.10101899
-0.013461942 -0.0031411804 0.10159737
-0.013496035 -0.004871615 0.10252297
-0.013602981 -0.0067136441 0.10341578
-0.0137778 -0.0085245632 0.1047496
-0.014090926 -0.0105419 0.10676644
-0.014428371 -0.012567847 0.10940772
-0.009791981 0.017799406 0.08411435
-0.0099169668 0.01670785 0.086245414
-0.010080003 0.015367085 0.087956805
-0.010012279 0.014059724 0.089667648
-0.009623494 0.013008762 0.091422447
-0.0093195089 0.011731637 0.092635226
-0.0088522039 0.010380423 0.093525596
-0.0083603305 0.0089780921 0.094389901
-0.0076611742 0.0076858827 0.095418394
-0.0075692094 0.0061365236 0.096731525
-0.0091801682 0.004201517 0.098899282
-0.011024751 0.0021532558 0.099569224
-0.011371599 0.00034539629 0.10006376
-0.011556899 -0.0014212334 0.10025347
-0.011635408 -0.0032042544 0.10091013
-0.011708305 -0.0049507111 0.10216278
-0.011774209 -0.0066291752 0.10312705
-0.011790008 -0.0084217363 0.10402238
-0.012011809 -0.010330112 0.10599372
-0.012344042 -0.012472684 0.10844545
-0.0083415718 0.017771947 0.0839286
-0.0084752329 0.016649806 0.085722331
-0.008720655 0.015305358 0.087133788
-0.0086011244 0.013975832 0.088761509
-0.0081784353 0.012870068 0.090264212
-0.0078400168 0.011546849 0.090767391
-0.0074252372 0.010230884 0.091394957
-0.0071950494 0.0087980898 0.092025407
-0.0068403314 0.0072915358 0.093054991
-0.0067553625 0.0057894024 0.094110056
-0.0071226312 0.0040504436 0.095790211
-0.0078329833 0.002234468 0.097567671
-0.0087143196 0.00044028877 0.099013645
-0.0093591097 -0.0013822435 0.09952522
-0.0098350309 -0.0032480123 0.10040425
-0.0098397891 -0.0048191035 0.10174069
-0.0098607778 -0.0064988981 0.10260273
-0.0099341832 -0.0082748252 0.10386069
-0.010181568 -0.010255467 0.1056447
-0.010344645 -0.012368462 0.10766214
-0.0105928 -0.014361334 0.11062868
-0.0069587524 0.017741428 0.083501491
-0.0069925424 0.016630649 0.08495605
-0.0071854308 0.015285351 0.086406492
-0.0072516189 0.013846369 0.087581992
-0.0071062434 0.01256262 0.088693253
-0.0065362614 0.01150473 0.089667104
-0.00646256 0.0097851418 0.089157991
-0.0062566756 0.0082223458 0.08982642
-0.0060677559 0.006823025 0.091055699
-0.0059715798 0.0052908729 0.092171371
-0.0059994938 0.0036175936 0.093509607
-0.0063597539 0.0019071038 0.095151514
-0.0070899436 9.8358096e-05 0.097113318
-0.0074980401 -0.0016957494 0.098733723
-0.0078654429 -0.003318935 0.10025545
-0.0079452363 -0.0048317772 0.10147767
-0.0080500613 -0.0065035091 0.10234926
-0.0081196921 -0.008175916 0.103662
-0.0083029429 -0.010355128 0.10531375
-0.0084816585 -0.012407132 0.10725753
-0.0086937258 -0.014603469 0.11054638
-0.0055118353 0.017773152 0.082815747
-0.0055352568 0.016601967 0.084216825
-0.0056823737 0.015252394 0.085523281
-0.0058227258 0.013849843 0.086472284
-0.0059569138 0.012376614 0.087248299
-0.0060686634 0.010937005 0.087209378
-0.0058762921 0.0095480038 0.087379235
-0.0058154543 0.0079094814 0.087671026
-0.0057286309 0.0062875317 0.088493932
-0.0054414445 0.0047940626 0.089958251
-0.0050428421 0.0029354928 0.091437563
-0.00522779 0.0013658085 0.092968535
-0.0054296414 -0.00030188288 0.095058035
-0.0057470047 -0.0018875924 0.098066702
-0.0061182813 -0.0035238048 0.099867251
-0.0062229896 -0.0049753275 0.10116487
-0.0062910446 -0.0066439677 0.10204335
-0.0062970472 -0.0082708541 0.10349234
-0.0064387049 -0.010365907 0.10510157
-0.0065728435 -0.012377723 0.10725105
-0.0067686003 -0.014644812 0.1104818
-0.0040493333 0.01659723 0.083451025
-0.0042740151 0.015268254 0.085041049
-0.0043804767 0.014037589 0.086207848
-0.0045156818 0.012515061 0.086970244
-0.0045257067 0.011001568 0.086914163
-0.0046080725 0.0094049969 0.086585283
-0.005047082 0.007717615 0.086155199
-0.0049849676 0.0060482915 0.086445607
-0.004770271 0.0043973019 0.087411176
-0.003733869 0.0024620456 0.090139967
-0.003775187 0.00070356281 0.091347084
-0.0039392321 -0.00088285105 0.093342423
-0.0040806278 -0.0021299445 0.097580761
-0.0043789181 -0.0036960749 0.099367417
-0.0044729602 -0.0051200274 0.1004941
-0.0045337512 -0.0066492702 0.10178744
-0.0045566591 -0.0083541265 0.10328361
-0.0045988159 -0.010342348 0.1051073
-0.0047121294 -0.012410488 0.10750554
-0.0048051891 -0.014683529 0.11053472
-0.0021797006 0.016754366 0.083121762
-0.0025565362 0.015614624 0.08524663
-0.0028996816 0.01416503 0.086506005
-0.0029868913 0.012635907 0.087007024
-0.0030072041 0.011079451 0.087196216
-0.003063776 0.0094114891 0.086627595
-0.0033089897 0.0074938347 0.085908577
-0.0033445701 0.0058424827 0.085763786
-0.0030999564 0.0042734093 0.086760741
-0.0013395812 0.0014778675 0.089509614
-0.0015399322 2.8266082e-05 0.090832248
-0.0017909252 -0.0014758631 0.092456725
-0.0023911228 -0.0022672665 0.096983887
-0.0026271737 -0.0036873461 0.099321418
-0.0026764721 -0.0051692345 0.10056835
-0.002735966 -0.0067102747 0.10169644
-0.0028014102 -0.0083327727 0.10334998
-0.0028120691 -0.010261045 0.10500296
-0.0028056426 -0.012434639 0.10744689
-0.002954675 -0.014798469 0.11017792
-0.00078018458 0.016730473 0.083361595
-0.0010982667 0.015531554 0.085291471
-0.0013372235 0.014142676 0.086884726
-0.0014824586 0.012667559 0.087343544
-0.0015208239 0.011111931 0.087612841
-0.0014954143 0.0095253158 0.087551099
-0.0013735094 0.007378652 0.086602851
-0.0014918127 0.0058399932 0.086228602
0.00031187889 0.0032546958 0.087679196
0.00075390962 0.0013394528 0.089496222
0.00043459964 1.2661186e-05 0.091261886
0.00020612143 -0.0013403403 0.093113947
-0.0006576103 -0.0023411245 0.096767772
-0.00088805956 -0.0036643044 0.099261403
-0.00093469509 -0.005154947 0.10071218
-0.00094597968 -0.0067347167 0.10205424
-0.0010357626 -0.0084345997 0.10334842
-0.0010479747 -0.010319573 0.10557949
-0.0010353323 -0.012646158 0.10782157
-0.00093138535 -0.015075313 0.1104495
0.00064119749 0.016708728 0.083494868
0.00034984232 0.015483845 0.085520041
0.00021224209 0.014150403 0.086967379
2.2312153e-05 0.012620549 0.08788386
-4.8603074e-06 0.010983389 0.088170256
0.00039524217 0.0090246536 0.088381231
0.00085579085 0.0072085278 0.088554233
0.0015872326 0.0051453912 0.088647574
0.0020934943 0.0032748863 0.08987315
0.0020214188 0.0017404842 0.091037843
0.002059901 0.00029331007 0.092214715
0.0016286886 -0.0011189066 0.094093926
0.0010694846 -0.0022291364 0.097120605
0.00084646183 -0.0037157488 0.099136564
0.00078842125 -0.0051778375 0.10075441
0.00076187061 -0.0067836015 0.10207011
0.00074729536 -0.0085739503 0.10318342
0.00077307957 -0.010426407 0.10553962
0.00085211513 -0.01266101 0.10775991
0.0009539279 -0.015102942 0.11026888
0.0020291577 0.016687807 0.083710681
0.0017988529 0.015469394 0.085722011
0.0016673908 0.01412857 0.087320615
0.00155113 0.012597799 0.088441689
0.0015664617 0.01080299 0.088820211
0.0020391001 0.0088210618 0.08928461
0.0023237557 0.0070484935 0.090224552
0.00286207 0.0053025892 0.09062114
0.0030847669 0.0038219128 0.091607656
0.0032484522 0.0022796146 0.092571951
0.0032437301 0.00083245995 0.093699824
0.0029599915 -0.00076542754 0.095291372
0.0027129153 -0.0020806046 0.097980574
0.0026341684 -0.0036407214 0.099413473
0.0025981069 -0.0052547755 0.10056994
0.0024909916 -0.0068358627 0.10209829
0.0025408864 -0.0086547882 0.10312167
0.0026518736 -0.010510922 0.10532912
0.0027628128 -0.012722296 0.10761595
0.0028533554 -0.015127351 0.1099889
0.0034402689 0.016644674 0.083792619
0.0032363669 0.01540139 0.085707873
0.0030928696 0.014042087 0.087694403
0.003005456 0.012522868 0.088553868
0.0031080939 0.010872672 0.089071915
0.0034918912 0.0090496275 0.089693352
0.0036589061 0.0073365725 0.090947181
0.0039810697 0.0058364048 0.091935664
0.0041572624 0.0044139144 0.092786833
0.0042563134 0.0028710515 0.093776692
0.0043489295 0.0013716043 0.094937417
0.004175267 -0.00027176289 0.096788608
0.0042795828 -0.0019120039 0.098792754
0.0043115071 -0.0035177982 0.10003801
0.0042842708 -0.0052002254 0.10103899
0.0042999529 -0.0068606711 0.10221478
0.0043288677 -0.0086965817 0.10332032
0.0043973909 -0.010675386 0.10544803
0.0046320923 -0.012896499 0.1076872
0.0048469107 -0.015139897 0.11025531
0.0048156209 0.016598951 0.084179684
0.0046156656 0.015477823 0.085976656
0.0045017781 0.014106524 0.087658859
0.0044998459 0.012638023 0.088420261
0.0045536861 0.011076762 0.089383226
0.0049072041 0.0093974802 0.090274629
0.0050770097 0.007843269 0.091322124
0.0051376312 0.006419396 0.092822179
0.0054049948 0.0048846186 0.093836609
0.0054732694 0.0034252549 0.094961281
0.0053340385 0.00188778 0.096608482
0.0055142914 0.00012231295 0.098355934
0.0059606421 -0.0017550214 0.099678039
0.0060071377 -0.0033680325 0.10070514
0.0061009721 -0.0051509436 0.10151447
0.0060706756 -0.0068761075 0.10258773
0.0060952703 -0.0086775674 0.10383926
0.0061964232 -0.010951171 0.10538105
0.0065364954 -0.01326569 0.10772345
0.0060755114 0.016480863 0.084786516
0.0060733077 0.015501247 0.086145959
0.006002235 0.014119232 0.08746665
0.0059964976 0.012657199 0.088151556
0.0060066294 0.011194578 0.089385189
0.0063885618 0.0097716567 0.090297889
0.0065953753 0.0083040069 0.091679994
0.0065745343 0.006889645 0.093245547
0.0067000855 0.0054124394 0.094641812
0.0069192781 0.003544687 0.096263666
0.0069246578 0.0020947355 0.098103848
0.007408838 0.00019170338 0.099600412
0.0076911941 -0.0016297488 0.10035148
0.0077681432 -0.0033648376 0.10131343
0.0078509352 -0.0050957324 0.10231084
0.007845711 -0.006895751 0.10333506
0.0079411547 -0.0089654201 0.10422592
0.0081625776 -0.011356144 0.10583134
0.0084430347 -0.013810241 0.10765314
0.0087055294 -0.015904947 0.10923479
0.0074514981 0.017309926 0.083524708
0.0075216461 0.016503777 0.085039984
0.0075021228 0.015498109 0.086409144
0.0074750332 0.014151922 0.08766824
0.0074337521 0.012672263 0.088158585
0.0074842143 0.011095798 0.089415591
0.0076827016 0.0097381994 0.090374082
0.0080214985 0.008580349 0.0916011
0.0078946888 0.0073386468 0.094153397
0.008361232 0.0054607205 0.095145993
0.0085449326 0.0036443505 0.096762657
0.0086962813 0.0020548006 0.098979704
0.0090124663 0.00029121463 0.10019994
0.0093098706 -0.0015416259 0.10106331
0.0094716888 -0.0032610048 0.10212588
0.0095466576 -0.0050941585 0.10284468
0.0097133876 -0.0070783903 0.1038805
0.0098889461 -0.0092135509 0.10484509
0.010110182 -0.011712482 0.10607326
0.010295453 -0.014344941 0.10724513
0.0088441907 0.017327874 0.083613202
0.0089255049 0.016435855 0.085120283
0.0089367451 0.015389443 0.086427018
0.0089044562 0.014089196 0.087702338
0.0089707575 0.012569925 0.088477451
0.0090385504 0.011066726 0.089540065
0.0091055245 0.0096290135 0.090338186
0.0092633157 0.008143608 0.091373793
0.0096467943 0.0073401853 0.094394966
0.010094843 0.0053431773 0.095241536
0.010284858 0.0037568832 0.09770197
0.010403195 0.0021553752 0.099427797
0.010603583 0.00043618865 0.10036517
0.01082702 -0.0012612784 0.10161856
0.011144169 -0.0031095561 0.10273947
0.011304887 -0.0050386181 0.10333678
0.011536062 -0.0070491177 0.10456646
0.011752855 -0.0092507684 0.10556805
0.011993941 -0.012030294 0.10662091
0.012138189 -0.014649036 0.10763919
0.010213858 0.017381828 0.08370611
0.010288093 0.016497377 0.084894885
0.010235141 0.015402433 0.086185519
0.01036247 0.014069721 0.087377504
0.010467869 0.012660628 0.088203087
0.010560566 0.011185186 0.089396529
0.010613313 0.0097719064 0.090396013
0.010698666 0.0083662788 0.091407429
0.011326623 0.0069896602 0.093936123
0.011658945 0.0052676056 0.095710944
0.011879379 0.0038401935 0.097997874
0.012146001 0.002215844 0.099658664
0.012416661 0.0005403398 0.10063955
0.012589467 -0.0012047309 0.10175289
0.012863524 -0.0029983071 0.10288514
0.01311886 -0.0048764176 0.10388854
0.013363596 -0.0069405129 0.10525633
0.013565436 -0.0096317656 0.10651926
0.013869754 -0.012406181 0.10750163
0.014038479 -0.014627154 0.10827507
0.011649899 0.017701299 0.084378135
0.011710433 0.016628711 0.08513686
0.011627562 0.015475198 0.086277474
0.011843746 0.014089451 0.087478016
0.011982831 0.012672101 0.088174768
0.012019015 0.011261867 0.089247194
0.01209627 0.0098721371 0.090232663
0.01217041 0.0084245196 0.091235433
0.012364884 0.0071698434 0.09374113
0.013177134 0.0051905841 0.095867582
0.013557686 0.0037110753 0.097906955
0.01388404 0.0022188219 0.099810324
0.014150723 0.00066485093 0.10094192
0.014400785 -0.0010480031 0.10166944
0.01466316 -0.0028743014 0.10314393
0.014871177 -0.0047960777 0.10416821
0.015171479 -0.0070186351 0.10623583
0.015494035 -0.010218881 0.10774011
0.015862745 -0.012626592 0.1089743
0.013039537 0.017751205 0.084445559
0.013082394 0.016768755 0.085485187
0.013103995 0.015528834 0.086307093
0.013339841 0.014088856 0.087810028
0.013469684 0.012691581 0.08845799
0.013488522 0.011335042 0.089414939
0.01357334 0.0099518644 0.090323213
0.013692074 0.0085249753 0.091397829
0.013850853 0.0071307163 0.093253531
0.014700342 0.0050812813 0.095796872
0.015370238 0.0036988636 0.098375387
0.015726157 0.0021949848 0.099872332
0.016050983 0.00055165182 0.10124765
0.016130731 -0.0010924151 0.10189729
0.016437673 -0.0028513547 0.10345315
0.016826251 -0.0048854646 0.10524342
0.017213227 -0.0073291075 0.10754952
0.017589741 -0.010134549 0.1093326
0.014556408 0.01790839 0.084883969
0.014642627 0.016899927 0.085884958
0.014695551 0.015683385 0.086809956
0.014859701 0.014219149 0.087671962
0.014967048 0.012859955 0.088675212
0.015069808 0.01143574 0.089744799
0.015131531 0.0099848109 0.090687797
0.015250553 0.0085936538 0.092222087
0.015664817 0.0072190143 0.093946919
0.016169646 0.0053298608 0.095747046
0.017019548 0.0036992525 0.098489799
0.017434277 0.0021644092 0.099915385
0.017782218 0.00055455544 0.10125293
0.018023702 -0.0010815548 0.10233704
0.018329582 -0.0029437004 0.1038993
0.018888311 -0.0050811993 0.10634731
0.019619273 -0.0076876274 0.10966714
0.016147936 0.018208436 0.085701987
0.016224888 0.017080049 0.086557161
0.016266803 0.015751859 0.08733796
0.016438185 0.014417415 0.08819414
0.016546234 0.012998758 0.088974621
0.016684179 0.011563442 0.090322055
0.016670497 0.010052703 0.091162351
0.016963644 0.0086237616 0.092524178
0.017489179 0.0071467818 0.094665408
0.017774115 0.005485584 0.095846441
0.018629127 0.003812386 0.098376826
0.019139678 0.0022161858 0.099728897
0.019582818 0.00065703568 0.10131366
0.020054074 -0.0011674957 0.1029504
0.020479896 -0.0031603431 0.10487429
0.021117825 -0.0053930881 0.10770847
0.021915691 -0.0075648059 0.11071778
0.017739993 0.018392611 0.086449005
0.017827112 0.017191893 0.087209143
0.01784371 0.015835828 0.087755732
0.018022466 0.014535869 0.088780702
0.018174575 0.013106073 0.089615174
0.018484293 0.011612235 0.090541787
0.018332994 0.010071487 0.091287036
0.018482655 0.0085609909 0.092400267
0.019218409 0.0070878276 0.095139764
0.019585627 0.0055279431 0.096410018
0.020619409 0.0038746613 0.09892251
0.021059393 0.002259539 0.10030363
0.021557982 0.00052608774 0.10176201
0.022095629 -0.0015421068 0.10357115
0.022972998 -0.0035937178 0.10623913
0.023416317 -0.0055062285 0.10903667
0.019201762 0.018426676 0.086513683
0.019445824 0.017215197 0.087538969
0.019554756 0.01589002 0.088242616
0.019743203 0.014538274 0.089048516
0.019896284 0.012984163 0.089583665
0.020105113 0.011445268 0.090442016
0.020001523 0.0099567857 0.091325634
0.020135841 0.0085141565 0.092503402
0.020891389 0.0070340967 0.095254086
0.021329049 0.0055650279 0.096580763
0.022443322 0.0038388231 0.09905779
0.022908027 0.00217945 0.10059463
0.023537585 0.00027162773 0.10222508
0.024299404 -0.0017292957 0.10438621
0.025076537 -0.0035667184 0.10718866
0.025843296 -0.005594048 0.11043653
0.020660251 0.018346495 0.086433959
0.021019928 0.017147945 0.087586555
0.021357545 0.015769671 0.08838249
0.021462011 0.014414906 0.089235127
0.021485623 0.012932882 0.089571167
0.02164791 0.011401687 0.090253551
0.021590604 0.0098609421 0.09112737
0.021903061 0.0084373914 0.092918154
0.022415736 0.006938112 0.094844792
0.02303336 0.0054068486 0.096137516
0.024172941 0.0037939785 0.098892853
0.025149035 0.0020016609 0.10170654
0.025602359 0.00010552034 0.10293701
0.026329536 -0.0016543891 0.10506526
0.027314458 -0.0035808693 0.10870869
0.022305782 0.018259851 0.086677417
0.022570929 0.016995284 0.087463871
0.02290159 0.015686604 0.088346705
0.023042571 0.01430553 0.089020152
0.023059382 0.012855188 0.089433771
0.023274989 0.011403594 0.090320297
0.024039024 0.0099458084 0.092097521
0.024118368 0.0084502529 0.093501635
0.024422809 0.0067356248 0.094721753
0.025629947 0.0053648587 0.09735915
0.026492857 0.0038192056 0.099795156
0.027608219 0.0018188259 0.10287494
0.028023493 0.0002591568 0.10456951
0.02855158 -0.001552618 0.10653243
0.029547742 -0.0035992048 0.11013754
0.023874647 0.018131688 0.086665981
0.024204318 0.016929175 0.087617174
0.024453667 0.01559097 0.088395495
0.024565837 0.01420176 0.088864978
0.024659469 0.012792523 0.089434918
0.02503251 0.011446629 0.090401147
0.025638867 0.010077864 0.091661379
0.025874094 0.0086259921 0.092606492
0.026272988 0.007032335 0.094316583
0.027556903 0.0055010833 0.097531561
0.028706644 0.0037305205 0.10104169
0.030004095 0.0019808961 0.1040962
0.030427239 0.00028116545 0.10612482
0.030834643 -0.0014139556 0.10810231
0.031685753 -0.0033775103 0.11077385
0.025332119 0.018039052 0.086375084
0.025736266 0.016823984 0.087531012
0.026001051 0.015486767 0.088384509
0.026112267 0.014141581 0.088829108
0.026212334 0.01269761 0.089329366
0.026626033 0.011367578 0.08984885
0.026932811 0.010070872 0.090698913
0.02727684 0.0086677782 0.091848608
0.027655552 0.0071001446 0.093212906
0.029133007 0.0055994675 0.097060367
0.031076996 0.0037318799 0.10234498
0.032112815 0.0020235716 0.105266
0.032463576 0.00031473506 0.10679922
0.033054009 -0.0013011617 0.10902534
0.026878104 0.017950573 0.086492963
0.027231741 0.016778991 0.087478351
0.027563277 0.01547336 0.088176295
0.027836487 0.014190932 0.088987079
0.028073444 0.012762064 0.089293472
0.028206944 0.011376606 0.089695841
0.028388956 0.010041324 0.09039108
0.028772212 0.008670643 0.091738585
0.030102996 0.0074260516 0.095049713
0.030840269 0.0056654413 0.09725238
0.033511274 0.0035692968 0.10360164
0.034275841 0.0021192589 0.10648056
0.034782203 0.00044332382 0.10829248
0.035421574 -0.001256182 0.11050406
0.02801595 0.017803566 0.085589577
0.028711851 0.016788103 0.087382097
0.029106354 0.0155399 0.088194672
0.029379395 0.014180438 0.088678412
0.029535358 0.01272946 0.088999484
0.029671864 0.011345443 0.089520689
0.029789759 0.0099951262 0.090111118
0.030360692 0.0087083443 0.091950044
0.031636302 0.007443883 0.094923821
0.032242403 0.0057232482 0.09654022
0.036353007 0.0035887839 0.10621454
0.036923726 0.0018349186 0.10796943
0.03717744 9.4058058e-05 0.10935297
0.038032848 -0.0019941327 0.11079103
0.028918801 0.017543602 0.084099181
0.029862941 0.016684865 0.086427051
0.030379259 0.015405775 0.087563075
0.030778421 0.014129856 0.088405009
0.030960197 0.012681345 0.088751606
0.0311536 0.011319586 0.089401658
0.031534778 0.010013051 0.09057698
0.031864997 0.0087253949 0.091589708
0.032798298 0.0072958236 0.093838387
0.034887661 0.0052089644 0.098580502
0.038979638 0.0032517508 0.10694731
0.039395831 0.0015423242 0.10866425
0.039903756 -0.00048958024 0.10990394
0.040193733 -0.0021662101 0.11090217
0.030751305 0.016392638 0.084890533
0.031483238 0.015200569 0.086399052
0.032033836 0.013930392 0.087406031
0.032311246 0.01254309 0.088259917
0.032560628 0.011146922 0.089063794
0.032998404 0.0097934845 0.090358391
0.033448339 0.0084685539 0.091698904
0.034355746 0.0070324438 0.093937024
0.03906936 0.0043783226 0.10264453
0.040915709 0.00295358 0.10696568
0.041580554 0.0011968104 0.10888147
0.041938414 -0.00081204682 0.10988051
0.04256402 -0.002520501 0.11082102
0.03243863 0.0150549 0.084559131
0.033073537 0.013763741 0.085840843
0.033734936 0.012482809 0.087857675
0.034142321 0.011002289 0.088921249
0.034464821 0.0096289278 0.09005069
0.034934689 0.0083339289 0.091394622
0.036973882 0.0065435076 0.095954027
0.041138058 0.0041588272 0.10324503
0.042602679 0.0028036764 0.10662568
0.043272422 0.0010595408 0.10816816
0.04374568 -0.0009749738 0.10932426
0.043914057 -0.0028756771 0.10986802
