ply
format ascii 1.0
comment Automatically gnerated by model-converter
element vertex 764
property float x
property float y
property float z
element face 0
property list uchar int vertex_indices
end_header
-0.0294067 0.018486583 0.088445393
-0.029912292 0.017098884 0.090001548
-0.030043565 0.015521728 0.090503022
-0.030198204 0.013879479 0.090855874
-0.030489985 0.01225562 0.091616591
-0.030983487 0.010903122 0.092700553
-0.031356717 0.0095969026 0.093712168
-0.03172225 0.0083386619 0.094568971
-0.032567027 0.0071715722 0.096187465
-0.033685355 0.0063019923 0.099013346
-0.034926645 0.0048425803 0.1021591
-0.035396098 0.0030641529 0.10320624
-0.035549452 0.0012913208 0.10336816
-0.0356285 -0.00051008363 0.1036314
-0.035878983 -0.002528492 0.10425065
-0.036395228 -0.0047302009 0.10564351
-0.037120644 -0.0071667675 0.10830621
-0.028415032 0.018650599 0.089639751
-0.02869218 0.017277384 0.090836892
-0.028808901 0.01565427 0.091167507
-0.028958737 0.013991094 0.091478864
-0.029326064 0.012414476 0.092335282
-0.029776963 0.011037317 0.09336323
-0.030269825 0.0098354348 0.094714403
-0.030845783 0.008594973 0.095826723
-0.031543482 0.0074417399 0.097513283
-0.032527633 0.0064067907 0.10003886
-0.033535253 0.0047002331 0.10271287
-0.033982492 0.0029179067 0.10396119
-0.034171696 0.0012064681 0.10417208
-0.034300202 -0.00072459618 0.1046904
-0.034618127 -0.0028209561 0.1054948
-0.035029257 -0.005093803 0.10672147
-0.035601341 -0.0073640572 0.1083403
-0.02666711 0.018637297 0.088563934
-0.027157534 0.01740082 0.09044456
-0.027521819 0.015660084 0.091659949
-0.027674588 0.014021301 0.092164963
-0.028030318 0.01261575 0.09307526
-0.02836795 0.011185199 0.093966705
-0.0288103 0.0098601282 0.095195991
-0.02940872 0.0087082178 0.09639163
-0.030243512 0.0076052472 0.098665429
-0.03109222 0.0063937132 0.10098903
-0.031898681 0.0046453924 0.10306978
-0.032471184 0.0027502401 0.10469019
-0.032638194 0.00092872566 0.10546205
-0.03281447 -0.0010281956 0.10582139
-0.03316554 -0.0030037256 0.10663685
-0.033557435 -0.0053478746 0.1078639
-0.033876964 -0.0074744453 0.10893921
-0.025009962 0.018643701 0.08797991
-0.025599145 0.017498317 0.090091032
-0.026231177 0.015874598 0.092195757
-0.026386202 0.014150197 0.092957685
-0.026934235 0.012917027 0.094425239
-0.027198883 0.01142542 0.095115907
-0.027522728 0.0099935397 0.096001633
-0.027996951 0.0087712975 0.097223095
-0.028724883 0.0075987206 0.099225782
-0.029536511 0.0063514526 0.10191995
-0.030245795 0.0046406638 0.10347237
-0.030733556 0.0027834243 0.10494894
-0.031049753 0.00068405429 0.10626564
-0.031265705 -0.0013158907 0.10698969
-0.031545876 -0.0031327545 0.10761886
-0.031967009 -0.0050826532 0.10858058
-0.0322411 -0.007312662 0.10969403
-0.023493874 0.0186327 0.087913684
-0.024140277 0.017551626 0.090227085
-0.02485572 0.016115325 0.092336009
-0.02490435 0.014537732 0.093391677
-0.025372269 0.012955063 0.094651568
-0.025611837 0.011461489 0.095444769
-0.026151951 0.010083509 0.096876701
-0.02658438 0.0088702244 0.098304071
-0.027145249 0.00748972 0.099617228
-0.027767163 0.0061825619 0.10198791
-0.028393511 0.0046103362 0.10321864
-0.028739154 0.0027007934 0.10471379
-0.029434312 0.00067822703 0.10655191
-0.029630899 -0.0014648363 0.10763767
-0.029933798 -0.0033151099 0.10845853
-0.030242053 -0.0051510095 0.10928285
-0.030425703 -0.0070367707 0.11014129
-0.021898564 0.018550761 0.087538476
-0.02275398 0.017457117 0.090391207
-0.023215718 0.016169773 0.092383728
-0.02336021 0.01478314 0.093307472
-0.023650729 0.013070465 0.094546619
-0.023975293 0.011456262 0.09568731
-0.024640775 0.010134274 0.097479401
-0.025030188 0.0087120676 0.09855396
-0.025435691 0.0073628938 0.099866082
-0.025935752 0.0059489378 0.10145992
-0.026230035 0.0042570893 0.10271945
-0.026843506 0.0024973752 0.10441272
-0.027436668 0.0003681483 0.10621783
-0.027844061 -0.0014887895 0.1077838
-0.028076965 -0.0034172123 0.10868705
-0.028222562 -0.0052427524 0.10954527
-0.028423959 -0.0070893585 0.11040776
-0.020240152 0.018325978 0.087080868
-0.021148912 0.017435214 0.090163613
-0.021536954 0.016238727 0.092196053
-0.021788732 0.014853014 0.093491944
-0.022057889 0.013368546 0.094647209
-0.022427181 0.011614279 0.09600388
-0.023080178 0.010142158 0.097810855
-0.023356116 0.0087088232 0.098782001
-0.023625043 0.0072623008 0.099850762
-0.023942353 0.0058136631 0.10109811
-0.024224097 0.0041270296 0.10213545
-0.024709766 0.0023095466 0.10396532
-0.025493386 0.00034577397 0.1060534
-0.026010544 -0.0015314692 0.10775991
-0.026238251 -0.0033508576 0.10884005
-0.026281131 -0.0052016615 0.10980157
-0.026708901 -0.0068894316 0.11031881
-0.018893561 0.018070037 0.087238324
-0.019512438 0.017378876 0.089830999
-0.019923057 0.016244849 0.092121616
-0.020151033 0.014878876 0.093410082
-0.020479372 0.013445575 0.094910689
-0.020746068 0.011807527 0.096035545
-0.021293699 0.01018655 0.097709763
-0.021593041 0.0086378862 0.098812446
-0.021851724 0.0070808757 0.099689747
-0.022171463 0.0056523522 0.10089043
-0.022380045 0.0039352764 0.101666
-0.022783934 0.002266498 0.10334242
-0.023325965 0.00038760575 0.10541742
-0.024004928 -0.0014424669 0.10733779
-0.024321508 -0.0032638107 0.10846249
-0.024410403 -0.0051730725 0.10941156
-0.024394542 -0.0069854579 0.11023429
-0.017333548 0.018068207 0.086954472
-0.017755043 0.017197303 0.089290577
-0.018153595 0.016223304 0.091624377
-0.018462696 0.014903694 0.093411632
-0.018807849 0.013450802 0.094975581
-0.019012072 0.011759945 0.095942527
-0.019424236 0.010121863 0.09735554
-0.019864818 0.0086583604 0.098970331
-0.020136498 0.007074363 0.099878423
-0.020320327 0.0054828571 0.10059751
-0.02055047 0.0038578928 0.1014368
-0.020780649 0.0022530119 0.10287324
-0.021056307 0.00057093431 0.10437567
-0.021557846 -0.0013789923 0.10594151
-0.022047015 -0.0032598986 0.10747646
-0.02244727 -0.0050654517 0.10837202
-0.022395664 -0.0069265179 0.1092262
-0.022297558 -0.0089388461 0.11001084
-0.015778052 0.017949086 0.086144616
-0.016144453 0.017069903 0.088598438
-0.016346814 0.01615751 0.090739632
-0.01670113 0.014869166 0.092889887
-0.017019807 0.013369617 0.09471271
-0.017170437 0.011756357 0.09590293
-0.01763752 0.010067489 0.097186436
-0.018113191 0.0087023067 0.09893857
-0.018366358 0.0071059656 0.099832028
-0.018459026 0.0054510236 0.10040543
-0.018704093 0.0038714266 0.1012224
-0.018833182 0.0022955743 0.10224992
-0.019071306 0.00056259406 0.10364514
-0.019366068 -0.0012817032 0.10471845
-0.019589024 -0.0031741048 0.10576489
-0.019894068 -0.0050594178 0.10674254
-0.020158691 -0.0070970009 0.10747501
-0.020373573 -0.0089889194 0.10868952
-0.020659516 -0.010969477 0.11045577
-0.014206953 0.017961231 0.085513236
-0.014562749 0.01695658 0.087830665
-0.014724413 0.015848023 0.089905523
-0.014919479 0.014744754 0.092465641
-0.015116118 0.013194042 0.094279763
-0.015184206 0.011584893 0.095669761
-0.015790508 0.010036898 0.097208383
-0.016328187 0.0086089618 0.098867295
-0.016523026 0.0070877299 0.099831874
-0.016640778 0.0055239726 0.10037321
-0.016764744 0.0039457924 0.10087338
-0.016916411 0.0022949155 0.10164013
-0.01714974 0.00057447048 0.1027751
-0.017211593 -0.0012353822 0.10324204
-0.017293397 -0.0030940108 0.10389191
-0.017354964 -0.0047893302 0.10480519
-0.017795284 -0.0069185942 0.10601347
-0.017960697 -0.0088759987 0.10724459
-0.018297259 -0.010915486 0.10921928
-0.018424005 -0.012506547 0.1109151
-0.012681244 0.017999886 0.08507368
-0.013044754 0.016867645 0.087505291
-0.01310242 0.015728043 0.08924974
-0.013130296 0.014595761 0.091842304
-0.013268023 0.013126391 0.093623959
-0.013148749 0.011623923 0.095151338
-0.012796757 0.010203166 0.09668724
-0.013262746 0.0087437033 0.098473484
-0.014580293 0.0071759525 0.099607694
-0.014493145 0.0057252941 0.10020683
-0.014774076 0.0040169183 0.10069053
-0.014900554 0.0022405681 0.10096607
-0.015058221 0.00053222404 0.10157278
-0.0151407 -0.0011640775 0.10223468
-0.015164787 -0.0029500046 0.10260875
-0.015263777 -0.0047028175 0.10344509
-0.015575798 -0.0066850466 0.10469519
-0.015770134 -0.0086153547 0.10599957
-0.016108054 -0.010619168 0.10792881
-0.016491697 -0.012711525 0.11058594
-0.011238341 0.017921313 0.084687963
-0.011435947 0.016775325 0.086641543
-0.011539207 0.015606327 0.088673172
-0.01145821 0.014344204 0.090618904
-0.011367527 0.013136363 0.092845743
-0.011124394 0.011686017 0.093824188
-0.010638681 0.010352387 0.095059273
-0.010032593 0.0090950572 0.096470048
-0.0094030378 0.0078457392 0.097903639
-0.012407251 0.0057141637 0.099346161
-0.012905678 0.0039245317 0.10007885
-0.013093056 0.0022057723 0.10056156
-0.013172948 0.00044557703 0.10081089
-0.01324626 -0.0013132094 0.1011525
-0.013414495 -0.0030684383 0.10178783
-0.013426112 -0.0047623953 0.10273746
-0.013537006 -0.0065848259 0.10364884
-0.013719508 -0.0083928552 0.10497088
-0.014052688 -0.010437046 0.1069616
-0.014400526 -0.012480327 0.10959232
-0.0098182559 0.017827074 0.084164989
-0.0099542364 0.016712919 0.086256489
-0.010117367 0.01541648 0.088025804
-0.010056527 0.014079016 0.089705199
-0.0096632524 0.012987835 0.091438818
-0.0093481829 0.011714446 0.092621349
-0.0088207967 0.010403574 0.093536389
-0.0083065421 0.0090401483 0.094445795
-0.0075792717 0.0077396585 0.09544461
-0.0074252249 0.0062053591 0.096777169
-0.0090232498 0.004300895 0.099028607
-0.010965683 0.0022447799 0.099760831
-0.011337284 0.00041530964 0.10017424
-0.011530366 -0.0013524433 0.10036145
-0.011591268 -0.0031231019 0.10106609
-0.011638788 -0.0048353883 0.10235552
-0.011706788 -0.0064975366 0.10334019
-0.011721072 -0.0082872156 0.10427366
-0.011957569 -0.010184581 0.10623071
-0.012307782 -0.012324792 0.1086714
-0.0083607413 0.017811214 0.083991068
-0.0085051572 0.016673341 0.085745725
-0.0087613594 0.015345062 0.087198017
-0.0086315047 0.014007725 0.088780137
-0.008236435 0.012880334 0.090281295
-0.0078804 0.011537226 0.090751251
-0.007467443 0.010201433 0.091401398
-0.0072147074 0.0087816901 0.092022081
-0.0068188423 0.0072682008 0.093070653
-0.0066879783 0.0057882005 0.094149026
-0.0070115879 0.004084794 0.095882855
-0.0077145744 0.0023157472 0.097726775
-0.0085875063 0.00056635835 0.099160224
-0.0092581681 -0.0012397409 0.099686041
-0.0097930022 -0.0031406527 0.10054896
-0.0097715045 -0.0046741205 0.10194338
-0.0097907223 -0.0063469747 0.10283823
-0.0098537641 -0.0081327089 0.10411896
-0.010123094 -0.010089647 0.10588805
-0.010296352 -0.012206676 0.10791128
-0.010530624 -0.01418456 0.11086262
-0.0069716209 0.017790991 0.083568148
-0.0070072195 0.016667662 0.085008671
-0.0072092591 0.015334267 0.086451709
-0.0072693659 0.013890075 0.087612282
-0.007153271 0.012595879 0.088708028
-0.006590887 0.011506163 0.089646292
-0.0064962329 0.0097635975 0.089125946
-0.0062970286 0.0081919115 0.089804066
-0.0061025689 0.00679658 0.091040509
-0.0059790563 0.0052930762 0.092182159
-0.0059592578 0.0036378047 0.093593791
-0.0062957684 0.0019215671 0.095291103
-0.0069885331 0.00016489229 0.097239748
-0.0074017094 -0.0015908902 0.09887545
-0.0077896207 -0.0031711872 0.10047847
-0.0078642216 -0.0046616485 0.10173957
-0.0079897769 -0.0063314872 0.10264786
-0.0080501145 -0.0079910482 0.10394554
-0.0082636926 -0.010198527 0.10554431
-0.0084387185 -0.012258145 0.10747159
-0.0086349863 -0.014440848 0.1107453
-0.0055158059 0.017837824 0.082900721
-0.0055422386 0.016665498 0.084293904
-0.0056985486 0.015325445 0.085607697
-0.0058386068 0.013906955 0.086524005
-0.0059875708 0.012402629 0.087261049
-0.0060961872 0.010954171 0.087193179
-0.0058952334 0.0095502213 0.087337551
-0.0058167068 0.0078947392 0.087626114
-0.0057401504 0.0062602305 0.088465318
-0.0054789275 0.004760487 0.089954396
-0.0050647153 0.0029188608 0.091444279
-0.0052372427 0.0013614897 0.092986124
-0.0054091813 -0.00030061577 0.095168493
-0.0056865701 -0.0018141525 0.098165276
-0.006055539 -0.0034212968 0.10001478
-0.0061276422 -0.0048501236 0.10135913
-0.0062412593 -0.0065073505 0.10229518
-0.0062379511 -0.008104501 0.10374713
-0.0064081294 -0.010220917 0.10530134
-0.0065257274 -0.012233348 0.107401
-0.0067139499 -0.014493009 0.11066485
-0.0040539632 0.016676791 0.083567117
-0.0042835235 0.015358979 0.085139704
-0.0044081817 0.014078044 0.086306758
-0.0045482549 0.012545348 0.087014482
-0.0045494759 0.011022124 0.086907571
-0.0046154562 0.0094174886 0.086536196
-0.0050370724 0.0077089448 0.08608559
-0.0049647785 0.0060351502 0.086407358
-0.0047498013 0.0043846606 0.087368637
-0.0037564882 0.0024498137 0.090163608
-0.003814888 0.00069085297 0.091373595
-0.0039796922 -0.0008966761 0.09336857
-0.0040362954 -0.0020994468 0.097676709
-0.0043371851 -0.0036300446 0.099493613
-0.0044350854 -0.00502133 0.10065155
-0.0044923563 -0.0065196414 0.10198006
-0.004512712 -0.0081999786 0.10350178
-0.0045706698 -0.010218239 0.10527258
-0.0046696453 -0.012294034 0.10766438
-0.0047491964 -0.014548427 0.11070441
-0.0022457676 0.016769708 0.083168834
-0.0026040497 0.015671592 0.085355759
-0.0029354855 0.014213433 0.086647622
-0.0030277952 0.012674599 0.087134463
-0.0030565326 0.011113689 0.087288415
-0.0030733653 0.0094451811 0.086666944
-0.0032956171 0.0075006001 0.085872906
-0.0033119055 0.005839938 0.085712823
-0.0030682329 0.004268052 0.086700124
-0.0013997689 0.0014957537 0.089580849
-0.0016034437 4.443605e-05 0.090903637
-0.0018577217 -0.0014637692 0.092523138
-0.0023704791 -0.002253533 0.0970646
-0.002597601 -0.0036361261 0.099422072
-0.0026531555 -0.0051104598 0.10067425
-0.002714097 -0.0066294316 0.10182942
-0.0027720782 -0.008215867 0.1035137
-0.0027939537 -0.010169068 0.10512619
-0.0027707498 -0.012347672 0.10756826
-0.0029093747 -0.014679877 0.11032124
-0.00084920732 0.01674069 0.083394672
-0.0011570532 0.01558125 0.085387915
-0.0013845222 0.014190939 0.087048344
-0.0015325202 0.012709554 0.087504586
-0.0015808528 0.011146945 0.087750748
-0.0015345869 0.0095600777 0.087671975
-0.0013769883 0.0073982814 0.086684229
-0.0014701131 0.0058581278 0.086288343
0.0002714808 0.0032639054 0.087729687
0.00067142628 0.0013631408 0.089546502
0.00035748522 5.0884257e-05 0.091326207
0.00010466665 -0.0013118814 0.093239129
-0.00071389411 -0.002296172 0.096873236
-0.00087421422 -0.0036290603 0.099339165
-0.00091575239 -0.0051194605 0.10078878
-0.00092194157 -0.0066903441 0.10213883
-0.0010295688 -0.0083757487 0.10343319
-0.0010369314 -0.01025683 0.10566314
-0.0010165528 -0.012574958 0.10791391
-0.00090170081 -0.014993146 0.1105485
0.00057723362 0.016714977 0.08352108
0.00029044323 0.015525774 0.085604901
0.00016743282 0.014200833 0.087108133
-2.8610135e-05 0.012664074 0.088032707
-5.7176143e-05 0.011017187 0.088310791
0.00037901428 0.0090200293 0.088408239
0.00083701732 0.0071677578 0.088569683
0.0015239811 0.0051419268 0.088734178
0.0020012489 0.0032629273 0.089945112
0.0019446918 0.0017999262 0.091096481
0.0019637079 0.00033750965 0.092315242
0.001531628 -0.0010641799 0.094162365
0.00099750763 -0.0021781067 0.097240425
0.00081031932 -0.0036707072 0.099221533
0.00079832389 -0.0051483064 0.10082032
0.00076343111 -0.0067483538 0.10213227
0.00074360526 -0.0085383871 0.10324076
0.00078001143 -0.010385924 0.10559825
0.00086681786 -0.012610319 0.10782461
0.00097597317 -0.01504709 0.11033581
0.0019754897 0.016684163 0.083722192
0.0017426353 0.0155148 0.085790883
0.0016221552 0.01418373 0.087438973
0.0015159982 0.01264506 0.088548953
0.0015337301 0.01083101 0.088888444
0.0019763781 0.0088343005 0.089343967
0.0022600458 0.0070498244 0.090261584
0.0027584464 0.0053341167 0.090707099
0.0029791881 0.003853101 0.091704964
0.0031447457 0.0023246974 0.092671389
0.0031352933 0.00090215417 0.09378465
0.0028578858 -0.00070492929 0.095393613
0.0026534868 -0.0020325857 0.098126568
0.0025602081 -0.0035674221 0.099520348
0.0025479812 -0.0052198354 0.10068136
0.0024871745 -0.0068128917 0.10214474
0.002533114 -0.0086353042 0.10316181
0.0026541042 -0.01049246 0.10536321
0.0027732017 -0.012693208 0.10765257
0.0028675573 -0.015094853 0.11002697
0.0033773974 0.016637692 0.083790712
0.0031790254 0.015447673 0.085754496
0.00303664 0.014073862 0.08778058
0.0029534057 0.012553495 0.088633272
0.0030373271 0.010888865 0.089167384
0.0033801193 0.0090796898 0.089795788
0.0035295002 0.007373843 0.091045404
0.0038543287 0.0058838458 0.092080519
0.0040275382 0.0044528286 0.092917827
0.0041172204 0.0029176961 0.093914248
0.0042147589 0.0014341768 0.09510687
0.004041434 -0.00018780487 0.096925803
0.0042071582 -0.0018526665 0.098922603
0.0042459476 -0.0034669478 0.10013688
0.0042119817 -0.0051728686 0.10114193
0.0042709468 -0.0068354936 0.10227462
0.0043202825 -0.0086908201 0.10334546
0.0043748465 -0.01067027 0.10546488
0.0046247216 -0.012886977 0.10770139
0.0048553689 -0.015128466 0.11026787
0.0047556991 0.01659421 0.084180886
0.0045455728 0.01549296 0.086051447
0.0044411337 0.014114748 0.087694074
0.0044405276 0.0126492 0.088457118
0.004463198 0.011077076 0.089453846
0.0047893872 0.0094281413 0.090402136
0.0049338807 0.0078835043 0.091488406
0.0050124751 0.0064686373 0.092942494
0.0052848565 0.0049510106 0.093951516
0.0053141753 0.0035084723 0.095138915
0.0051480285 0.0019926323 0.096797555
0.0053679648 0.00019682331 0.098530476
0.0059008974 -0.0017143617 0.099783289
0.0059501864 -0.0033407186 0.10076097
0.0060523592 -0.005122072 0.1015976
0.006010031 -0.006859775 0.10265475
0.0060769068 -0.0086774401 0.10386125
0.0061633747 -0.010948706 0.10540574
0.0065094657 -0.013266167 0.10773592
0.0059860544 0.016473843 0.084795468
0.00599901 0.015511401 0.086173574
0.0059381343 0.014108927 0.087494798
0.0059274625 0.01264514 0.08818577
0.005924641 0.011184723 0.089411532
0.006274881 0.0097854022 0.090386219
0.0064705916 0.0083246346 0.091805863
0.0064390538 0.0069286581 0.093343268
0.0065809858 0.0054610496 0.094760493
0.0067815503 0.0036459836 0.096455035
0.0067927842 0.0022006708 0.098282842
0.0073532639 0.00023283419 0.099722723
0.0076344412 -0.0016296359 0.10042329
0.0077231616 -0.0033607212 0.10133653
0.0077977149 -0.0051027682 0.10235407
0.0077820667 -0.0068830396 0.10337998
0.0079136671 -0.008967028 0.1042575
0.0081242469 -0.011355882 0.10586617
0.008376435 -0.013798747 0.10769363
0.0088033384 -0.015911959 0.10913969
0.007355066 0.017317921 0.083526837
0.0074430839 0.016493098 0.085054994
0.0074240078 0.015473165 0.086420618
0.0074186645 0.014115182 0.08768408
0.0073658424 0.012641459 0.08818426
0.0074154183 0.011046266 0.089435153
0.0076044976 0.0097083626 0.090429448
0.0079116573 0.0085700877 0.091688424
0.0077830306 0.0073627486 0.094214983
0.0082541739 0.0055133913 0.095274878
0.008453091 0.0037063172 0.096892719
0.0086373823 0.0020977762 0.099097977
0.0089732415 0.00029813685 0.10024501
0.0092753982 -0.0015477908 0.10109354
0.0094421214 -0.0032845723 0.10210257
0.0095282327 -0.0051351927 0.10287804
0.0096566174 -0.0070801073 0.10397727
0.0098372248 -0.0092000992 0.10492001
0.010024533 -0.011691126 0.10615866
0.010158533 -0.014309267 0.10736344
0.008745282 0.017345397 0.083609675
0.0088426303 0.016444306 0.085112661
0.0088639586 0.015373102 0.08643838
0.0088363091 0.014035249 0.087697613
0.0088946062 0.012492614 0.088459852
0.0089759892 0.010988964 0.089530222
0.0090458424 0.0095680648 0.090347734
0.0091964941 0.0080987209 0.091418413
0.0095432289 0.0073548618 0.094404441
0.010001166 0.0053716974 0.095339199
0.010219743 0.0037765475 0.097751849
0.010368695 0.0021592717 0.099484081
0.010592561 0.00040088956 0.10032143
0.010818919 -0.0013365803 0.10156561
0.011130864 -0.0031818629 0.10263626
0.011281115 -0.0050758087 0.10331486
0.011491314 -0.0070627051 0.10461272
0.011677101 -0.0092470152 0.10565794
0.011856735 -0.012001841 0.10676044
0.011950895 -0.014601786 0.10783182
0.010110684 0.017412277 0.083702981
0.010194245 0.016527569 0.084941333
0.010155185 0.015416396 0.086254594
0.010288554 0.014028333 0.087387504
0.010409134 0.012585238 0.088166552
0.010496399 0.011091311 0.089340739
0.01057252 0.0097087631 0.090355277
0.010652049 0.0082820446 0.09138603
0.011250388 0.0069827656 0.093935447
0.011577119 0.0052666534 0.095729155
0.011844727 0.0038112877 0.098020129
0.012126592 0.0021922878 0.099658216
0.012397874 0.00050497231 0.10054212
0.012576945 -0.0012634384 0.10169116
0.012846975 -0.0030551746 0.10282535
0.013100793 -0.0049271288 0.10387571
0.01334613 -0.0069677349 0.10527364
0.013447008 -0.0096118556 0.10663919
0.013671238 -0.012369383 0.10770962
0.013814991 -0.014577322 0.10852202
0.011545397 0.017749725 0.084356136
0.011613694 0.016706457 0.085178713
0.011542416 0.015515209 0.086381867
0.011771258 0.014070612 0.087488497
0.011929638 0.012623098 0.08814502
0.011962224 0.011169551 0.08916608
0.012052151 0.0098001858 0.090154618
0.012123995 0.0083574072 0.09117242
0.012314069 0.0071311842 0.093671622
0.0131337 0.0051447687 0.095836868
0.013521379 0.0036715615 0.097908482
0.013866169 0.0021767304 0.099777949
0.014133761 0.00061002129 0.10087034
0.014388413 -0.0010882921 0.10165106
0.0146409 -0.0029093824 0.10313119
0.01487435 -0.0048472669 0.10416813
0.015149068 -0.0070471037 0.10621876
0.015310497 -0.010217071 0.10792375
0.015648202 -0.01258358 0.10920099
0.012934005 0.017792542 0.0844254
0.012974272 0.016872559 0.085565674
0.013004577 0.015618837 0.086453046
0.013262318 0.01407597 0.087816673
0.013413783 0.012651934 0.088406747
0.013435501 0.011258165 0.089343856
0.013524069 0.0098845493 0.09023793
0.013645859 0.0084676243 0.091335913
0.013814497 0.0071004057 0.093187978
0.014657339 0.0050036772 0.095743661
0.0153362 0.0036374147 0.098316193
0.015705144 0.0021428187 0.099817961
0.016020186 0.00053566601 0.10125999
0.016109728 -0.0011010448 0.10193544
0.016422899 -0.002886926 0.10348063
0.016808837 -0.0048992158 0.10525041
0.017212035 -0.0073579972 0.10756438
0.017490689 -0.010147683 0.10943046
0.014459851 0.017928476 0.084843678
0.014542434 0.016998441 0.085953911
0.014585137 0.01580359 0.086927533
0.014782139 0.014238761 0.087708958
0.014901203 0.012859815 0.08868099
0.015013622 0.011389242 0.089682261
0.015077975 0.0099181437 0.090615394
0.01520613 0.0085450923 0.092170996
0.01561394 0.0071688897 0.093883333
0.016143393 0.0052312732 0.095715615
0.016992253 0.0036308448 0.098430728
0.017431457 0.0021135397 0.09990973
0.017749058 0.000546497 0.10130559
0.017993973 -0.0010708583 0.1024074
0.018296125 -0.002934714 0.10393792
0.018872877 -0.0050731747 0.10639871
0.019631546 -0.0077497877 0.10964484
0.016075692 0.018190815 0.085593256
0.016145697 0.017117637 0.086560662
0.016184018 0.015803433 0.087426039
0.016347087 0.014471537 0.088276314
0.016468907 0.013022807 0.089042455
0.016619962 0.011536708 0.090292317
0.016629796 0.0099870813 0.091105509
0.016917215 0.0085783538 0.092484755
0.017439847 0.0070831767 0.094625826
0.017736638 0.0054135649 0.095817943
0.018605127 0.0037613029 0.098369486
0.019139103 0.0021850054 0.099770158
0.019552875 0.00066506903 0.10137605
0.02002235 -0.0011614817 0.10300509
0.020444192 -0.0031651832 0.10489566
0.021138088 -0.0054338707 0.10771941
0.02194997 -0.0076607505 0.11065504
0.017685022 0.018323616 0.08624353
0.017765342 0.017195279 0.087148473
0.017766205 0.015877703 0.087811284
0.017937562 0.014599694 0.088877837
0.018097924 0.013182187 0.089758381
0.01841089 0.011677015 0.090647961
0.018281664 0.010042902 0.09126727
0.018433462 0.0085223811 0.092363226
0.019150029 0.0070364704 0.095093119
0.019546397 0.0054708859 0.096397949
0.020626245 0.0038195808 0.098933404
0.021052881 0.0022410502 0.10033824
0.02154261 0.0005223018 0.10183785
0.022083107 -0.001579279 0.10359892
0.022992003 -0.0036808573 0.10621816
0.023458757 -0.0055757946 0.10902057
0.019160205 0.018318221 0.086277177
0.019395678 0.017206109 0.087432578
0.019490791 0.015938017 0.088254335
0.019688452 0.014606364 0.089149418
0.019841168 0.013046505 0.089722484
0.020038085 0.011514028 0.090585001
0.019944704 0.0099601677 0.09135809
0.020087601 0.008485424 0.092494483
0.020829104 0.0069793163 0.095204152
0.021308668 0.0054959383 0.096558181
0.022455493 0.0037465579 0.09902024
0.022908426 0.0021337387 0.10065308
0.023526117 0.00024801654 0.10227379
0.024304616 -0.0017847401 0.10441074
0.025165565 -0.0036799628 0.107192
0.025905864 -0.0057120376 0.11038377
0.020623301 0.01822676 0.08623441
0.020977661 0.01712485 0.087488137
0.021316483 0.015777655 0.088367231
0.021431171 0.014446367 0.089287035
0.021435219 0.012958375 0.089659033
0.021586644 0.011435472 0.090370245
0.021537891 0.0098779317 0.091181551
0.021853833 0.008410595 0.092918177
0.022363047 0.0068909231 0.094824401
0.023058867 0.0052325884 0.096062476
0.024204269 0.0036713952 0.098903539
0.025136327 0.0019638484 0.10175697
0.025604618 7.2692683e-05 0.10301387
0.026350898 -0.0017087418 0.1050932
0.027351793 -0.0036704504 0.10862663
0.022262668 0.018138988 0.086442515
0.022530971 0.016940978 0.087343879
0.022860937 0.015672103 0.088306554
0.023003047 0.014299689 0.089031237
0.023017497 0.012858461 0.08949615
0.023220821 0.011417172 0.090396616
0.024062936 0.0099199694 0.092259265
0.024123007 0.0083993593 0.093560095
0.024440995 0.0066633547 0.094757045
0.025710253 0.0051748178 0.097333228
0.026570786 0.0036828906 0.099812171
0.02767052 0.001743464 0.10293208
0.028060955 0.00019474986 0.10463761
0.028639211 -0.0016251508 0.10660954
0.029620113 -0.0037490889 0.11010491
0.023830436 0.017993584 0.086431029
0.024166727 0.016866515 0.08750203
0.02441143 0.015578256 0.08836361
0.02452729 0.014196831 0.088888032
0.024628423 0.012801552 0.089514777
0.024999909 0.011481293 0.090522465
0.025652509 0.010076936 0.091773393
0.02591568 0.0085888247 0.092712214
0.026338454 0.0069494519 0.094347631
0.027649614 0.0053444753 0.097528393
0.028810832 0.0036090492 0.10108051
0.030159754 0.0018292229 0.10407605
0.030577364 0.00017204418 0.10616883
0.030947016 -0.0015092218 0.10818338
0.031768652 -0.0035413132 0.11075179
0.025291078 0.017874291 0.086162207
0.025697968 0.016763233 0.087439406
0.025960875 0.015488066 0.088383433
0.026076547 0.014158606 0.08888948
0.026185436 0.012721334 0.089436821
0.026626723 0.011397433 0.08999108
0.026948541 0.010061707 0.090826991
0.027303383 0.0086502433 0.091940271
0.027702283 0.0070397056 0.093257683
0.029236483 0.0054727346 0.097112079
0.031243328 0.0035747546 0.10239995
0.032257219 0.0018932015 0.10530837
0.032616818 0.00022761671 0.10691317
0.033134283 -0.0013884612 0.10919823
0.02683241 0.017828696 0.086323999
0.027188444 0.016724767 0.087388083
0.027533872 0.015492904 0.088206721
0.027822229 0.014272104 0.089121925
0.028102571 0.012812641 0.089514685
0.028212423 0.011411979 0.089857846
0.028392155 0.010066239 0.090526427
0.028787032 0.008658361 0.091818506
0.030183152 0.0073547275 0.095103505
0.030942707 0.0055694439 0.097298086
0.033657865 0.0034515377 0.10369578
0.034405684 0.002030518 0.1066072
0.03486573 0.00039913001 0.10840995
0.035541385 -0.0013094771 0.11060262
0.027980684 0.017661081 0.085449271
0.028664391 0.016745185 0.087292344
0.029085638 0.015578804 0.088233401
0.02941784 0.01424414 0.088888044
0.029571061 0.012768902 0.089230038
0.029682155 0.011384002 0.089706888
0.029786965 0.010027889 0.090264318
0.030391645 0.0087171368 0.092058358
0.031717506 0.0073811798 0.094968205
0.032346687 0.0056352431 0.096576181
0.03643588 0.003549324 0.10643566
0.037018247 0.0018051509 0.10817082
0.037312816 9.5790673e-05 0.10951496
0.038262211 -0.0017977072 0.11113086
0.028904031 0.017344211 0.084001484
0.029829233 0.016606336 0.086363325
0.030369539 0.015400666 0.087617179
0.030816799 0.01413029 0.088561312
0.030981533 0.012673942 0.088917308
0.031161477 0.011319518 0.089553632
0.031538855 0.010009402 0.090688785
0.031863117 0.0087069661 0.091681942
0.032851136 0.0072361405 0.093851243
0.035022492 0.0051221024 0.098623015
0.039033389 0.0034607352 0.10737277
0.039474331 0.0017878723 0.109109
0.04005116 -0.00013051776 0.11044166
0.040414823 -0.0017465703 0.1114723
0.03073532 0.016259337 0.084854397
0.031465797 0.015129913 0.086427979
0.032025721 0.013860484 0.087447288
0.032296974 0.012476828 0.088311168
0.032533781 0.011073304 0.089110481
0.032958468 0.0096807675 0.090330327
0.033418578 0.0083529673 0.091654944
0.034398912 0.0069497301 0.093910453
0.039429357 0.0045568679 0.10346626
0.040983045 0.0034057965 0.10762544
0.041674542 0.0017065065 0.10959701
0.042109997 -0.00024874407 0.11061785
0.042796583 -0.0018929509 0.11159926
0.032408487 0.014931513 0.084553505
0.033040191 0.013645392 0.085813356
0.033707353 0.012355857 0.08782806
0.034074926 0.010786417 0.088780413
0.034375759 0.0094009846 0.089889621
0.034860963 0.0081255138 0.091236648
0.037082782 0.0064195193 0.095901412
0.041345528 0.0044990923 0.10383985
0.042689754 0.0034173444 0.10744672
0.043396119 0.0017214729 0.10902063
0.043948873 -0.00026373276 0.11021228
0.044229749 -0.0021328475 0.11077271
