ply
format ascii 1.0
comment Automatically gnerated by model-converter
element vertex 764
property float x
property float y
property float z
element face 0
property list uchar int vertex_indices
end_header
-0.029504947 0.018194751 0.08832672
-0.030021555 0.016928839 0.089995033
-0.030175778 0.015429363 0.090637921
-0.030348013 0.013836024 0.091086982
-0.03063626 0.012252087 0.09186923
-0.031102629 0.010905038 0.092918912
-0.031437098 0.0095792277 0.093885039
-0.031768583 0.008295605 0.094699657
-0.032569101 0.0070528075 0.096227016
-0.033682125 0.0061460841 0.099009715
-0.034910817 0.0047615608 0.10217633
-0.035350224 0.0029669378 0.1031999
-0.03544328 0.0012106982 0.10331684
-0.035412104 -0.00057171574 0.10346265
-0.035513787 -0.0026558233 0.10390038
-0.035940257 -0.0049612611 0.10514297
-0.036675306 -0.0075110681 0.10767535
-0.028517401 0.01840754 0.089495362
-0.028795058 0.017126485 0.090792949
-0.028932029 0.015574905 0.091277272
-0.029099491 0.01396179 0.09168943
-0.0294614 0.012424374 0.092564047
-0.029894335 0.011045691 0.093573468
-0.030352781 0.0098251185 0.094890042
-0.030890121 0.0085378654 0.095933796
-0.031562164 0.0073170885 0.097554393
-0.032534923 0.0062513223 0.10003547
-0.033524897 0.0046455751 0.10274686
-0.033961716 0.0028559392 0.10398798
-0.034080813 0.0011708055 0.10417096
-0.034111691 -0.00076307365 0.10455818
-0.034302405 -0.0029684199 0.10518449
-0.034606142 -0.0052809947 0.10626287
-0.035164462 -0.007614344 0.10780785
-0.026754254 0.018341737 0.088416111
-0.027255688 0.017202372 0.090360233
-0.02763408 0.015578483 0.091734347
-0.02781202 0.014021202 0.09237364
-0.028161333 0.012648391 0.09330881
-0.028482079 0.011208984 0.094184623
-0.028897155 0.0098686208 0.095386712
-0.029458074 0.0086701296 0.096503733
-0.030270856 0.0074889527 0.098702537
-0.031108865 0.0062628872 0.10098603
-0.031898653 0.0046255903 0.10314777
-0.032479403 0.0027582631 0.10479617
-0.032614021 0.00094031503 0.10553934
-0.032659252 -0.001040224 0.10574069
-0.032876373 -0.0031021889 0.10633416
-0.033194301 -0.0054750024 0.1074743
-0.033483937 -0.0076473905 0.10851068
-0.025084417 0.018336401 0.087843686
-0.025691093 0.01728654 0.09000244
-0.026333525 0.015783749 0.092206057
-0.026518544 0.014195129 0.093191064
-0.027051862 0.012960677 0.094677611
-0.027299547 0.011458619 0.095341241
-0.027604566 0.01000834 0.096198511
-0.028051724 0.008744683 0.097347291
-0.028751408 0.0075199983 0.099246914
-0.029566775 0.0062461211 0.10195056
-0.030265581 0.0046430667 0.10358317
-0.030768161 0.0028918943 0.1051556
-0.031069308 0.00076521759 0.10646287
-0.031166846 -0.0013121578 0.1069941
-0.031310632 -0.0032059886 0.10738278
-0.031651486 -0.0052013172 0.10817918
-0.031901264 -0.0074429146 0.10931632
-0.023569896 0.018356233 0.087806073
-0.024240187 0.017385239 0.090169147
-0.024961595 0.016056868 0.09234863
-0.025015297 0.014625904 0.093661254
-0.025486153 0.013026126 0.094930393
-0.025704511 0.011511564 0.095683195
-0.026214748 0.010084265 0.097072817
-0.02662929 0.0088446727 0.098398724
-0.027180723 0.0074259723 0.099691204
-0.027810984 0.0061151484 0.1020278
-0.028408722 0.004605739 0.10331806
-0.028755885 0.0029054193 0.10502746
-0.029476705 0.00085845665 0.10687538
-0.029570489 -0.001400858 0.10773749
-0.029761877 -0.0033379506 0.1083274
-0.03000023 -0.0052414046 0.10901005
-0.030153417 -0.0071347207 0.10982245
-0.021972489 0.018293174 0.087467439
-0.022861469 0.017353597 0.090390757
-0.023318773 0.016175055 0.092469662
-0.023456499 0.014842698 0.093504259
-0.023750946 0.013168569 0.094824245
-0.024059428 0.011526772 0.095931525
-0.024700102 0.010150396 0.097682985
-0.025084972 0.0087324247 0.098672124
-0.02546865 0.0073393195 0.099942459
-0.025958205 0.0058929031 0.10151945
-0.026198261 0.0043147655 0.10283294
-0.026810377 0.0027194978 0.10470927
-0.02742096 0.00067245389 0.1066285
-0.027807784 -0.0013115105 0.10802547
-0.027970705 -0.0033238715 0.10873576
-0.028077885 -0.0051970695 0.10948649
-0.028242958 -0.0070875416 0.11025968
-0.02029508 0.018142488 0.087069335
-0.021254746 0.017365355 0.090193471
-0.021640975 0.016267739 0.092316588
-0.021879989 0.01491811 0.093670488
-0.022139799 0.013457388 0.094865019
-0.022497522 0.011695879 0.096228013
-0.023129298 0.010192742 0.09798856
-0.023384769 0.0087387963 0.098905415
-0.023656325 0.0072592357 0.099921726
-0.023962842 0.0057840785 0.10112959
-0.024228992 0.0041579828 0.10220275
-0.024682368 0.0024495577 0.10413867
-0.025452071 0.00064175038 0.1064229
-0.02597418 -0.0013064124 0.10804688
-0.026172916 -0.0031863498 0.10897101
-0.026178847 -0.0051027181 0.10984045
-0.026563891 -0.0068203635 0.11027852
-0.01891344 0.018090723 0.087296073
-0.019610194 0.017324995 0.089872739
-0.020022038 0.016271187 0.092232798
-0.020235685 0.014930747 0.093556894
-0.020548262 0.013520718 0.095091994
-0.02080399 0.011907594 0.096250535
-0.02133518 0.010257118 0.09789758
-0.021623491 0.0086830194 0.098939648
-0.021876774 0.0071021088 0.099763728
-0.022188263 0.005644727 0.1009148
-0.02239078 0.0039491962 0.10169758
-0.022782207 0.0023451054 0.10342743
-0.02329568 0.00056936702 0.10562767
-0.023956807 -0.0011996887 0.10762086
-0.024248951 -0.0030375435 0.10868807
-0.02430466 -0.0049978159 0.10952944
-0.02426037 -0.0068450214 0.11027526
-0.017336349 0.018157756 0.087041955
-0.017792648 0.017217449 0.089348272
-0.01823186 0.016222322 0.091694566
-0.018530416 0.014930595 0.093512046
-0.018873409 0.013506198 0.095108691
-0.019061856 0.011856953 0.096147734
-0.019456623 0.010216758 0.097553405
-0.019888738 0.0087121355 0.099104443
-0.020151094 0.007101383 0.099953271
-0.020329963 0.0054912456 0.10062251
-0.02055444 0.0038609325 0.10144507
-0.020782742 0.002263585 0.10288114
-0.021074918 0.00062372627 0.10440579
-0.021586518 -0.0012897204 0.10600483
-0.022014064 -0.0030761894 0.10759894
-0.022336536 -0.0048345113 0.10850573
-0.022247617 -0.0067099388 0.10931393
-0.022157475 -0.0087966171 0.11009137
-0.015772328 0.018063141 0.086245541
-0.016158352 0.01714252 0.088685029
-0.016389547 0.016173068 0.090806066
-0.016742987 0.014904679 0.092984522
-0.017044938 0.013415398 0.094822011
-0.017182085 0.011830916 0.09604806
-0.017659414 0.01017815 0.097380741
-0.018126286 0.0087708093 0.099078504
-0.018377159 0.0071397412 0.099923168
-0.018465038 0.0054625033 0.10044646
-0.018711381 0.0038677249 0.10122129
-0.018855599 0.0022878409 0.10223184
-0.019109767 0.0005506759 0.10359603
-0.019441621 -0.0013028856 0.1046556
-0.019693966 -0.0031992698 0.10566014
-0.020034532 -0.0050899715 0.10662561
-0.02012656 -0.0070533062 0.10755742
-0.020307405 -0.0089351267 0.1088068
-0.020584575 -0.010907532 0.11058192
-0.01419543 0.018115744 0.085658826
-0.014567899 0.017051084 0.087934967
-0.014730762 0.015930112 0.090011244
-0.014934595 0.014819343 0.092593293
-0.015115499 0.013265435 0.094407728
-0.015173198 0.011640322 0.09576692
-0.015797996 0.010138868 0.097379485
-0.016342168 0.008682508 0.099018153
-0.016536081 0.0071240705 0.099933799
-0.016644363 0.0055324354 0.10041769
-0.016769791 0.0039376194 0.10087618
-0.016934301 0.0022834015 0.10163307
-0.017193628 0.00054476249 0.10271595
-0.017279323 -0.001274539 0.1031447
-0.017397997 -0.0031455026 0.10375942
-0.017435625 -0.0048308936 0.10472694
-0.017792092 -0.0069201914 0.10605936
-0.017934558 -0.0088654661 0.10731568
-0.018252032 -0.010881665 0.1093211
-0.018356943 -0.012451497 0.11104466
-0.012658049 0.018158496 0.085214622
-0.013040976 0.016967575 0.087607181
-0.013088811 0.015818738 0.089349791
-0.013117637 0.014682708 0.091961261
-0.013253629 0.013198474 0.093745282
-0.01312927 0.011670845 0.095242159
-0.012760253 0.010241622 0.096759396
-0.013234218 0.0088047848 0.098605761
-0.014583561 0.0072086939 0.099707543
-0.014494903 0.0057362986 0.10025528
-0.0147747 0.0040215878 0.10072147
-0.014900379 0.0022381247 0.10099994
-0.015073032 0.00053031667 0.10159303
-0.015164048 -0.0011758699 0.10223364
-0.015188236 -0.0029555743 0.10260302
-0.015304539 -0.0047151495 0.10343677
-0.015584228 -0.006691388 0.10471755
-0.015760196 -0.0086101456 0.10605433
-0.016074112 -0.010589811 0.10801071
-0.016426522 -0.012656315 0.11068338
-0.011216022 0.018066078 0.084817994
-0.011424003 0.016883532 0.086752971
-0.01152492 0.015702069 0.088769122
-0.011431081 0.014426702 0.090725241
-0.011332727 0.013207249 0.092955581
-0.011087154 0.011747208 0.093931675
-0.010581888 0.01041922 0.095151767
-0.009946551 0.0091702991 0.096573684
-0.0092802024 0.0079415296 0.098009275
-0.012399354 0.005731479 0.099431881
-0.012902417 0.0039352762 0.10013972
-0.013092784 0.0022134264 0.10060681
-0.013174299 0.00045245626 0.10085087
-0.013246589 -0.0013036609 0.10119456
-0.013412742 -0.0030602969 0.10181408
-0.013451614 -0.0047836158 0.10275416
-0.013546 -0.006587213 0.10367748
-0.013728341 -0.00838786 0.10502734
-0.014026704 -0.010416418 0.10703357
-0.014352178 -0.012434488 0.10970044
-0.0097982989 0.017964598 0.084296838
-0.0099422296 0.016809071 0.086353125
-0.010113701 0.015489153 0.088119822
-0.01003217 0.014146594 0.089796175
-0.0096183893 0.01306364 0.091541835
-0.0092908756 0.011781495 0.09271741
-0.0087521487 0.010474414 0.093619494
-0.0082367294 0.0090979877 0.094562118
-0.0074769003 0.0077921459 0.095537709
-0.0073243451 0.0062403488 0.096857356
-0.0089321714 0.0043310533 0.099113918
-0.01094867 0.0022626964 0.099838657
-0.011323138 0.00044301503 0.10023755
-0.011514642 -0.0013291058 0.10043711
-0.011581474 -0.0031036041 0.10113527
-0.011648093 -0.0048303773 0.10238474
-0.01171378 -0.0064888365 0.10337242
-0.011718047 -0.0082704501 0.104339
-0.011939343 -0.010156547 0.10630947
-0.012277433 -0.012275585 0.10877009
-0.0083394288 0.017941967 0.084124836
-0.0084971812 0.016758236 0.085831794
-0.0087577854 0.015411781 0.087254875
-0.0086188392 0.014062002 0.088851655
-0.0082048001 0.012947009 0.090356827
-0.0078381935 0.011601131 0.090825455
-0.0074367908 0.010259309 0.091480954
-0.007175047 0.0088161067 0.092089216
-0.0067619214 0.0073049752 0.093126969
-0.0066178216 0.0058144513 0.094224378
-0.0069494512 0.004109851 0.095959908
-0.0076345347 0.0023438326 0.097832227
-0.0085224038 0.00059753574 0.09925248
-0.0092106672 -0.0012221047 0.099770521
-0.0097674998 -0.0031049591 0.10065645
-0.0097687132 -0.0046648805 0.10199454
-0.0097937252 -0.00632716 0.10288282
-0.0098583271 -0.0081196428 0.1041919
-0.010106475 -0.01004515 0.10597075
-0.010274651 -0.01215389 0.10800503
-0.010494892 -0.014120653 0.11095428
-0.0069494992 0.017920048 0.083698748
-0.0069983993 0.016758493 0.085101563
-0.0072133832 0.015388488 0.086506325
-0.0072689894 0.013928475 0.087659091
-0.0071503373 0.012640479 0.088760935
-0.0065662475 0.011566106 0.089705445
-0.0064795931 0.0097828416 0.089185339
-0.0062811207 0.0082106462 0.089861035
-0.0060814182 0.0068154246 0.09109852
-0.0059478937 0.0053174326 0.092235263
-0.005920272 0.0036608767 0.093669702
-0.0062574337 0.0019419769 0.095360472
-0.0069487042 0.0001816973 0.097316504
-0.0073776558 -0.0015804226 0.098919285
-0.00778 -0.0031642472 0.10052624
-0.0078721063 -0.0046510291 0.10178504
-0.0079920566 -0.0063121557 0.10270507
-0.0080476016 -0.007962144 0.10400064
-0.0082562261 -0.010147302 0.10560899
-0.0084213035 -0.012210961 0.10754969
-0.0086028186 -0.014383486 0.1108236
-0.005491039 0.017972825 0.083037083
-0.005532558 0.016765284 0.084399566
-0.0057106707 0.015393564 0.085667102
-0.0058484855 0.013940842 0.086569991
-0.0059934969 0.01243618 0.087306294
-0.0060811752 0.01096438 0.087242286
-0.0058763736 0.0095612554 0.087398772
-0.0057926271 0.0079041244 0.087700695
-0.0057233783 0.0062725641 0.088533263
-0.0054714995 0.0047757721 0.090010159
-0.0050522142 0.0029485801 0.091505092
-0.0052183509 0.0013852147 0.093038758
-0.0054017776 -0.00029732815 0.095201299
-0.0057017189 -0.001826398 0.09822628
-0.0060452113 -0.0034314875 0.10004512
-0.0061113291 -0.0048331641 0.10137847
-0.0062392644 -0.0064890364 0.10233806
-0.0062336024 -0.0080782442 0.10379222
-0.0063997571 -0.010184402 0.10535949
-0.0065061616 -0.012185088 0.10745166
-0.0066820919 -0.014440383 0.11073525
-0.004037489 0.016797621 0.083699784
-0.004292863 0.015405343 0.08519763
-0.0044185977 0.014110434 0.086362942
-0.0045455969 0.012567103 0.087065445
-0.0045422797 0.01103557 0.086947958
-0.0046013741 0.0094267317 0.086580967
-0.0050163471 0.0077088855 0.086152637
-0.0049478012 0.0060369517 0.086487157
-0.0047333247 0.0043928507 0.087440536
-0.0037442547 0.0024748467 0.090205982
-0.0038050563 0.00071594459 0.091411931
-0.0039674795 -0.0008804558 0.093405039
-0.0040297274 -0.0021070949 0.097697557
-0.0043312724 -0.0036321397 0.099514999
-0.0044316065 -0.0050135291 0.10067841
-0.0044892135 -0.0065042386 0.10201436
-0.0045090608 -0.0081790602 0.10354133
-0.0045622484 -0.010186236 0.10531678
-0.004650912 -0.01225393 0.10771624
-0.0047176201 -0.014501383 0.11076303
-0.0022889708 0.01686061 0.083331196
-0.0026198095 0.01571732 0.085489825
-0.0029374635 0.014234446 0.086727948
-0.0030266536 0.012693307 0.087209898
-0.0030516784 0.011130971 0.08735469
-0.0030634234 0.0094605717 0.086728591
-0.0032843224 0.0075024098 0.08593488
-0.0033000294 0.0058385434 0.085774565
-0.0030530078 0.0042693008 0.086746573
-0.0014084652 0.0015307338 0.08960851
-0.0016194972 8.0909674e-05 0.090933025
-0.0018779495 -0.0014268995 0.092554066
-0.002369076 -0.0022587882 0.097080702
-0.0025945647 -0.0036396367 0.09943619
-0.0026518061 -0.005109267 0.10069157
-0.002712403 -0.0066223682 0.10185324
-0.0027689859 -0.0082029229 0.10354183
-0.0027886636 -0.010146506 0.10515712
-0.0027560867 -0.012315949 0.107607
-0.0028816995 -0.014641482 0.11036569
-0.00089198625 0.016814104 0.083527606
-0.0011802032 0.01563018 0.085519785
-0.0013894476 0.014211535 0.087147877
-0.0015332187 0.012727925 0.087586444
-0.0015811047 0.011165551 0.087820188
-0.0015293085 0.009578112 0.087737731
-0.0013738944 0.0074076676 0.086776511
-0.0014617583 0.0058659754 0.086381164
0.00027305135 0.0032721923 0.087742273
0.00064184339 0.0013660587 0.08952683
0.00033780976 7.3778714e-05 0.091314937
8.1621258e-05 -0.0012978654 0.093291228
-0.00072560191 -0.0022782 0.096889484
-0.00087494314 -0.0036343901 0.099347219
-0.00091539882 -0.005121294 0.10080015
-0.00092021345 -0.0066879096 0.10215512
-0.0010294623 -0.0083653504 0.10345309
-0.0010338107 -0.01023795 0.10568822
-0.0010074827 -0.012548805 0.10794582
-0.00088585211 -0.014965142 0.11058124
0.00053803187 0.016782474 0.083639159
0.00026927037 0.015568172 0.085714681
0.00015912946 0.014220001 0.087209799
-2.9357134e-05 0.012676432 0.088108313
-5.4082501e-05 0.011030954 0.088377993
0.0003909242 0.0090272709 0.088465266
0.00083729395 0.0071605734 0.088585519
0.0015339555 0.0051407836 0.088750939
0.0020144257 0.0032555101 0.089931333
0.0019496072 0.0017933993 0.091066557
0.0019562838 0.00033514131 0.092312237
0.001513886 -0.001057861 0.094147532
0.00098607164 -0.0021716634 0.097248564
0.00080482946 -0.0036673857 0.099220796
0.00079678692 -0.0051508461 0.10082841
0.00075988957 -0.0067419177 0.10214822
0.00074195918 -0.0085287226 0.10325906
0.00078211474 -0.010369531 0.10561994
0.00087444646 -0.012588969 0.10784923
0.00098782165 -0.015026223 0.11035982
0.0019404062 0.016742715 0.083825635
0.0017214161 0.01555396 0.085886951
0.0016167771 0.014197962 0.08752267
0.0015190823 0.012647554 0.088613737
0.001525244 0.010837139 0.088951031
0.0019848778 0.0088319465 0.089393266
0.0022821128 0.0070341385 0.090275285
0.0027802714 0.0053198236 0.090694882
0.0030088802 0.0038317393 0.091688752
0.0031709276 0.0023049954 0.092654373
0.0031356542 0.00087168994 0.093752536
0.0028554975 -0.00071553505 0.095384217
0.0026427042 -0.0020358861 0.098132942
0.002556629 -0.0035813226 0.099556216
0.0025349285 -0.0052161253 0.100702
0.0024822576 -0.006801666 0.10216504
0.0025305302 -0.0086240703 0.10318163
0.0026553686 -0.010478535 0.10538167
0.0027797089 -0.01267719 0.10766914
0.0028768408 -0.015080157 0.1100425
0.0033393614 0.016695436 0.083877738
0.0031539386 0.015492888 0.085836622
0.0030262399 0.014088105 0.087849915
0.0029491444 0.01257402 0.088696933
0.0030304216 0.010887446 0.08924889
0.0033898901 0.0090711629 0.089865467
0.0035403489 0.0073568347 0.091064211
0.0038709045 0.0058749677 0.092067923
0.0040568103 0.0044246786 0.092905037
0.0041641904 0.0029075991 0.09389251
0.0042440762 0.0013984178 0.095091963
0.0040549722 -0.00021103989 0.096917855
0.0041906308 -0.001853238 0.098944888
0.0042278219 -0.0034644196 0.10015151
0.0041779044 -0.0051602511 0.10117504
0.0042557902 -0.0068120985 0.10231655
0.0043172765 -0.0086761737 0.10336859
0.004405708 -0.010649611 0.10547522
0.0046268368 -0.012877408 0.10771327
0.0048627917 -0.015120024 0.1102763
0.0047196135 0.01665399 0.084264485
0.0045176436 0.015536545 0.086139212
0.0044206971 0.014139987 0.087760833
0.0044273732 0.012676178 0.088528266
0.0044496052 0.01108802 0.089531835
0.0047874508 0.0094227552 0.090465612
0.00494625 0.0078623459 0.091537051
0.0050388701 0.0064338798 0.092944594
0.0053119509 0.0049304324 0.093945669
0.0053581265 0.0034867186 0.095117371
0.0051941496 0.001948579 0.096766214
0.0053791405 0.00017237842 0.098524629
0.0058905293 -0.0017256426 0.099783392
0.0059316605 -0.0033371174 0.10076829
0.0060307323 -0.005105444 0.1016543
0.0059776637 -0.0068269459 0.10272628
0.0060718194 -0.0086533267 0.1038999
0.006160667 -0.010929542 0.10543842
0.0064826957 -0.013261821 0.10775989
0.0059483528 0.016547218 0.084882907
0.0059755732 0.015547915 0.086265787
0.0059156843 0.014143144 0.08757261
0.005909727 0.012678802 0.088272022
0.0059077286 0.011213498 0.089486953
0.0062682457 0.0097868726 0.09044639
0.0064909019 0.0082973952 0.091828529
0.0064673065 0.0068906711 0.093348494
0.0066010781 0.0054321112 0.094765129
0.0068009591 0.0036108817 0.096448103
0.0068184776 0.0021392816 0.098235621
0.0073651385 0.00018719748 0.099632238
0.0076285581 -0.0016447772 0.10040551
0.0077059717 -0.0033550641 0.10134456
0.0077547343 -0.00508856 0.10241411
0.007742484 -0.00683348 0.10347157
0.0079051063 -0.0089314854 0.10431664
0.0081203296 -0.011329522 0.1059102
0.0083788004 -0.013794689 0.10774016
0.0087796971 -0.015899587 0.10913588
0.0073007268 0.017350067 0.08355772
0.0074096626 0.016546834 0.0851048
0.0073951786 0.015518484 0.086492422
0.0074045934 0.014143041 0.087767125
0.0073483507 0.01268239 0.088278927
0.0074014767 0.011083189 0.089535443
0.0076015709 0.0097248185 0.09050635
0.0079216316 0.0085520009 0.091721253
0.0078068421 0.0073239511 0.094197997
0.0082604324 0.0054996765 0.095293
0.0084581963 0.003678565 0.096875875
0.0086424914 0.0020352393 0.099043883
0.0089837604 0.00024962198 0.10015521
0.0092743619 -0.0015658245 0.10105306
0.0094253536 -0.0032755499 0.10209699
0.0094845496 -0.0051054963 0.1029578
0.0095865791 -0.0069938571 0.10416135
0.0097865304 -0.0091171971 0.10507171
0.010005267 -0.011642036 0.10625618
0.010156307 -0.014277733 0.10743487
0.0086912486 0.017341345 0.083589625
0.0088087483 0.016476566 0.08512194
0.0088423834 0.015413182 0.08647714
0.0088176295 0.014080209 0.087761163
0.0088754525 0.012542053 0.088575627
0.0089615564 0.011027155 0.089636759
0.0090345362 0.0096025283 0.090442511
0.0091929608 0.0081149584 0.091493385
0.0095464954 0.0073390291 0.094392496
0.010002023 0.0053743565 0.095357317
0.010213468 0.0037516528 0.097727227
0.01036811 0.0021148847 0.099436668
0.010599921 0.00036590592 0.10025536
0.010823033 -0.001363686 0.10150199
0.011118797 -0.0031919859 0.10258362
0.011242773 -0.0050428773 0.10338327
0.011425289 -0.0069715852 0.10477771
0.011623723 -0.009169805 0.10585614
0.01183042 -0.011942257 0.10688482
0.011941677 -0.014552655 0.10794015
0.010061656 0.017371379 0.083636661
0.010158111 0.016517604 0.084919503
0.010131615 0.015425516 0.08627047
0.010266389 0.014054326 0.087422348
0.010386735 0.012628237 0.088251653
0.010478829 0.011124483 0.08942461
0.010556651 0.0097298126 0.090422086
0.010641203 0.0082945384 0.091442312
0.011225837 0.0070125874 0.093970575
0.011568455 0.0052821533 0.095729394
0.011836074 0.0038023128 0.098007679
0.012121423 0.0021716862 0.099626632
0.012406327 0.00047255364 0.10047552
0.012578692 -0.0012907783 0.10163904
0.012833407 -0.003065162 0.10279376
0.013063029 -0.0048927012 0.10394132
0.013278944 -0.0068738418 0.10542183
0.013402819 -0.0095284089 0.10678303
0.013652291 -0.012311374 0.10782274
0.013798571 -0.014511909 0.10865246
0.011514256 0.017694161 0.084225658
0.011579205 0.016687639 0.085089673
0.011519816 0.015510259 0.08637817
0.01174938 0.014082506 0.08749513
0.011907197 0.012650769 0.088198957
0.011941291 0.011187538 0.089217921
0.012030383 0.0098124748 0.09019449
0.012102177 0.0083726439 0.091215719
0.012281074 0.0071581966 0.093701348
0.013126139 0.0051717531 0.095848666
0.013517634 0.0037022473 0.097920391
0.013857507 0.0021758678 0.099770745
0.0141415 0.00057740332 0.10080736
0.01439079 -0.0011142831 0.10162473
0.014624138 -0.0029127793 0.10312581
0.014832851 -0.0048140382 0.10424442
0.015071817 -0.0069398026 0.10636043
0.015275911 -0.01014778 0.10803577
0.015614492 -0.012499387 0.10933529
0.012914411 0.017716322 0.084270547
0.012959172 0.016854296 0.085487553
0.012981377 0.015623769 0.086438365
0.013244053 0.014076862 0.08779322
0.013394548 0.012657611 0.088409525
0.013411418 0.011260983 0.089372183
0.013508279 0.0098892234 0.090278342
0.013621475 0.0084856645 0.091382732
0.013784435 0.0071260413 0.093242123
0.014646714 0.005043393 0.09579328
0.015312056 0.0036772778 0.098356097
0.015689349 0.0021629872 0.099836591
0.016016348 0.00051240618 0.10123503
0.016106887 -0.0011199875 0.10192658
0.016410429 -0.0028808139 0.1034875
0.016748883 -0.0048441973 0.10533791
0.017121977 -0.0072378513 0.10775631
0.017413742 -0.010026724 0.10960475
0.014455448 0.017852045 0.084685211
0.014531989 0.016994345 0.085871443
0.014560382 0.015842458 0.086909782
0.014765757 0.014233221 0.087666639
0.014889124 0.012849018 0.088645366
0.014993778 0.011392448 0.089685678
0.015053758 0.0099332492 0.090649713
0.015177325 0.0085667574 0.092220947
0.015580244 0.0071973134 0.093926322
0.016116392 0.0052883513 0.095786618
0.016969715 0.0036765446 0.098500571
0.017417463 0.0021267414 0.099942536
0.017740152 0.00054259294 0.10132524
0.017986207 -0.0011033019 0.10241289
0.018279037 -0.0029551843 0.10393839
0.018802868 -0.0049988498 0.10652514
0.019539753 -0.0076120541 0.1098297
0.016078447 0.018142386 0.085448343
0.0161396 0.017114533 0.086494185
0.016170097 0.01581345 0.087410348
0.016336845 0.0144631 0.088238091
0.016457558 0.012998266 0.088991394
0.016617879 0.011527006 0.090278269
0.01662047 0.010014938 0.091141198
0.016890007 0.0085933967 0.092522906
0.01739859 0.0071456573 0.094706629
0.01770028 0.0054934055 0.095927682
0.018567027 0.0038303565 0.098468647
0.019125208 0.0022125246 0.099820683
0.019540874 0.00067324369 0.10140674
0.020024428 -0.0012036595 0.10299507
0.020433782 -0.003212747 0.10486673
0.021069415 -0.0053452052 0.10787404
0.021866939 -0.0075392471 0.11081879
0.017682998 0.018301354 0.086152841
0.017758796 0.017192667 0.087104113
0.017756439 0.015879032 0.087792607
0.017926897 0.014589087 0.088836518
0.018094938 0.013152075 0.089690188
0.018400949 0.011611488 0.090506696
0.018257568 0.010040762 0.091275774
0.018408289 0.0085463132 0.09240983
0.019091271 0.0071309467 0.095179471
0.019501665 0.005576625 0.096531668
0.020595612 0.0038745775 0.099015951
0.021032304 0.00228011 0.10039427
0.021526009 0.00055030047 0.1018874
0.022078745 -0.001592503 0.10360711
0.023001909 -0.0037036271 0.10623802
0.023416628 -0.0055034499 0.10915293
0.019159311 0.0183231 0.086251167
0.019385734 0.017216564 0.087419301
0.019478917 0.015951602 0.088249767
0.019675803 0.014600711 0.089136369
0.019831964 0.013004563 0.089642279
0.020025545 0.011442789 0.090446647
0.019923616 0.0099445601 0.091328321
0.020063172 0.0085244204 0.092562096
0.020774509 0.0070887108 0.095319119
0.021273011 0.0056184944 0.096705389
0.022420647 0.0038321764 0.09910766
0.022887145 0.0022021566 0.10074826
0.023505817 0.00030184164 0.10235
0.024297124 -0.0017697936 0.10446346
0.025167298 -0.0036538933 0.10727206
0.025882079 -0.0056652047 0.11049526
0.020625065 0.018262523 0.086269378
0.020971304 0.017157559 0.087519939
0.021317074 0.015793826 0.088386851
0.02142869 0.014445915 0.089302234
0.021435794 0.012947931 0.089631011
0.021588368 0.011399468 0.09028983
0.021529213 0.0098709691 0.091155445
0.021825549 0.0084747118 0.093017985
0.022322414 0.0070167434 0.094969394
0.023028715 0.005399232 0.096231374
0.024180802 0.0037953448 0.099047501
0.025103426 0.0020551883 0.10187733
0.025583617 0.00014097162 0.10312521
0.026344308 -0.0016625493 0.10519432
0.027338861 -0.0036217959 0.10873413
0.022254278 0.018189653 0.086483825
0.022528916 0.01698556 0.08738441
0.022865619 0.015701106 0.088337116
0.023017449 0.014329746 0.089080527
0.023036664 0.01288427 0.089538406
0.023231128 0.011423957 0.090394059
0.024130741 0.010033933 0.09243896
0.024161223 0.0085461401 0.093772145
0.02448875 0.0068481153 0.095015278
0.025711268 0.0053666571 0.09750578
0.026572947 0.0038405928 0.099971175
0.027663556 0.0018508756 0.10308225
0.028047824 0.00028771224 0.10481134
0.028638873 -0.001552619 0.10677736
0.029599205 -0.0036997277 0.11022795
0.023819932 0.01804524 0.086466564
0.024167219 0.016916936 0.087551726
0.024417962 0.015631814 0.088417735
0.024545594 0.0142465 0.088954409
0.024658073 0.012854751 0.089603329
0.025038935 0.011551502 0.090618998
0.025727596 0.01019964 0.091930813
0.026012431 0.0087311293 0.092938901
0.026448239 0.0071443155 0.094589265
0.027681566 0.0055307038 0.097690447
0.028838509 0.0037508503 0.10124585
0.030212308 0.0019322414 0.104241
0.030607482 0.00028080258 0.10635241
0.03094167 -0.0014059454 0.108351
0.031719288 -0.0034925298 0.11088334
0.025283315 0.017917197 0.086188109
0.025695875 0.016814288 0.08747162
0.025968335 0.015544779 0.088426644
0.026096115 0.014221269 0.088958449
0.026217599 0.012789376 0.089535068
0.026676676 0.011464592 0.090084903
0.027016304 0.010137272 0.09097219
0.027382534 0.0087585455 0.092121367
0.0277953 0.0071804978 0.093479711
0.029277022 0.00564789 0.097280987
0.031302932 0.0036569235 0.10260307
0.032292061 0.0020092512 0.1055076
0.032642272 0.00034879783 0.10712728
0.033139149 -0.0012924423 0.10942615
0.026819352 0.017870915 0.086302283
0.027189202 0.016777653 0.087384804
0.027553453 0.015548473 0.088207968
0.027849505 0.014328376 0.089129299
0.028132553 0.012797266 0.089401111
0.028265002 0.011421767 0.089834907
0.028458489 0.010111943 0.090570581
0.028862244 0.0087656936 0.09192541
0.030212737 0.0074614997 0.095181864
0.030985116 0.0057473522 0.097461978
0.033720721 0.0035912539 0.10390617
0.034419163 0.0021681085 0.10686194
0.034848006 0.00051651145 0.10867418
0.035513092 -0.0011187923 0.1108989
0.027986242 0.017726974 0.085439462
0.028667137 0.016835704 0.087297467
0.029107053 0.015672295 0.088242
0.029423256 0.014276581 0.088803476
0.029597558 0.012754467 0.089101546
0.029727717 0.011366682 0.089617074
0.029846872 0.010032497 0.090256867
0.030457829 0.0087804483 0.09208839
0.031753506 0.0075294377 0.095073154
0.032412945 0.0058458295 0.096755945
0.03645195 0.0037289139 0.1067611
0.036988946 0.0020584217 0.10853478
0.037270813 0.00037384065 0.10993689
0.038234456 -0.0015057665 0.11161955
0.028935698 0.017422945 0.084007783
0.029853344 0.016733507 0.086389283
0.0304038 0.015521031 0.087627161
0.030829774 0.014195578 0.088514988
0.031021937 0.012715084 0.088848251
0.031212065 0.011327728 0.089477593
0.031577589 0.0099942982 0.090612479
0.031905807 0.008716954 0.091647161
0.032911236 0.0073954512 0.093981781
0.035095906 0.0053898582 0.098871928
0.03904821 0.0037456884 0.10772914
0.039455969 0.0020943363 0.10954622
0.040034215 0.00018951314 0.11093541
0.040396425 -0.0014111753 0.11201
0.03082243 0.016421399 0.084920946
0.031585602 0.015315965 0.086523446
0.032156033 0.014040207 0.087550814
0.032401446 0.012598219 0.088354479
0.032629557 0.01114267 0.089117185
0.033049452 0.0097524001 0.090358323
0.033515086 0.008512777 0.091785794
0.034471395 0.0071581667 0.094095423
0.039553437 0.0047024867 0.10379807
0.04104494 0.0037133899 0.10805461
0.041689083 0.0020520379 0.11010475
0.042110676 0.00011185252 0.11116226
0.042789684 -0.0015143731 0.1121977
0.032651588 0.015202334 0.084734497
0.033309588 0.013944682 0.08604641
0.033882063 0.012579657 0.088022548
0.034256921 0.01098442 0.088964478
0.034531967 0.0095810228 0.090058169
0.03498933 0.0083338554 0.09143163
0.037135875 0.006738199 0.096155145
0.04148973 0.0046441239 0.10418861
0.042751772 0.0037455802 0.10790103
0.043427681 0.0020929896 0.10954975
0.043969391 0.00012147946 0.1107998
0.044261061 -0.0017466652 0.11140777
