ply
format ascii 1.0
comment Automatically gnerated by model-converter
element vertex 764
property float x
property float y
property float z
element face 0
property list uchar int vertex_indices
end_header
-0.029429611 0.018133582 0.088185243
-0.029943425 0.016809905 0.089801229
-0.030078217 0.015278837 0.090401195
-0.030227083 0.01366388 0.090823762
-0.030490485 0.012054486 0.091582217
-0.030950871 0.010699003 0.092629611
-0.031300693 0.0093935155 0.093621373
-0.031651422 0.0081364065 0.094470654
-0.032500047 0.0069607382 0.096045751
-0.033653941 0.0062030731 0.098950122
-0.034865795 0.0047952773 0.10212468
-0.035304181 0.0029757976 0.10310551
-0.035404425 0.0012040518 0.10318083
-0.035385231 -0.00060105483 0.10330243
-0.035512366 -0.0026898318 0.10374727
-0.035954967 -0.0049996213 0.10499116
-0.036698572 -0.0075380542 0.10755251
-0.028459761 0.018342084 0.08937544
-0.028731662 0.017018628 0.090625033
-0.028848638 0.01544071 0.091066151
-0.028991091 0.013807553 0.091447137
-0.029331227 0.012248023 0.09229657
-0.029758819 0.01086579 0.093308449
-0.030239258 0.0096667996 0.094642315
-0.030804022 0.0084206541 0.095726345
-0.031514475 0.0072796824 0.09741864
-0.03250359 0.0063327921 0.10000785
-0.033476758 0.0046626213 0.10268191
-0.033910945 0.0028413101 0.10387874
-0.034036858 0.0011424798 0.1040131
-0.034081174 -0.00081672624 0.10438514
-0.034299761 -0.0030232389 0.10502569
-0.034618084 -0.0053337089 0.1061106
-0.03519075 -0.0076525391 0.1076844
-0.026690524 0.01833017 0.08832958
-0.027196169 0.017137227 0.090236824
-0.027559519 0.015463214 0.091548477
-0.027717004 0.01388326 0.092154235
-0.028054277 0.01250132 0.093074635
-0.028367936 0.011062678 0.09395606
-0.028795577 0.009730034 0.095169496
-0.02938366 0.0085691461 0.096316867
-0.030230649 0.0074998445 0.098618239
-0.031067102 0.0063611705 0.10097081
-0.031845534 0.0046337419 0.10305327
-0.032409195 0.002708454 0.10464841
-0.032542983 0.00086595307 0.10532338
-0.032614315 -0.0011220596 0.10553107
-0.032872103 -0.0031587966 0.10618983
-0.033205078 -0.0055303332 0.10733416
-0.033509932 -0.0076911231 0.10839456
-0.025020333 0.018358725 0.087778836
-0.025636845 0.017256168 0.089914851
-0.026274891 0.015687802 0.092054785
-0.026436439 0.014070887 0.092989877
-0.026975114 0.012832635 0.094461732
-0.027212582 0.0113303 0.095125936
-0.027518344 0.0098837832 0.095994313
-0.027990771 0.0086567104 0.097184882
-0.028704246 0.0075371989 0.099182476
-0.029521882 0.0063371013 0.1019288
-0.03020585 0.0046581214 0.10348974
-0.030681629 0.002801018 0.10494917
-0.030972174 0.00065231681 0.10618838
-0.031109038 -0.0014064362 0.10674862
-0.031295102 -0.0032781922 0.10721537
-0.03166443 -0.0052419573 0.10806284
-0.031926744 -0.0074762286 0.10921971
-0.023510896 0.018389163 0.087758083
-0.024194116 0.017360278 0.090098273
-0.024920268 0.015975887 0.092232946
-0.024956129 0.014515111 0.093516219
-0.025412797 0.012908293 0.094748304
-0.025622544 0.011389809 0.0954903
-0.026137077 0.0099470055 0.096865888
-0.026576041 0.0087570171 0.098274667
-0.027134643 0.0074330776 0.099622603
-0.027768114 0.00619228 0.10200036
-0.028372421 0.004660398 0.10326534
-0.028684311 0.00278264 0.10477328
-0.029387248 0.00072105424 0.10659316
-0.029510621 -0.0015086595 0.10747756
-0.029738363 -0.0034111888 0.10814306
-0.030003321 -0.0052856349 0.10888972
-0.030169405 -0.0071608317 0.10972034
-0.021913892 0.018338422 0.087427854
-0.022823026 0.017326932 0.090332855
-0.023286267 0.016104687 0.092380606
-0.023424592 0.014758341 0.093408041
-0.023688906 0.013053795 0.094676319
-0.023979096 0.011401217 0.095755964
-0.024627794 0.01004006 0.097506926
-0.025037313 0.0086653921 0.098561018
-0.025426311 0.0073242083 0.099873185
-0.025922463 0.0059335726 0.10149349
-0.026178394 0.0042819271 0.10276356
-0.026812059 0.0025858784 0.10450709
-0.027386882 0.00055266702 0.10640165
-0.02775856 -0.0014257007 0.10778098
-0.02792937 -0.0034246538 0.10851254
-0.028044889 -0.0052793883 0.10930057
-0.028211195 -0.0071521371 0.11011015
-0.020245563 0.018192045 0.087039329
-0.021218593 0.017345419 0.090144124
-0.021613419 0.016208011 0.092244577
-0.021851286 0.014842351 0.093585588
-0.022101164 0.013360278 0.094748885
-0.022437447 0.011571948 0.096059143
-0.023068858 0.010088716 0.097836375
-0.023332913 0.0086644319 0.098784082
-0.023617598 0.0072197507 0.099842053
-0.023938009 0.0057751548 0.10109042
-0.024216952 0.0041241662 0.102145
-0.024676099 0.0023675374 0.10400819
-0.025432652 0.00053162136 0.10622119
-0.025939168 -0.0014067191 0.10783309
-0.026142316 -0.0032820129 0.10876598
-0.026138259 -0.0051766208 0.10965728
-0.026526218 -0.006893425 0.11010962
-0.018887807 0.018116423 0.087270234
-0.019574815 0.017310513 0.089827449
-0.019998306 0.016221966 0.092171584
-0.020212413 0.014865304 0.093481407
-0.020518286 0.013430074 0.094986975
-0.020749865 0.011762327 0.096079003
-0.021282532 0.010126775 0.097741593
-0.021583076 0.0085812234 0.098813422
-0.021853853 0.00703405 0.099670052
-0.022165358 0.0055976682 0.1008576
-0.022375732 0.0039067769 0.10163691
-0.022771924 0.0022877658 0.10333919
-0.023287018 0.00049039981 0.10550528
-0.023927869 -0.0012850547 0.10744255
-0.024213617 -0.0031160025 0.10849755
-0.02426618 -0.0050726883 0.10935833
-0.024217771 -0.0069078384 0.11012415
-0.017312092 0.018187606 0.087027207
-0.017780135 0.01721369 0.089315288
-0.018215488 0.016188683 0.091644019
-0.01851694 0.01487753 0.093447805
-0.01885756 0.013429961 0.095017407
-0.019018685 0.011701886 0.095977347
-0.019414526 0.010056568 0.097388275
-0.019851443 0.0085879718 0.098964647
-0.020132427 0.0070053851 0.09985444
-0.02032414 0.0054196042 0.10055663
-0.02055225 0.0038051242 0.10138933
-0.020782691 0.0022004801 0.10280817
-0.021067365 0.00056311682 0.10432501
-0.021564209 -0.0013420306 0.10593232
-0.021978583 -0.003135504 0.10748985
-0.022292893 -0.0048972319 0.1083701
-0.022200215 -0.0067682627 0.10918142
-0.022147957 -0.0088251494 0.1099923
-0.015745366 0.018097971 0.08623784
-0.01614443 0.017150351 0.088663399
-0.016378311 0.016160603 0.09076893
-0.016742535 0.014869382 0.092940137
-0.017054224 0.013353503 0.094746794
-0.017184278 0.011712907 0.095912318
-0.017623623 0.0099957356 0.097200267
-0.018094763 0.0086292871 0.098929901
-0.018362395 0.0070287071 0.099818737
-0.01846301 0.0053837832 0.10038308
-0.01871051 0.0038146874 0.10117139
-0.018857498 0.0022297194 0.10216836
-0.019102103 0.00049939845 0.10352643
-0.019419443 -0.0013425521 0.10461043
-0.019655857 -0.0032280074 0.1056382
-0.019981203 -0.0051151256 0.10661481
-0.020154427 -0.0070946962 0.10744159
-0.02034338 -0.0089689205 0.10869758
-0.020625462 -0.010929457 0.11048589
-0.014169256 0.018158306 0.08567052
-0.014550971 0.017063872 0.087922796
-0.014721773 0.015924484 0.089984849
-0.014939807 0.014791127 0.092563663
-0.015148754 0.01319791 0.094339926
-0.015236078 0.011534453 0.095647689
-0.015793751 0.0099504409 0.09718448
-0.016303043 0.00853142 0.098852835
-0.016526486 0.0070032054 0.099819384
-0.016649288 0.0054469081 0.10032976
-0.016775846 0.0038811721 0.10080155
-0.016935184 0.0022302076 0.10156819
-0.01718652 0.00050168974 0.10266346
-0.017259143 -0.0013120411 0.10311289
-0.017365117 -0.0031762992 0.10375339
-0.017419607 -0.0048569143 0.10470533
-0.017819328 -0.0069631641 0.10597202
-0.01796659 -0.0088994717 0.10722193
-0.018292833 -0.010906738 0.10923098
-0.018404985 -0.012465086 0.1109619
-0.012631359 0.018194871 0.085226383
-0.013022876 0.01697588 0.087599539
-0.013081095 0.015808718 0.089340087
-0.013120018 0.014659295 0.091950942
-0.013290086 0.013133542 0.093701855
-0.013209906 0.011559066 0.095151887
-0.012899811 0.010078341 0.096606772
-0.013346873 0.0086099482 0.098424092
-0.014597723 0.0070879596 0.099547167
-0.014527984 0.0056538419 0.10006741
-0.014791284 0.0039573706 0.10058554
-0.014905097 0.0021818836 0.10091008
-0.015069343 0.0004847917 0.10153563
-0.015156468 -0.0012177572 0.10218391
-0.015194176 -0.0030068967 0.10255343
-0.01531403 -0.0047544085 0.1033791
-0.015600946 -0.006728142 0.10464593
-0.015786238 -0.0086469786 0.10597431
-0.016111392 -0.010620243 0.10792942
-0.016482286 -0.012680234 0.11061769
-0.011193023 0.018087289 0.084825725
-0.01140654 0.016895626 0.086756326
-0.011515211 0.015695893 0.088763122
-0.011427286 0.014418574 0.09072503
-0.0113562 0.013160273 0.092954516
-0.011139138 0.011672085 0.093903095
-0.010688749 0.010300735 0.095082976
-0.010114143 0.0090081952 0.096483003
-0.0095146261 0.0077333147 0.097898319
-0.012443004 0.005646951 0.099238109
-0.012924142 0.0038678429 0.099992516
-0.013103522 0.0021488464 0.10049537
-0.01317761 0.00039855253 0.10077069
-0.013251946 -0.0013575616 0.10112224
-0.01342075 -0.0031033205 0.10173682
-0.013464752 -0.0048333116 0.10268334
-0.013562405 -0.0066286458 0.10361315
-0.013750147 -0.0084285647 0.10496003
-0.014060784 -0.010450364 0.10696305
-0.014394515 -0.012460043 0.10963856
-0.0097848782 0.017960109 0.084291704
-0.0099314344 0.016807248 0.086344693
-0.010110849 0.015480354 0.088123329
-0.010030199 0.01412349 0.089799449
-0.0096223117 0.013040549 0.091561705
-0.0093077663 0.011743425 0.092741515
-0.0088014654 0.010408712 0.093635037
-0.0083197318 0.0090211127 0.094558052
-0.0075536883 0.007723801 0.095532223
-0.0074300161 0.0061696863 0.096821215
-0.0090559972 0.0042384847 0.098992676
-0.010977819 0.002190491 0.099697914
-0.011332392 0.00038412928 0.10013503
-0.0115283 -0.001390142 0.10034559
-0.011599044 -0.0031663967 0.10104449
-0.0116625 -0.0048851664 0.10230118
-0.01173499 -0.0065347226 0.10330297
-0.011738856 -0.0083121932 0.10427751
-0.011966976 -0.010193739 0.10624248
-0.012319732 -0.012311357 0.10868551
-0.0083302451 0.017909989 0.084101073
-0.0084914617 0.016727882 0.085809443
-0.0087586115 0.015394875 0.087252345
-0.0086239622 0.014042308 0.088856154
-0.0082120993 0.01292059 0.090367999
-0.0078465938 0.011574088 0.090843681
-0.0074553338 0.010235035 0.091501993
-0.0072066837 0.0087845819 0.092098545
-0.0068051087 0.0072643696 0.093130588
-0.0066758864 0.0057647396 0.09421324
-0.0070319413 0.0040539413 0.095910404
-0.0077229312 0.0022693395 0.097757131
-0.0085917082 0.00051216077 0.099150453
-0.0092497682 -0.0013139454 0.099659457
-0.0097938133 -0.0031812033 0.10054477
-0.009782054 -0.0047216199 0.10191702
-0.0098082982 -0.0063732651 0.10281476
-0.0098784906 -0.0081656417 0.10412971
-0.010131579 -0.010095099 0.10589139
-0.01030555 -0.012225833 0.10790299
-0.010530483 -0.014196065 0.11084436
-0.006944034 0.01786752 0.083661761
-0.0069970227 0.016708824 0.085068546
-0.0072157259 0.015355281 0.086495891
-0.0072747085 0.013904519 0.087665801
-0.0071603021 0.01261673 0.088773743
-0.0065776505 0.011534754 0.089717798
-0.0065053342 0.0097593637 0.089211866
-0.0063076197 0.0081877857 0.089879021
-0.0061056654 0.0067789526 0.091114662
-0.0059756656 0.0052764965 0.092222702
-0.0059647641 0.0036235858 0.093643047
-0.0062954668 0.0018981834 0.09531565
-0.0069797285 0.00012384753 0.097240251
-0.0073981497 -0.001636864 0.098840691
-0.0077947597 -0.0032202055 0.1004645
-0.0078851077 -0.0046855423 0.10173937
-0.0080036935 -0.0063471685 0.10266254
-0.0080604232 -0.008002792 0.10394407
-0.0082812025 -0.010232277 0.10548913
-0.0084596225 -0.012283648 0.10743251
-0.0086406423 -0.014465519 0.11071189
-0.0054905747 0.017899947 0.082988914
-0.0055374298 0.016695913 0.084357854
-0.0057153441 0.015350922 0.085657962
-0.0058546748 0.013911313 0.08658405
-0.0060070497 0.012410545 0.087330148
-0.0061032395 0.010938378 0.08728072
-0.0059027146 0.0095346519 0.087441083
-0.0058303671 0.0078766155 0.087740187
-0.0057601169 0.006248666 0.088560742
-0.0054916018 0.0047570639 0.090014823
-0.0050568541 0.0029173787 0.091483038
-0.0052231925 0.0013563947 0.093004495
-0.0053989305 -0.00032811283 0.095149301
-0.005713227 -0.0018608324 0.098171729
-0.006052723 -0.0034670444 0.099987429
-0.0061192191 -0.0048637942 0.10132444
-0.0062402918 -0.0065148303 0.10228762
-0.0062438236 -0.0081178355 0.10373229
-0.0064198644 -0.010274134 0.10524074
-0.0065277517 -0.012260687 0.10732375
-0.0067207415 -0.014522865 0.11062937
-0.004051504 0.016699842 0.083638683
-0.0042933211 0.015361876 0.085203938
-0.0044274373 0.014076187 0.08638718
-0.0045595639 0.012533222 0.087091587
-0.0045642034 0.011000185 0.086976726
-0.0046339544 0.0093887001 0.086615346
-0.0050594788 0.0076706714 0.086197391
-0.0050001517 0.0059974638 0.086540371
-0.0047854102 0.0043558026 0.08749073
-0.0037347787 0.002438416 0.090185043
-0.0037904648 0.0006794174 0.091377016
-0.0039557368 -0.0009124073 0.093367055
-0.0040274472 -0.0021267226 0.097656239
-0.0043298977 -0.0036548755 0.099471781
-0.0044351875 -0.0050370421 0.10063758
-0.0044951772 -0.0065287598 0.10197355
-0.0045159126 -0.0082058264 0.10349814
-0.004579782 -0.01025771 0.10522338
-0.0046813176 -0.012328464 0.10761943
-0.0047564872 -0.014578951 0.11066735
-0.0023027218 0.016764677 0.083262924
-0.0026323082 0.015676248 0.085481681
-0.0029450078 0.014194689 0.086750373
-0.0030398325 0.012653115 0.087236643
-0.003072963 0.011089954 0.087384805
-0.0030984969 0.009416488 0.086769022
-0.0033380941 0.0074530212 0.08599272
-0.0033587277 0.0057872999 0.085834283
-0.0031099137 0.0042225115 0.086799365
-0.0013458256 0.0014546653 0.089554708
-0.0015566527 7.4006205e-06 0.090878308
-0.0018166891 -0.0014970706 0.092500154
-0.0023572277 -0.0022829072 0.097043
-0.0025907762 -0.003659481 0.099400643
-0.0026517965 -0.0051254064 0.10066
-0.0027146961 -0.0066380583 0.10182379
-0.0027729794 -0.0082172491 0.1035138
-0.0028027424 -0.010190486 0.10509794
-0.0027850248 -0.012366661 0.10754239
-0.0029183876 -0.014707453 0.11028719
-0.0009070606 0.016730513 0.08346606
-0.0011941191 0.015586678 0.085495677
-0.0013930987 0.014172159 0.087156348
-0.0015425149 0.012683825 0.087601669
-0.0015995314 0.011119759 0.087842491
-0.0015581272 0.009531023 0.087770145
-0.0014392766 0.0073600912 0.086861424
-0.001524684 0.0058161561 0.086466726
0.00027948769 0.003210224 0.087736584
0.00071907541 0.0012793652 0.089452907
0.00042463781 -1.079681e-05 0.091254015
0.00016806284 -0.0013779528 0.093239882
-0.00067542633 -0.0023237553 0.096840694
-0.00086734607 -0.0036525776 0.099318537
-0.00091385879 -0.0051333991 0.10077672
-0.00092274152 -0.0066969425 0.10213445
-0.0010343984 -0.008382651 0.10342589
-0.0010505667 -0.010270727 0.10564812
-0.0010330725 -0.01259206 0.10789575
-0.00092129846 -0.015018732 0.11052226
0.00052309415 0.016703502 0.083579961
0.00025614863 0.01552549 0.085683368
0.00015829348 0.014184793 0.087196216
-3.1031686e-05 0.012629747 0.088098508
-6.8783915e-05 0.010980168 0.088385433
0.00035641971 0.0089666052 0.088504516
0.00080779078 0.0071003016 0.08860689
0.0015239088 0.0050861619 0.088747859
0.0020575509 0.0032002385 0.089917317
0.0020244096 0.0017190706 0.091002978
0.0020439826 0.00025982909 0.092256907
0.0015954046 -0.0011323719 0.094087604
0.0010449743 -0.0022279034 0.097200468
0.00083550412 -0.003702421 0.099200298
0.00080071175 -0.0051625392 0.10081388
0.00075866157 -0.0067468599 0.10214225
0.0007389466 -0.0085376599 0.10324619
0.00076691244 -0.010391938 0.10559638
0.00085049925 -0.012624204 0.10781345
0.00095505968 -0.015068313 0.11031823
0.0019211938 0.016667671 0.083761435
0.0017086938 0.015513023 0.085850719
0.0016188527 0.01415782 0.087491624
0.0015290575 0.012599093 0.088570952
0.0015236356 0.010776617 0.088916484
0.0019941662 0.0087666083 0.089369472
0.0023019374 0.0069710342 0.09024841
0.0028129674 0.0052603989 0.09065596
0.0030636339 0.0037688337 0.091640856
0.0032472206 0.0022388069 0.092596549
0.0032195459 0.00080204342 0.09369789
0.0029342994 -0.00079440104 0.095346891
0.0026970829 -0.0020919093 0.098090347
0.002593494 -0.0036197706 0.099532724
0.0025528021 -0.0052367134 0.10069586
0.0024815332 -0.0068028889 0.10216903
0.0025281896 -0.0086265472 0.10318202
0.0026427592 -0.010489896 0.10537504
0.0027576234 -0.012702178 0.10764953
0.0028469828 -0.015110855 0.11001782
0.0033256136 0.016622107 0.083817855
0.0031411477 0.015452794 0.085795812
0.0030253308 0.014044232 0.087804433
0.0029532173 0.012530129 0.088652097
0.0030458885 0.010827955 0.089198038
0.0034186599 0.0090125906 0.08982452
0.0035851547 0.0072984432 0.091012266
0.0039333224 0.0058168762 0.092009842
0.0041310927 0.0043645559 0.092847512
0.0042376486 0.0028440135 0.093842697
0.0043189549 0.0013445658 0.095021352
0.0041336078 -0.00027568963 0.096873939
0.0042347631 -0.0019000573 0.098912928
0.0042519013 -0.0034883255 0.10014065
0.004188418 -0.0051724396 0.1011814
0.0042565015 -0.0068127727 0.10233042
0.0043135993 -0.0086752829 0.10337995
0.0043988633 -0.010654502 0.10547959
0.0046061017 -0.012891064 0.10771167
0.0048315401 -0.015140843 0.11026925
0.0047059704 0.016590478 0.084207926
0.0045072331 0.015495745 0.086100891
0.0044124794 0.01410467 0.08772235
0.0044244269 0.012644745 0.088500976
0.0044606149 0.011051088 0.08950337
0.0048106204 0.0093806353 0.090430107
0.0049907912 0.007816114 0.09150292
0.0051001122 0.0063812828 0.092892624
0.005371188 0.0048860628 0.093887679
0.0054268232 0.003436849 0.095070459
0.0052650576 0.0018832225 0.096723884
0.0054411674 0.00012248997 0.098487694
0.0059094702 -0.0017390199 0.099798142
0.0059624784 -0.0033507587 0.10078715
0.0060383649 -0.0051123707 0.10167656
0.0059785428 -0.0068270634 0.10275181
0.0060657425 -0.0086582829 0.10391325
0.0061495155 -0.010937306 0.10544876
0.0064595867 -0.013270635 0.10777132
0.0059389907 0.016505229 0.084840063
0.0059651409 0.0155122 0.086236529
0.0059065693 0.014118391 0.087550063
0.0059060119 0.01266001 0.088264532
0.0059111091 0.011198497 0.089482836
0.0062880749 0.0097625004 0.09043593
0.0065313797 0.0082628452 0.091796477
0.0065225749 0.0068487716 0.093307662
0.0066578223 0.0053926681 0.094726879
0.0068435247 0.0035761178 0.096428182
0.0068407312 0.0021202412 0.098222819
0.0073545557 0.00021305762 0.099715139
0.0076341033 -0.0016401886 0.10044987
0.0077118941 -0.0033557947 0.10137235
0.0077556537 -0.0050928662 0.1024468
0.0077375127 -0.0068292014 0.10350952
0.0078975619 -0.0089392918 0.10433365
0.0081074261 -0.011338352 0.1059265
0.0083597266 -0.01380025 0.10776876
0.0087796971 -0.015899587 0.10913588
0.0072842543 0.017305223 0.083518233
0.0073943946 0.016513621 0.085070427
0.0073830557 0.015494031 0.086467583
0.0073949189 0.014127812 0.087753262
0.0073445923 0.01267301 0.088283691
0.0073997676 0.011084826 0.089555259
0.0076099939 0.0097295865 0.090529829
0.0079542822 0.0085391421 0.091727782
0.0078548395 0.0072888539 0.094151605
0.0083026127 0.0054714142 0.095281184
0.0084780967 0.0036677895 0.096895397
0.0086390614 0.0020507037 0.09909407
0.0089693199 0.00029339914 0.10026738
0.00926719 -0.0015434854 0.10113261
0.0094186426 -0.0032723044 0.10214014
0.0094790952 -0.0051042127 0.1030024
0.0095732924 -0.0069876584 0.10421149
0.0097709429 -0.0091193812 0.1050996
0.0099838296 -0.011641635 0.10629618
0.010129887 -0.014278093 0.10747196
0.0086732609 0.017301378 0.083550475
0.008792527 0.016446631 0.08509592
0.0088292863 0.015396309 0.086460162
0.0088035101 0.014070505 0.087767717
0.0088687256 0.012543488 0.088595856
0.0089553706 0.011043842 0.089679063
0.0090301838 0.0096374434 0.090513695
0.0091949599 0.008155583 0.091571033
0.0095855989 0.0073144008 0.0943611
0.010031552 0.0053636765 0.095389318
0.010215713 0.0037671998 0.097784508
0.010357784 0.0021530588 0.099530652
0.010582754 0.00043791255 0.10041815
0.010809105 -0.0013124434 0.10163493
0.011111907 -0.0031756385 0.10265034
0.011236988 -0.0050462285 0.10341983
0.011418951 -0.0069822888 0.10480648
0.011610182 -0.0091790515 0.10589468
0.011807136 -0.011945717 0.10692011
0.011914827 -0.014560336 0.10796401
0.010043697 0.017335831 0.083598126
0.010139533 0.0164918 0.084896773
0.010117895 0.015421083 0.0862615
0.010254869 0.014055288 0.087433115
0.010379249 0.012638817 0.088286657
0.010472595 0.0111522 0.089482285
0.010546751 0.0097834724 0.090515449
0.010636569 0.0083637396 0.091567297
0.01123851 0.0070417814 0.094032072
0.011587813 0.0052928929 0.095787015
0.011832156 0.0038347468 0.098091762
0.01211 0.0022230916 0.099744144
0.012389391 0.00054129268 0.10063282
0.012565265 -0.001256258 0.10175054
0.012827847 -0.0030572773 0.10284132
0.013063325 -0.0049096844 0.10395774
0.013284569 -0.0068950865 0.10541978
0.013392201 -0.009543248 0.10681309
0.013636662 -0.012329333 0.10783364
0.013781217 -0.014536257 0.10864675
0.011495234 0.017667882 0.084177655
0.011564392 0.016675176 0.085060749
0.011508429 0.015504946 0.086384263
0.01173654 0.014089535 0.087511283
0.0118984 0.012668497 0.088242594
0.011932244 0.011220464 0.089297231
0.012018956 0.009862341 0.09029087
0.012085038 0.0084383916 0.09133143
0.012266848 0.0072402342 0.09380595
0.013129603 0.0051946607 0.095926259
0.01351424 0.0037426587 0.098016661
0.013846695 0.0022317291 0.099893177
0.014128495 0.00062957868 0.10093568
0.014378016 -0.0010819107 0.10170692
0.014623839 -0.0029207998 0.10314931
0.014839752 -0.0048414655 0.10423611
0.015088812 -0.0069858702 0.10632934
0.015280124 -0.010182584 0.10803101
0.01562537 -0.012546659 0.10929987
0.012900541 0.017685808 0.084218096
0.012949007 0.016850135 0.085462812
0.012968884 0.015632863 0.086450878
0.013230787 0.0140907 0.087812815
0.013384772 0.01267472 0.088446091
0.013395936 0.011287979 0.089433167
0.013492585 0.0099310865 0.090362434
0.01360336 0.0085438574 0.091487187
0.013766464 0.0072034111 0.093358181
0.014639984 0.0050760109 0.095879138
0.015304339 0.0037211071 0.098448731
0.015679788 0.0022113411 0.099932499
0.016006612 0.00054461326 0.10132082
0.016091361 -0.0011054209 0.10197433
0.016413649 -0.0029004186 0.10348211
0.016764416 -0.0048908852 0.10530721
0.017151441 -0.007311491 0.10769207
0.017450701 -0.010105372 0.10952858
0.014449888 0.017814215 0.084620498
0.014526692 0.016990816 0.08583644
0.014551851 0.015862337 0.086908393
0.014758794 0.014237096 0.087677669
0.01488283 0.012861283 0.08867101
0.014983033 0.011416439 0.089731537
0.015038894 0.0099727212 0.09072318
0.015161659 0.0086260978 0.092316888
0.015567531 0.0072588246 0.094020709
0.016105104 0.0053330676 0.095859643
0.016963377 0.0037122353 0.098581779
0.017407876 0.0021541599 0.10000808
0.017731449 0.00056308648 0.10138651
0.017980364 -0.0011032932 0.10244317
0.018282827 -0.0029810634 0.10392284
0.018823157 -0.0050553707 0.10648446
0.019580972 -0.0077092983 0.10974162
0.016082198 0.018105837 0.085363366
0.016142956 0.017104575 0.086447492
0.016169956 0.015812612 0.087393154
0.016335142 0.014465624 0.088234611
0.016453532 0.013009632 0.089010112
0.016610784 0.011552911 0.090316627
0.016608027 0.010059177 0.091212745
0.016878852 0.0086420271 0.092610206
0.017395598 0.0071889264 0.094786994
0.01769229 0.005528707 0.096007838
0.018560853 0.0038568787 0.098540593
0.019115468 0.0022315458 0.099876295
0.019530901 0.00068608415 0.10145636
0.020021492 -0.0012097416 0.10301264
0.020437068 -0.003240226 0.10485
0.021093594 -0.0054074147 0.10781943
0.021909822 -0.007646719 0.11072489
0.017697731 0.018264321 0.086055905
0.017771674 0.017175501 0.08704232
0.017764041 0.015870205 0.087759473
0.017935623 0.014585753 0.088820402
0.018098458 0.013167528 0.089701406
0.018401724 0.011643708 0.090541717
0.018248102 0.010068219 0.091332454
0.018395403 0.0085760751 0.092473995
0.019090182 0.0071613666 0.095237337
0.01949695 0.005602303 0.096600115
0.020588713 0.0038833059 0.099063482
0.021025405 0.0022812327 0.10042669
0.021519913 0.00054754744 0.10191653
0.022068582 -0.0015981324 0.10362014
0.022997202 -0.0037355862 0.10622083
0.023441294 -0.0055792439 0.10908964
0.019182395 0.018277476 0.086147789
0.019403958 0.017193504 0.087341383
0.019492032 0.015939881 0.088193879
0.01968741 0.014596015 0.089098792
0.01983924 0.013015049 0.089648724
0.020029401 0.011469492 0.090486046
0.019915887 0.0099647683 0.091374148
0.020051829 0.0085382657 0.092608485
0.020773817 0.0071030536 0.095357541
0.021267615 0.00563479 0.096759658
0.022408601 0.0038233443 0.099122446
0.022881622 0.0021842194 0.10076466
0.023493973 0.00029549875 0.10236417
0.024284429 -0.0017865675 0.10446364
0.025168477 -0.0037115841 0.10722194
0.025908059 -0.0057529802 0.11041737
0.020656115 0.018214252 0.086169109
0.020996238 0.017125625 0.087430849
0.021336847 0.015757966 0.088294886
0.021441593 0.014425351 0.089239135
0.021442052 0.012940579 0.08960361
0.02159119 0.01140937 0.090305698
0.021516308 0.0098820366 0.091184658
0.021818922 0.008472851 0.093045991
0.02232133 0.0070154926 0.094997417
0.023007801 0.0053957408 0.096258741
0.024170422 0.0037709282 0.099058359
0.025100999 0.0020249229 0.10187506
0.025572255 0.00012639288 0.1031315
0.026332728 -0.0016894875 0.10516844
0.027347161 -0.0036879133 0.10866775
0.022292902 0.018148091 0.086393074
0.022560738 0.016950527 0.087305337
0.022887258 0.015661636 0.08825339
0.02303046 0.014293883 0.089003172
0.023043572 0.012857401 0.089483805
0.023231346 0.011411807 0.090365305
0.024093628 0.0099749327 0.092321668
0.024125796 0.0084809591 0.093676612
0.024441386 0.0067807112 0.094917528
0.025683351 0.0052992196 0.09747225
0.026554439 0.0037650664 0.099932758
0.027652286 0.0017912753 0.10305471
0.02803294 0.00024591816 0.10478007
0.028635814 -0.0016032524 0.10673425
0.029614462 -0.0037750486 0.1101487
0.0238649 0.018018476 0.086414493
0.024202265 0.016888276 0.087505915
0.02444113 0.01559238 0.088353566
0.024559055 0.014206067 0.088883936
0.024664483 0.012816648 0.089540526
0.025032791 0.011513306 0.090550993
0.025683942 0.010116152 0.091793191
0.02595607 0.0086328872 0.092781566
0.026373117 0.0070426513 0.094435397
0.027643534 0.0054312006 0.097626947
0.02881653 0.003656785 0.1011903
0.030191348 0.0018520797 0.10417179
0.030585958 0.00021461079 0.10628648
0.030924034 -0.0014544186 0.10830124
0.031732519 -0.0035664543 0.1107972
0.02534338 0.017921471 0.08619995
0.025736343 0.016791743 0.087458759
0.025992255 0.015501527 0.088378131
0.026111257 0.0141756 0.088896711
0.026223072 0.012746396 0.089476686
0.026668265 0.011412926 0.089996696
0.026991593 0.010072583 0.090848625
0.027341542 0.0086734406 0.091985729
0.027741406 0.0070932745 0.093348023
0.029233895 0.0055484837 0.097217322
0.031279432 0.0035733318 0.1025418
0.032256894 0.0019563288 0.10545609
0.032610973 0.00031565967 0.10708868
0.033105876 -0.0013071089 0.10940597
0.026904563 0.017905382 0.086364575
0.02724303 0.01676271 0.087397818
0.027589231 0.015496785 0.0881702
0.027864958 0.014253252 0.089057706
0.02813644 0.012772159 0.089359805
0.028255557 0.011389085 0.089770347
0.028434984 0.010061888 0.090480112
0.028822646 0.0086932099 0.091814611
0.030162732 0.0073792066 0.095120579
0.030934669 0.0056452018 0.097391363
0.033691075 0.0035322554 0.10384742
0.03437374 0.002148558 0.10683062
0.03480852 0.00051203136 0.10868078
0.035419526 -0.0010126971 0.11097314
0.028109895 0.017818633 0.085550297
0.028726415 0.016836599 0.087366197
0.029143589 0.015627779 0.088261031
0.029451774 0.014242614 0.088801257
0.02961344 0.012741881 0.089096207
0.029727956 0.011346495 0.089586675
0.029838616 0.010001026 0.090206076
0.030413639 0.0087109902 0.09202214
0.031700539 0.0074218996 0.095010158
0.032357895 0.0057295536 0.096692737
0.036423611 0.0036926805 0.1067125
0.036927543 0.0020899068 0.1085492
0.037151 0.00047284376 0.11004009
0.038110074 -0.001530079 0.11162242
0.029117783 0.017593125 0.084155175
0.029952171 0.016796322 0.086519041
0.030468008 0.015531296 0.08770936
0.030869159 0.014194601 0.088581164
0.031049725 0.012709769 0.088881728
0.031220086 0.011312738 0.089486371
0.031562221 0.0099589768 0.090601809
0.03187583 0.0086604478 0.091615222
0.032864981 0.0072828152 0.093918793
0.035049435 0.0052426711 0.098801873
0.039037675 0.003628015 0.10762733
0.039415088 0.0020222415 0.10949816
0.039962498 5.8971625e-05 0.11085175
0.04030069 -0.0015680676 0.11190264
0.030991585 0.016576016 0.085101336
0.031708388 0.015400403 0.086683299
0.032244393 0.014089305 0.087688211
0.032450026 0.012612801 0.088434528
0.032647135 0.011135139 0.089151475
0.033041426 0.0097178905 0.090364978
0.033487143 0.0084402408 0.091761205
0.034416817 0.0070439491 0.09404514
0.039537596 0.0045162314 0.10369383
0.041052017 0.0035362555 0.10794545
0.041663069 0.0018525875 0.10997604
0.042047125 -0.00011317349 0.11100279
0.0427022 -0.0017624407 0.11201595
0.032851931 0.01537788 0.084954902
0.033467635 0.014065421 0.086250521
0.033947967 0.01260605 0.088154595
0.034279404 0.010971319 0.089015636
0.034528349 0.0095356358 0.090071488
0.034961283 0.0082503813 0.091411542
0.037070412 0.00659033 0.096117828
0.041477617 0.0044245089 0.10409248
0.042753276 0.0035317889 0.10776732
0.043393612 0.0018507347 0.10938062
0.043904189 -0.00015109162 0.11059806
0.04416191 -0.0020299268 0.11118732
