ply
format ascii 1.0
comment Automatically gnerated by model-converter
element vertex 764
property float x
property float y
property float z
element face 0
property list uchar int vertex_indices
end_header
-0.029345831 0.01816009 0.088116172
-0.029858519 0.016763503 0.089664962
-0.029980052 0.015196974 0.09020855
-0.03011419 0.01355908 0.090590341
-0.030365516 0.011925693 0.091321285
-0.030829499 0.010563917 0.092368488
-0.031199716 0.0092743039 0.093382504
-0.031572641 0.0080396175 0.09426205
-0.032463838 0.0069232254 0.095883686
-0.033646343 0.006278217 0.098897543
-0.034843597 0.0048448104 0.1021078
-0.035283784 0.00300605 0.10305443
-0.035397431 0.0012184801 0.10309051
-0.035394827 -0.00060999635 0.10318798
-0.035562872 -0.0027004727 0.10364837
-0.036029742 -0.0050148357 0.10489586
-0.036777084 -0.0075593188 0.10748894
-0.028386959 0.018346916 0.089323884
-0.028657137 0.016969262 0.090512682
-0.028760851 0.015361325 0.090894426
-0.028886491 0.013706315 0.091229306
-0.029215742 0.012124748 0.092049233
-0.029646954 0.01074045 0.093063313
-0.030151056 0.0095583313 0.094413006
-0.030744402 0.0083505154 0.095534584
-0.031487002 0.0072757884 0.097290611
-0.032485809 0.006417862 0.099971335
-0.033448743 0.0046886245 0.10264107
-0.033881368 0.0028429611 0.10380659
-0.03402279 0.0011328766 0.10389327
-0.034086045 -0.00085401889 0.10425502
-0.034347519 -0.0030564171 0.10491882
-0.034685237 -0.0053732264 0.10600648
-0.035269613 -0.0076827208 0.10760369
-0.026616382 0.018390357 0.088308401
-0.027126043 0.017127572 0.090167199
-0.027479259 0.015391287 0.091398045
-0.027621201 0.013781404 0.091951013
-0.027953239 0.012385436 0.092848023
-0.028269399 0.010948505 0.093733312
-0.028714487 0.0096240987 0.09495818
-0.029331247 0.0085024152 0.096138577
-0.030202344 0.0075226684 0.098527099
-0.031036402 0.0064523361 0.10093958
-0.031808671 0.0046382163 0.10295917
-0.032353964 0.0026671228 0.10452333
-0.032493583 0.00080061544 0.10514071
-0.032605512 -0.0011917472 0.10536169
-0.032919017 -0.003196586 0.10610578
-0.033265693 -0.0055819894 0.10723523
-0.033585328 -0.007732277 0.1083142
-0.024947415 0.018448006 0.087772603
-0.025572079 0.017275873 0.08987677
-0.026208069 0.015624127 0.091939644
-0.026345674 0.013958104 0.092785662
-0.02688958 0.012713587 0.094234665
-0.027129301 0.011214216 0.094902603
-0.027444943 0.0097761134 0.095785601
-0.027947232 0.008587285 0.097021176
-0.02866799 0.0075530302 0.099110384
-0.029486636 0.0064154663 0.10188556
-0.030155921 0.00465441 0.10337016
-0.030603037 0.0026993622 0.1047335
-0.030888428 0.00054035452 0.1059234
-0.031078778 -0.0014936921 0.10652858
-0.031323674 -0.0033364323 0.10709746
-0.031728441 -0.0052694299 0.10800795
-0.031999659 -0.0075051232 0.1091661
-0.023443145 0.018477409 0.087760841
-0.024136592 0.017372031 0.090069846
-0.024868199 0.015914843 0.092149095
-0.024885056 0.014396498 0.093351837
-0.025329099 0.012779936 0.094535038
-0.02554145 0.011262019 0.095272605
-0.026065655 0.0098167807 0.096642934
-0.026525914 0.0086716154 0.098134959
-0.027098319 0.0074389701 0.099530127
-0.027732606 0.0062548323 0.10195022
-0.028347008 0.0046894487 0.10317796
-0.028625479 0.0026238215 0.1044774
-0.029302202 0.00056587086 0.10628623
-0.029471533 -0.0016182738 0.10722544
-0.029749694 -0.0034750842 0.10799445
-0.030051063 -0.0053139439 0.10882197
-0.030234494 -0.0071716964 0.10967271
-0.021848591 0.018429803 0.087430391
-0.022772561 0.017323401 0.090307171
-0.023242612 0.016043533 0.092313017
-0.023382968 0.014675568 0.09331642
-0.023617834 0.012919223 0.094494193
-0.023896566 0.011256738 0.095539819
-0.024555033 0.0099215849 0.097298452
-0.024992076 0.0085851542 0.098422221
-0.02539078 0.0073008786 0.0997832
-0.025896104 0.0059636973 0.10144481
-0.026172853 0.0042279471 0.10266581
-0.026828236 0.0024151023 0.10426061
-0.027364814 0.00039658176 0.10613732
-0.02772581 -0.0015597447 0.10751975
-0.027916951 -0.0035321569 0.10830122
-0.028048411 -0.0053600889 0.10914299
-0.028223286 -0.0072076753 0.11000355
-0.020193188 0.018273651 0.087039542
-0.021171321 0.01733908 0.090119036
-0.021574333 0.01615406 0.092188857
-0.021812425 0.0147669 0.093507431
-0.022053846 0.013251394 0.094620739
-0.022374597 0.01142363 0.095852181
-0.023011378 0.0099698234 0.097654271
-0.023286687 0.0085773471 0.098635959
-0.023584395 0.0071714317 0.099743264
-0.02391997 0.0057614552 0.10103799
-0.024211545 0.0040811459 0.10206867
-0.024681065 0.0022620374 0.10384966
-0.025427274 0.00038303179 0.10598091
-0.02591988 -0.0015388657 0.10759136
-0.026134287 -0.0033970763 0.10855233
-0.026128433 -0.0052617051 0.10948251
-0.02652884 -0.0069713908 0.1099649
-0.018859934 0.018143667 0.087259842
-0.019529883 0.017302369 0.089800344
-0.019962336 0.016178445 0.092126712
-0.020178753 0.014803127 0.093419807
-0.020479879 0.013332483 0.094880611
-0.020694206 0.01159742 0.095880841
-0.021233169 0.0099851088 0.097563667
-0.02154689 0.0084700217 0.098668281
-0.021835915 0.0069585441 0.099562922
-0.022148279 0.0055473651 0.10079288
-0.022366148 0.0038591897 0.10156729
-0.02276902 0.00221737 0.10323624
-0.023289344 0.00038688214 0.1053587
-0.02391546 -0.00141087 0.1072288
-0.024202166 -0.0032325827 0.10827985
-0.02425996 -0.0051777393 0.10917604
-0.024214608 -0.006994145 0.10997509
-0.017288178 0.01820079 0.087013769
-0.017758476 0.017212463 0.089295275
-0.018187134 0.016163659 0.091610421
-0.018491351 0.014832137 0.093401976
-0.018828682 0.013352472 0.094933257
-0.018970458 0.0115351 0.09579021
-0.019374701 0.0098878241 0.09720824
-0.019818439 0.0084576413 0.098812893
-0.020116477 0.0069097848 0.099750203
-0.020324034 0.0053468462 0.10049112
-0.020555537 0.0037473157 0.10133229
-0.020787536 0.0021323897 0.10273176
-0.021062716 0.00049192678 0.10423906
-0.021548776 -0.0014166908 0.10584117
-0.021964085 -0.0032373737 0.10734832
-0.02228496 -0.0050071895 0.10820519
-0.02219741 -0.0068709146 0.10903035
-0.022175604 -0.0088910295 0.10988164
-0.015723195 0.018107724 0.086224793
-0.016125992 0.017145703 0.08864198
-0.016358463 0.016148183 0.090739208
-0.016729383 0.014837608 0.092907083
-0.017048595 0.013292963 0.094679944
-0.017175061 0.011592058 0.095777515
-0.017589145 0.009807589 0.097011674
-0.018065835 0.0084843396 0.098777594
-0.01835288 0.0069166575 0.099716901
-0.018466829 0.0053047874 0.10032246
-0.018715677 0.0037595944 0.10111944
-0.018863699 0.0021672823 0.10210043
-0.019097898 0.00044054873 0.10345134
-0.019400649 -0.0013936769 0.10455304
-0.019622742 -0.0032733809 0.10559632
-0.0199334 -0.0051610799 0.10657229
-0.020190221 -0.0071664534 0.10729758
-0.020388764 -0.0090367132 0.10855577
-0.020675033 -0.010988109 0.11035349
-0.014150636 0.01816363 0.08566334
-0.014533039 0.017056656 0.087902726
-0.014707764 0.015901664 0.089951128
-0.014934844 0.014757931 0.092534942
-0.015167117 0.013128032 0.094275124
-0.015278425 0.011428928 0.095534939
-0.015783627 0.0097594034 0.096989452
-0.016267716 0.008379219 0.09869082
-0.016521972 0.0068826708 0.099711645
-0.01665911 0.0053635179 0.10024471
-0.016787694 0.0038223398 0.10072066
-0.016941727 0.0021725065 0.10149475
-0.017183536 0.00045221813 0.10260323
-0.017243413 -0.001356906 0.10306869
-0.017337334 -0.0032166148 0.1037291
-0.017406936 -0.0048973967 0.10466015
-0.017848608 -0.0070314725 0.10585267
-0.018000241 -0.008961045 0.10709104
-0.018335186 -0.010963641 0.10910303
-0.018454617 -0.012512665 0.11083917
-0.012614445 0.018190451 0.085212485
-0.013004509 0.016963284 0.087580423
-0.013069748 0.015782027 0.089322063
-0.013115095 0.014632372 0.091940551
-0.013311257 0.013069577 0.093659076
-0.013266206 0.011455629 0.095072184
-0.012996288 0.0099364309 0.096478325
-0.013421411 0.0084405591 0.098275268
-0.014614109 0.006970179 0.099400867
-0.014562701 0.0055713453 0.099887334
-0.014813112 0.0038893627 0.10044455
-0.014917897 0.0021213645 0.10080808
-0.015073361 0.00043220295 0.10146218
-0.015155709 -0.0012677991 0.1021157
-0.015207347 -0.0030684971 0.10248037
-0.015324582 -0.0048073426 0.10329727
-0.01561878 -0.0067852106 0.10454444
-0.015812028 -0.0087072578 0.10586183
-0.016148039 -0.010676372 0.10781509
-0.016538954 -0.012734731 0.11051628
-0.011180581 0.018068821 0.084803938
-0.011389486 0.016887589 0.086744247
-0.011500912 0.015679008 0.088750841
-0.011412244 0.014412898 0.090721565
-0.011365673 0.013119288 0.092950497
-0.011170896 0.011607273 0.093876362
-0.010759797 0.010203915 0.095032271
-0.010221092 0.0088885937 0.096412223
-0.0096630122 0.0075880943 0.097812239
-0.01248719 0.0055640622 0.099052173
-0.012951228 0.0037974085 0.09984062
-0.013121543 0.002079303 0.10037166
-0.01318979 0.00033825389 0.10067212
-0.013266069 -0.0014193287 0.10102702
-0.013437336 -0.0031560593 0.10163481
-0.013479908 -0.0048923582 0.10258801
-0.013576866 -0.0066847216 0.10352228
-0.013768799 -0.0084885531 0.10486163
-0.014092692 -0.010506398 0.10686175
-0.014436192 -0.01250994 0.10954538
-0.0097834657 0.017915634 0.084252737
-0.0099201448 0.016787178 0.086315614
-0.010091263 0.015473595 0.088127645
-0.010010022 0.014109956 0.089802946
-0.0096133251 0.013024832 0.091576031
-0.0093124227 0.011714333 0.092756948
-0.0088290968 0.010361723 0.093642689
-0.0083729836 0.0089690647 0.094541263
-0.00763812 0.0076663247 0.095514528
-0.0075584257 0.0061101422 0.096765103
-0.0091940945 0.0041643524 0.098863652
-0.011015218 0.0021169443 0.099547997
-0.011351633 0.00031800988 0.10001389
-0.011551925 -0.0014582738 0.10022894
-0.011626565 -0.0032363125 0.10092604
-0.011679969 -0.004949641 0.10219391
-0.011756068 -0.0065924413 0.1032103
-0.011757552 -0.0083691651 0.10418904
-0.01199301 -0.010251671 0.10614272
-0.01235941 -0.012362611 0.10857676
-0.008333464 0.017841472 0.084038134
-0.0084826707 0.016684056 0.085763007
-0.0087375424 0.015382548 0.08725578
-0.0086031492 0.014037322 0.088866795
-0.0082000469 0.012906983 0.090379681
-0.0078384631 0.011557252 0.09085764
-0.0074487007 0.010221396 0.091516585
-0.0072123139 0.0087666802 0.092101932
-0.0068407321 0.0072340595 0.093124736
-0.0067483332 0.0057222275 0.094183929
-0.0071318522 0.0040132254 0.095848028
-0.0078337875 0.0022146842 0.097660026
-0.0086912952 0.00043987028 0.099040753
-0.0093117567 -0.0013926671 0.099543812
-0.0098298013 -0.0032609207 0.1004132
-0.0097970875 -0.0047814189 0.10182575
-0.0098205149 -0.0064249968 0.10273251
-0.0098939599 -0.0082201167 0.1040458
-0.010153571 -0.010157463 0.1057886
-0.010330849 -0.01230108 0.10779345
-0.010562953 -0.014271828 0.11072769
-0.0069516024 0.017780365 0.083583043
-0.0069966848 0.016642247 0.08500951
-0.0072007297 0.01532606 0.086482094
-0.007247755 0.013899202 0.087675751
-0.0071357794 0.012610534 0.088795405
-0.0065640363 0.01151601 0.089730715
-0.0064800496 0.0097557455 0.089237271
-0.0062913936 0.0081840931 0.089891031
-0.0061051737 0.0067564737 0.091119842
-0.0059999891 0.0052459317 0.092196393
-0.0060287314 0.0035939019 0.093599071
-0.0063594076 0.0018652254 0.09525912
-0.0070391414 7.9217664e-05 0.097157057
-0.0074375265 -0.0016795709 0.098765223
-0.0078166899 -0.0032590969 0.10041596
-0.0078930001 -0.0047086493 0.10170535
-0.0080082876 -0.0063723956 0.10262958
-0.0080672002 -0.0080365 0.10388874
-0.0082982549 -0.010308608 0.10537639
-0.0084902788 -0.012351997 0.10731541
-0.0086735746 -0.014541661 0.11060148
-0.0055053675 0.017791275 0.082894108
-0.0055458948 0.016607913 0.084284694
-0.0057051045 0.015309301 0.085639901
-0.0058303638 0.013894974 0.086601273
-0.0059781121 0.012397207 0.087357657
-0.0060771084 0.010925823 0.087317812
-0.0058703714 0.0095240887 0.087478682
-0.0058039939 0.0078703859 0.087771452
-0.0057460205 0.0062450294 0.08857492
-0.005487553 0.0047531434 0.090006429
-0.0050726938 0.0028930414 0.091455348
-0.0052507685 0.0013349036 0.092956015
-0.005422469 -0.00035311409 0.095087894
-0.0057368977 -0.0018787071 0.098117433
-0.0060642315 -0.0034795044 0.099940343
-0.0061236489 -0.0048765917 0.10129009
-0.0062332098 -0.0065207033 0.10225674
-0.0062437853 -0.0081347117 0.10369551
-0.0064325861 -0.01034527 0.10513985
-0.006541628 -0.012326309 0.10720283
-0.0067536949 -0.014594862 0.11052879
-0.0040733066 0.016578532 0.083537865
-0.0042769005 0.015325903 0.08519775
-0.0043990734 0.014054254 0.086403979
-0.0045297246 0.012511046 0.08710899
-0.0045395902 0.010976149 0.086993641
-0.0046107388 0.0093674386 0.086641289
-0.0050264502 0.0076593503 0.086234649
-0.004980101 0.0059863727 0.08657245
-0.0047739033 0.0043443908 0.087512528
-0.003732607 0.0024141432 0.090157892
-0.0037944685 0.00065425444 0.091334918
-0.0039734757 -0.00093857883 0.093317589
-0.0040399913 -0.0021300082 0.097621935
-0.0043365246 -0.0036572567 0.099443512
-0.0044383957 -0.0050389046 0.10061653
-0.0044954272 -0.0065288321 0.10195622
-0.0045133931 -0.0082052644 0.10348153
-0.0045901015 -0.010310691 0.10514545
-0.0047038593 -0.0123914 0.10753077
-0.0047893382 -0.014642374 0.1105803
-0.00229516 0.016645598 0.08316719
-0.0026193223 0.015621954 0.08543359
-0.0029133773 0.014163988 0.08675123
-0.0030087345 0.012623035 0.087242757
-0.003047263 0.011059546 0.087393849
-0.0030825909 0.0093878689 0.086792717
-0.0033204895 0.0074356271 0.08603373
-0.0033415083 0.0057729074 0.085865189
-0.003096521 0.0042075751 0.086820999
-0.0013168054 0.0014054118 0.089512621
-0.0015291632 -4.0661363e-05 0.090835149
-0.0017929445 -0.0015430636 0.092456506
-0.0023609177 -0.0022895411 0.097013101
-0.0025941723 -0.0036585772 0.09937805
-0.0026545513 -0.0051241192 0.10064065
-0.0027160619 -0.006634007 0.10181055
-0.0027697326 -0.0082048703 0.10350938
-0.0028101061 -0.010219494 0.1050509
-0.0028052722 -0.012409663 0.10748179
-0.0029474083 -0.01475845 0.11021725
-0.00089982561 0.016623338 0.083376873
-0.0011833395 0.015524677 0.085440199
-0.0013636834 0.014133123 0.087133126
-0.0015105076 0.012646352 0.087588199
-0.0015709952 0.011083541 0.087837026
-0.0015376906 0.0094951551 0.087772845
-0.0014361654 0.0073500463 0.086917301
-0.0015159295 0.0058043149 0.086521281
0.00028560896 0.0031714045 0.087718262
0.00075504731 0.0012221972 0.089392145
0.00046601797 -6.5474128e-05 0.091211478
0.00020837497 -0.0014262681 0.093200578
-0.00065264467 -0.0023431129 0.096809431
-0.00086674437 -0.0036514492 0.099299895
-0.00091526241 -0.0051293805 0.10076073
-0.00092407026 -0.0066906717 0.10212016
-0.001035492 -0.0083867218 0.10340721
-0.0010590321 -0.010294156 0.10561357
-0.0010489445 -0.012628275 0.10784718
-0.0009448427 -0.015061817 0.11046737
0.00053038733 0.016599476 0.083492695
0.00026706124 0.015463629 0.085624211
0.00018072703 0.014142067 0.08715396
1.8425e-09 0.012585877 0.088060769
-3.8958473e-05 0.010937603 0.088360822
0.00037314981 0.0089245482 0.088499999
0.00081827727 0.0070538192 0.088595714
0.001521106 0.005043581 0.088727755
0.002075841 0.0031600969 0.089905114
0.0020560997 0.0016696104 0.090950997
0.0020830217 0.00021227117 0.092215292
0.0016328417 -0.0011773552 0.094048841
0.0010759877 -0.0022591463 0.097165818
0.00085584376 -0.003719091 0.099187941
0.00080116402 -0.0051579444 0.10080407
0.00075894339 -0.006742744 0.10213669
0.00073795007 -0.0085404313 0.10323169
0.00075935056 -0.010410352 0.10556971
0.00083623478 -0.012654513 0.10777509
0.00093469849 -0.015103387 0.1102756
0.0019237181 0.016565848 0.083668289
0.0017207462 0.015449915 0.085788934
0.00164324 0.014111271 0.08743687
0.0015580943 0.012550661 0.088512132
0.0015550547 0.010728884 0.088870174
0.002029435 0.0087126004 0.089324531
0.0023355314 0.0069193396 0.090202198
0.0028347902 0.005212204 0.090610425
0.003091472 0.0037219535 0.091594839
0.0032831736 0.0021927346 0.09254809
0.0032617986 0.00075573199 0.093653783
0.0029710343 -0.00084616991 0.095313087
0.0027311801 -0.0021300976 0.098052555
0.0026175284 -0.0036453178 0.099505565
0.0025637417 -0.005248069 0.10068554
0.0024827919 -0.0068027448 0.10216317
0.0025271401 -0.008628956 0.10317104
0.0026363858 -0.010502801 0.10535634
0.0027449329 -0.012724752 0.107623
0.002829606 -0.015137533 0.10998743
0.0033331273 0.016518928 0.083727223
0.003151765 0.0153852 0.085724474
0.003043445 0.013992079 0.087737827
0.0029732417 0.01248208 0.088595889
0.0030806992 0.010774453 0.089141708
0.0034626136 0.0089543408 0.08976044
0.0036354395 0.0072384999 0.090937015
0.0039854562 0.0057621628 0.091940919
0.0041823625 0.0043158269 0.092789595
0.004283094 0.0027898513 0.09379354
0.0043639639 0.001303234 0.094951894
0.0041833552 -0.00032380708 0.096832719
0.0042686999 -0.0019385082 0.09887312
0.0042705628 -0.0035100563 0.10011953
0.0041988662 -0.0051874968 0.10117144
0.0042599243 -0.0068213489 0.10232079
0.0043119181 -0.0086807725 0.10336987
0.0043959171 -0.010669328 0.10546158
0.0045974621 -0.012908146 0.10769355
0.0048154637 -0.01516172 0.11024912
0.0047136896 0.016492239 0.084115994
0.0045165315 0.015420154 0.086028248
0.0044204122 0.014052731 0.087657236
0.0044358325 0.012602942 0.088456393
0.0044882681 0.01100914 0.089459806
0.0048514097 0.0093254672 0.09035846
0.0050454102 0.00775607 0.091429437
0.005156557 0.0063294249 0.092822619
0.0054150195 0.0048440021 0.093820428
0.0054801851 0.0033877976 0.095016572
0.0053220915 0.0018225818 0.096673864
0.0054936355 7.5688072e-05 0.098441924
0.0059258886 -0.0017531931 0.099803707
0.0059913731 -0.0033715839 0.10078962
0.0060480379 -0.0051296594 0.10167079
0.0059844659 -0.0068437311 0.10273973
0.0060649949 -0.0086798806 0.10388846
0.006145679 -0.010964018 0.10541694
0.0064536773 -0.013292455 0.10774774
0.0059441087 0.016420045 0.084749023
0.0059698908 0.015442516 0.086165268
0.0059122372 0.014070505 0.087495976
0.0059140011 0.012623074 0.088236096
0.0059286193 0.011171464 0.089458524
0.0063257567 0.0097143652 0.090379953
0.0065857486 0.0082063418 0.091718719
0.0065785211 0.0067981887 0.093241831
0.0067071399 0.0053463894 0.094674267
0.0068866922 0.0035284872 0.096381893
0.0068673409 0.0020877175 0.098182721
0.0073441316 0.00023402547 0.099792974
0.0076407288 -0.0016426014 0.10048017
0.0077210106 -0.0033687471 0.10137573
0.0077652763 -0.0051139402 0.10244279
0.0077416846 -0.0068502077 0.10349372
0.0078989894 -0.0089782689 0.1042863
0.0081041055 -0.01137824 0.10587951
0.0083561771 -0.013837284 0.10772787
0.0087796971 -0.015899587 0.10913588
0.0072768692 0.017219477 0.083441138
0.0073889184 0.0164382 0.084995373
0.0073876969 0.015433124 0.086401004
0.0073991653 0.014088612 0.087704059
0.0073530243 0.012642691 0.088264465
0.0074087931 0.011069293 0.089550586
0.0076321677 0.0097084022 0.090511937
0.0079997719 0.0084973106 0.091690074
0.0079082061 0.0072394147 0.094074692
0.0083467472 0.0054249873 0.09523891
0.0085037362 0.003636943 0.096880092
0.0086433485 0.002048992 0.099113536
0.0089595594 0.00032387353 0.10035916
0.009264237 -0.0015345357 0.10119178
0.009416002 -0.0032855437 0.10215106
0.0094883965 -0.0051311065 0.10299265
0.0095938786 -0.0070457689 0.10414161
0.0097859544 -0.0091838762 0.10500021
0.0099859423 -0.011696049 0.10622271
0.010125743 -0.014332566 0.10739468
0.0086575127 0.017225899 0.083474671
0.0087849942 0.016378916 0.085032646
0.0088263058 0.015344317 0.086407053
0.0087994426 0.014032748 0.087741108
0.0088714422 0.012521932 0.088584475
0.00895832 0.011039752 0.089691566
0.0090348452 0.0096507993 0.090554607
0.0092058177 0.0081738951 0.09161979
0.0096304612 0.0072655989 0.094292974
0.010066542 0.0053296763 0.09538378
0.010226319 0.0037625718 0.097805941
0.010355986 0.0021725814 0.0995928
0.010572135 0.00049053967 0.10054692
0.01080151 -0.0012809734 0.10173578
0.011112997 -0.003184002 0.10268327
0.011249863 -0.0050849396 0.10338925
0.011447208 -0.0070605903 0.10471316
0.011636423 -0.0092628206 0.10577901
0.0118182 -0.012016381 0.1068125
0.011921799 -0.014636536 0.10783744
0.010031476 0.017267909 0.083524457
0.010128045 0.016435018 0.084840458
0.010109547 0.015389635 0.086223005
0.010249674 0.014031172 0.087413797
0.010379572 0.012624063 0.088288875
0.010475114 0.011156408 0.08950737
0.010547372 0.0098099065 0.090576204
0.010643283 0.0084026988 0.091654848
0.011270121 0.0070266065 0.094048492
0.011615052 0.0052838452 0.095810349
0.011836832 0.0038477657 0.098141382
0.012106991 0.002255031 0.09982833
0.012377969 0.00059077525 0.1007541
0.012557843 -0.0012394875 0.10182962
0.012831271 -0.0030694586 0.10285432
0.013080303 -0.0049594749 0.10390853
0.01332429 -0.0069833094 0.10530049
0.013422073 -0.0096332 0.10669996
0.013660081 -0.012418465 0.10769529
0.013805995 -0.014638041 0.10847166
0.011480829 0.01761355 0.084095262
0.011557546 0.016635129 0.085000365
0.011502131 0.015476647 0.086362053
0.011729925 0.014073232 0.087498831
0.011897015 0.012662168 0.088255278
0.011931092 0.01122883 0.08934334
0.012017333 0.0098853602 0.090352121
0.012079332 0.0084756799 0.091404354
0.012268076 0.0072804034 0.093861385
0.013143163 0.0052033333 0.095975927
0.013518355 0.0037670233 0.09808505
0.013844203 0.0022664787 0.09997967
0.014122326 0.00066217853 0.10103186
0.014370926 -0.0010634897 0.10175786
0.014631859 -0.0029444951 0.10314043
0.014862033 -0.004892531 0.10416819
0.015137273 -0.0070945652 0.10619362
0.015324007 -0.010288961 0.10789229
0.015682583 -0.01267538 0.10910744
0.012890646 0.017630252 0.084132443
0.012939933 0.016822943 0.085401331
0.012960715 0.015619694 0.086433985
0.013222744 0.014082988 0.087805139
0.013378127 0.012672387 0.088453968
0.013386944 0.011293035 0.089462916
0.013484001 0.0099469381 0.090410487
0.013598198 0.0085721519 0.091549585
0.013764631 0.0072439648 0.093426276
0.014642572 0.005103639 0.095942621
0.015306875 0.0037501683 0.098513462
0.015679423 0.0022403605 0.099994019
0.016003435 0.00056346182 0.10137204
0.016081777 -0.0011011318 0.10199376
0.01642229 -0.002927027 0.10345416
0.016792143 -0.0049555369 0.1052353
0.017205374 -0.0074238125 0.10755067
0.017529344 -0.010254287 0.10932736
0.014446743 0.017755615 0.084526567
0.014523815 0.016968035 0.085769062
0.014543767 0.01586141 0.086876503
0.014752148 0.014222712 0.08766443
0.014877382 0.012856325 0.088672926
0.014976989 0.01142124 0.089749041
0.015033563 0.0099887061 0.090761886
0.015158889 0.0086585483 0.092367855
0.015567352 0.0073038348 0.094082761
0.016104181 0.0053695198 0.095907282
0.016967548 0.0037321621 0.098630041
0.017411413 0.0021673103 0.1000352
0.01773197 0.00056614499 0.10140989
0.017980791 -0.0011091965 0.10244628
0.018289534 -0.0029992704 0.10389914
0.01885296 -0.0051236962 0.10640661
0.019645996 -0.0078518115 0.10957429
0.01608221 0.018057402 0.08525993
0.016141745 0.017080929 0.086381977
0.016165962 0.015794429 0.087352225
0.0163312 0.014450684 0.088207891
0.016449097 0.013005216 0.089007291
0.016603695 0.011562684 0.090327063
0.016602946 0.010078566 0.091248952
0.016878557 0.0086763196 0.092666859
0.017405195 0.0072184142 0.094838272
0.017697459 0.0055478447 0.096057347
0.01856846 0.0038603029 0.098571638
0.019116383 0.0022294298 0.099891179
0.019531039 0.00067859778 0.10146493
0.020022254 -0.0012155754 0.10301019
0.020439745 -0.0032456421 0.1048393
0.021131964 -0.0054873183 0.10771447
0.021969665 -0.0077872092 0.11056765
0.017701804 0.018225003 0.085961016
0.017774384 0.017148262 0.086974927
0.017761325 0.015846535 0.087707794
0.01793955 0.014564757 0.088782149
0.018097227 0.013166211 0.089693489
0.018397053 0.011656592 0.090555201
0.018245682 0.010086068 0.091361021
0.018392534 0.0085951209 0.092509774
0.019104629 0.0071752237 0.095263885
0.01950586 0.0056062503 0.096628932
0.020597986 0.0038640069 0.099063291
0.021031879 0.0022581908 0.10041571
0.021526052 0.00052242901 0.10190371
0.022066923 -0.0016054339 0.10361389
0.022998232 -0.0037522835 0.10619034
0.023473429 -0.0056626172 0.10898823
0.019191084 0.018237017 0.086061174
0.019407941 0.017162967 0.087267688
0.019492549 0.015912545 0.088128472
0.019687766 0.01457234 0.089044461
0.019835051 0.013004522 0.089631143
0.020023549 0.01147059 0.090491184
0.019911099 0.0099691861 0.0913853
0.020049478 0.0085396534 0.092620763
0.020787499 0.0070989259 0.095356777
0.021274845 0.0056226598 0.096766122
0.022413408 0.0037839311 0.099090189
0.022890465 0.0021403089 0.10073909
0.023497343 0.00026333231 0.10233193
0.024284198 -0.001807942 0.10443564
0.025176923 -0.0037654151 0.10714908
0.025935725 -0.0058409003 0.11031475
0.020669653 0.018176137 0.086093792
0.021002746 0.017089172 0.087352919
0.021335359 0.015708817 0.088197836
0.021437424 0.014382686 0.089153895
0.021432328 0.012909608 0.089544297
0.021579649 0.01139104 0.090278457
0.021501417 0.0098720554 0.091170609
0.021821806 0.0084559309 0.093035299
0.02233296 0.0069944483 0.094982854
0.023003677 0.0053536503 0.096232448
0.024176826 0.0037125849 0.099022191
0.025115597 0.0019638702 0.10182219
0.025578147 8.6243056e-05 0.10308866
0.026336333 -0.001724977 0.10510868
0.027362417 -0.0037583673 0.10857672
0.02230939 0.018113336 0.086327956
0.022569912 0.016909997 0.087233596
0.022885813 0.015606001 0.088158901
0.023018563 0.014237101 0.088904422
0.023027023 0.012806382 0.089396063
0.023210739 0.01136975 0.090292611
0.024047131 0.0098979678 0.092204694
0.024096265 0.0084087448 0.09357454
0.024405019 0.0067073754 0.09481491
0.025673286 0.0051964423 0.097399473
0.02655427 0.0036549696 0.099852745
0.027663784 0.001692717 0.10297052
0.028041635 0.00018040488 0.10469912
0.028647548 -0.001667753 0.10665653
0.029634601 -0.0038574432 0.11004495
0.023883979 0.017989045 0.086373806
0.024211906 0.016844262 0.087453708
0.024438871 0.015533499 0.088273418
0.024545437 0.014144214 0.088793635
0.024642622 0.012753783 0.08945001
0.024996047 0.011444803 0.090454047
0.025624532 0.010021341 0.091666176
0.025893347 0.008532801 0.092648812
0.026303207 0.0069468501 0.09430702
0.027620672 0.0053110527 0.097538426
0.028812033 0.003535655 0.10109974
0.030185644 0.0017486268 0.10406673
0.030575712 0.00012327964 0.10617822
0.030921178 -0.0015296004 0.10821479
0.031754546 -0.0036490669 0.11068937
0.025370709 0.017913301 0.086203559
0.025747788 0.016749094 0.087429656
0.025989022 0.015436503 0.088310613
0.026098053 0.014106746 0.088814307
0.026198746 0.012677224 0.089392457
0.026629941 0.011337839 0.08990132
0.026940566 0.0099903196 0.090734628
0.027285947 0.0085807304 0.091866149
0.02768459 0.00700616 0.09323891
0.029206117 0.0054392736 0.097134774
0.031266453 0.0034799437 0.10245249
0.032233672 0.0018842607 0.10537598
0.032592011 0.00026068973 0.10702067
0.033076424 -0.001339997 0.10934672
0.026942556 0.01790128 0.08638858
0.027255507 0.016712821 0.087374914
0.027583329 0.015414294 0.088103648
0.027843653 0.014153073 0.088965957
0.028104822 0.012730662 0.089329633
0.02821032 0.011336499 0.089712682
0.0283817 0.0099940648 0.090402562
0.028765456 0.0086095769 0.091714466
0.030119012 0.0072981021 0.095053993
0.030899571 0.0055409946 0.097303962
0.03366772 0.0034675678 0.10377588
0.034337581 0.0021118915 0.10677396
0.034779736 0.00049010379 0.10865858
0.035350221 -0.00097140492 0.11098147
0.028165221 0.017848905 0.085595383
0.028739691 0.016780516 0.087367689
0.029135189 0.015530039 0.088217414
0.029435756 0.014167914 0.088757214
0.02958355 0.01270032 0.089078011
0.029686553 0.011305419 0.089557655
0.029794088 0.0099524942 0.090161078
0.030353387 0.0086378854 0.09196009
0.031651974 0.0073141733 0.094932825
0.032316887 0.0056164115 0.096610776
0.036396531 0.0036500563 0.10666538
0.036879311 0.0020746255 0.10853563
0.037067469 0.00048272878 0.11005645
0.038046421 -0.0016658144 0.11148366
0.029201559 0.01768209 0.08421864
0.029983651 0.01677556 0.086550837
0.03046751 0.015461407 0.087692192
0.030853009 0.014129944 0.08855854
0.03101825 0.012651455 0.088856562
0.031179018 0.011263256 0.089466907
0.031515067 0.0099103613 0.090582858
0.031822409 0.0085981702 0.091579608
0.03281472 0.0071641503 0.093833069
0.035018518 0.0051136605 0.098705804
0.039017507 0.0035228128 0.10754516
0.039388877 0.0019106451 0.10941723
0.039928963 -0.00013875976 0.1106752
0.040263449 -0.0018134774 0.11165795
0.03104969 0.016614567 0.085153396
0.031720743 0.015363093 0.086693955
0.032229092 0.014026452 0.087674854
0.032413067 0.012541386 0.088403516
0.032594874 0.011066067 0.089114475
0.032983106 0.0096427485 0.090319908
0.033427983 0.0083388905 0.091687863
0.034358496 0.0069250638 0.093954213
0.039502958 0.0044133202 0.10361769
0.04104681 0.00338893 0.1078532
0.041650587 0.0016298059 0.10980497
0.042023592 -0.00038322048 0.1107469
0.042673389 -0.0020734285 0.11169263
0.032875657 0.015376855 0.084980341
0.033462055 0.01401869 0.086254511
0.033907528 0.012515157 0.088117786
0.034207656 0.010862008 0.088933838
0.034457393 0.0094251251 0.089990286
0.03489287 0.0081271487 0.091318215
0.037019538 0.0064540595 0.096020927
0.04144148 0.0043131888 0.10402871
0.042744562 0.0033708343 0.10764965
0.043372562 0.0016182351 0.10916937
0.043876665 -0.00043912953 0.11029998
0.044121329 -0.0023383883 0.11081886
