ply
format ascii 1.0
comment Automatically gnerated by model-converter
element vertex 764
property float x
property float y
property float z
element face 0
property list uchar int vertex_indices
end_header
-0.029406213 0.018275053 0.088373563
-0.029933199 0.016955759 0.089981883
-0.030085933 0.015446249 0.090594106
-0.030252526 0.013845196 0.090986896
-0.030552185 0.012259503 0.091728564
-0.031047818 0.010937273 0.092777766
-0.031419366 0.0096394702 0.093757015
-0.031781035 0.0083773579 0.094586247
-0.032615248 0.0071641064 0.096114807
-0.033741238 0.0062579491 0.09894392
-0.034959537 0.0047835486 0.10219091
-0.035390855 0.0029670053 0.10317236
-0.035480933 0.0011860252 0.10321333
-0.035431355 -0.00063078928 0.10328373
-0.035599825 -0.0027209786 0.10374195
-0.036067542 -0.0050533396 0.10497564
-0.03681325 -0.0076734152 0.10754943
-0.028430776 0.018459282 0.089548184
-0.028717737 0.017137215 0.090797581
-0.028850282 0.015579683 0.091247847
-0.029006318 0.013957013 0.091595905
-0.029373125 0.012414919 0.092414756
-0.029836392 0.011054458 0.093431398
-0.030336451 0.0098698876 0.09476936
-0.030907617 0.0086172167 0.095818852
-0.031603642 0.0074243105 0.09746138
-0.032574088 0.0063339461 0.099946667
-0.033564373 0.0046250404 0.10270577
-0.033990986 0.0028205157 0.10393648
-0.034117682 0.0011371333 0.10403014
-0.034147307 -0.0008517983 0.10438243
-0.034417102 -0.0030649641 0.10504633
-0.034718537 -0.0054059926 0.10607754
-0.035295641 -0.0077389137 0.10766199
-0.026666887 0.018437822 0.088515676
-0.027184201 0.017239208 0.090412737
-0.027562955 0.015576851 0.091725966
-0.027724359 0.013999369 0.092290309
-0.028076722 0.012618988 0.093171007
-0.028427305 0.01119369 0.09405581
-0.02888509 0.009887451 0.095282184
-0.029484177 0.0087349663 0.096405411
-0.030301949 0.007580225 0.098625119
-0.031134019 0.0063296794 0.10089184
-0.031914898 0.0045303304 0.10294001
-0.032453515 0.0026485075 0.10462558
-0.032599194 0.00079742059 0.1053202
-0.032703032 -0.0011590715 0.105537
-0.033001602 -0.0031740411 0.10627855
-0.033311643 -0.0055952559 0.10731997
-0.033620911 -0.0077523448 0.10840086
-0.024997447 0.018453674 0.087961225
-0.025626129 0.017344066 0.090095754
-0.026281727 0.015776481 0.092234259
-0.026420618 0.014135256 0.093076068
-0.026957799 0.012904355 0.094510166
-0.027241651 0.011423556 0.095192061
-0.027587822 0.010003528 0.096086413
-0.02809352 0.0087869767 0.097269705
-0.028777234 0.0075849372 0.099207371
-0.029596101 0.006274663 0.10184593
-0.030241487 0.0044877954 0.10325028
-0.030678572 0.0026379547 0.10472007
-0.030992774 0.00057036153 0.10608268
-0.031180149 -0.0014442962 0.10671137
-0.031414022 -0.0032953404 0.10725358
-0.031801844 -0.0052387458 0.10815006
-0.032054876 -0.0074858799 0.10930318
-0.023498268 0.018477155 0.087949693
-0.024192004 0.017440808 0.09028645
-0.024929254 0.016053859 0.092422473
-0.024947022 0.014560461 0.093611731
-0.025398898 0.01293561 0.094771223
-0.025647601 0.011436634 0.095530168
-0.026187176 0.010045847 0.096938945
-0.026616069 0.0088426944 0.098335591
-0.027207961 0.0074987479 0.099603838
-0.027841964 0.006152009 0.10194305
-0.028442093 0.0045115019 0.10305631
-0.028720345 0.0024980502 0.10437802
-0.029384177 0.00057581663 0.10638053
-0.029567201 -0.0015544407 0.10739171
-0.029834032 -0.0034153045 0.10815321
-0.030134959 -0.0052584806 0.10898815
-0.0303181 -0.0071150983 0.10984353
-0.021912951 0.018414072 0.087613653
-0.022829424 0.017398448 0.090523101
-0.023295575 0.016178711 0.092576046
-0.023436291 0.014829334 0.093593511
-0.023687419 0.013055961 0.094716451
-0.023986923 0.011418639 0.095763577
-0.024644235 0.010112405 0.097546007
-0.025083162 0.0087104892 0.098585005
-0.025487606 0.0073619747 0.099889661
-0.025996195 0.0059333705 0.10147302
-0.026262148 0.004178825 0.1026135
-0.026920365 0.0023734544 0.10422475
-0.027461333 0.00047727828 0.10633271
-0.027821773 -0.0014893727 0.10770159
-0.028009164 -0.0034683133 0.10846747
-0.02814069 -0.0052979012 0.10930336
-0.028317616 -0.0071451831 0.11016547
-0.020255711 0.018276257 0.087210189
-0.02123205 0.017397516 0.090319626
-0.021623898 0.016278294 0.092432846
-0.021859136 0.01490858 0.093766332
-0.022104486 0.013385969 0.09484985
-0.022462841 0.01156511 0.096067147
-0.023104612 0.010137048 0.097898796
-0.023375301 0.0087044265 0.098809891
-0.023672623 0.0072465097 0.099851318
-0.024004949 0.0057808944 0.10106981
-0.024283543 0.0040944484 0.10204345
-0.02475923 0.0022745298 0.10385612
-0.025508452 0.00045677655 0.10611164
-0.026012232 -0.0014695713 0.10775938
-0.026228712 -0.0033289601 0.1086951
-0.026215992 -0.0052155351 0.10961881
-0.026623558 -0.0069197112 0.11010675
-0.018873238 0.018175269 0.087381123
-0.019593313 0.017334869 0.089974716
-0.020004733 0.016293215 0.092348261
-0.020221038 0.014938853 0.093670781
-0.020522104 0.013458642 0.095107074
-0.020785534 0.011751823 0.096099076
-0.021323914 0.010146661 0.097797821
-0.02163307 0.0086038195 0.098841743
-0.021916194 0.0070604663 0.099688254
-0.022223782 0.0056016988 0.10084684
-0.022429078 0.0039034803 0.10159015
-0.022832681 0.0022570953 0.10327143
-0.023359357 0.00045539104 0.10544193
-0.024004177 -0.0013602028 0.10735314
-0.024295436 -0.0031826305 0.10841683
-0.024356159 -0.0051347973 0.10930201
-0.024311041 -0.0069551812 0.11008874
-0.017296263 0.018183376 0.087081884
-0.017759915 0.017268443 0.089423785
-0.018219147 0.016255171 0.091790855
-0.018517402 0.014950803 0.093610531
-0.01885089 0.013467133 0.095130986
-0.019035692 0.011690501 0.095997029
-0.019463674 0.010042226 0.097411117
-0.019896091 0.0085732976 0.098970385
-0.020174987 0.0070119692 0.099858281
-0.020385493 0.0054111166 0.10056939
-0.020611256 0.0038023289 0.10137978
-0.020837478 0.0021873295 0.10277919
-0.021117851 0.00054951808 0.10430037
-0.021631536 -0.0013690983 0.10589441
-0.02206904 -0.0032134576 0.10739322
-0.022390731 -0.004982358 0.10827121
-0.022296586 -0.0068449652 0.1090987
-0.022224711 -0.0089224625 0.10997833
-0.01574434 0.018050782 0.086279524
-0.016131169 0.017143581 0.088720168
-0.016383275 0.016183222 0.090854624
-0.016749395 0.014897347 0.093049145
-0.01706678 0.01335191 0.09481526
-0.017217824 0.011677944 0.095922683
-0.017673455 0.0099487504 0.097177269
-0.018131246 0.0085852284 0.098912948
-0.018418718 0.0069943074 0.09982711
-0.018526929 0.0053599517 0.10038849
-0.01877043 0.0037976541 0.10114293
-0.018913942 0.0022064899 0.10213393
-0.019152682 0.00047117963 0.10348204
-0.019483145 -0.0013738701 0.10457099
-0.019728818 -0.003265066 0.10557843
-0.020058719 -0.0051596596 0.1065292
-0.020169424 -0.007238566 0.10738812
-0.020345982 -0.009150861 0.10861102
-0.020619894 -0.011133322 0.11036414
-0.014174311 0.018063585 0.085690603
-0.014548208 0.01701848 0.087960737
-0.014717708 0.015866096 0.089994692
-0.014962459 0.01476869 0.09262187
-0.015184966 0.013165284 0.094380416
-0.015279901 0.011492559 0.095652272
-0.01584144 0.0098797457 0.097128552
-0.016338879 0.0084746141 0.098817403
-0.016583902 0.0069536255 0.099815617
-0.016707905 0.0054244853 0.10030569
-0.016833043 0.0038504989 0.10073861
-0.016991061 0.0022001202 0.10152321
-0.017240521 0.00046800819 0.1026258
-0.017315833 -0.0013470164 0.10306157
-0.017436262 -0.0032201581 0.10369067
-0.017463816 -0.0049295042 0.10465003
-0.01782457 -0.0071207794 0.10587864
-0.017960359 -0.009071449 0.10707812
-0.018278645 -0.011110109 0.10907498
-0.018380372 -0.01268556 0.11079258
-0.012632168 0.018071263 0.085213817
-0.013016687 0.016909931 0.087623304
-0.013084419 0.015734657 0.089365149
-0.013145342 0.0146353 0.092008746
-0.013321194 0.013113965 0.093753489
-0.013244835 0.011566052 0.095222221
-0.01292541 0.010125679 0.096680023
-0.013370635 0.0086472472 0.098510744
-0.014648477 0.0070422268 0.099539859
-0.014573392 0.0056217787 0.10001591
-0.014842484 0.0039228161 0.10052138
-0.014961249 0.0021504055 0.10086433
-0.015123909 0.00045253672 0.10149956
-0.015208252 -0.0012552557 0.10213456
-0.015255643 -0.0030718692 0.10245333
-0.015354314 -0.0048388903 0.10327837
-0.015616425 -0.0068559534 0.10453142
-0.015791616 -0.0087960668 0.10583685
-0.016098139 -0.010796107 0.10778031
-0.01647171 -0.012904694 0.11044325
-0.011196832 0.017944312 0.084801179
-0.011391784 0.016834744 0.086789516
-0.011509701 0.015636964 0.088803875
-0.011401084 0.014440677 0.090797065
-0.011360992 0.01318888 0.093041675
-0.011153359 0.011715797 0.094017986
-0.010717696 0.01036911 0.095242083
-0.010148509 0.0091100292 0.096621974
-0.009573559 0.0078551442 0.098028971
-0.012493017 0.0056161161 0.099220996
-0.012976268 0.0038353708 0.099950868
-0.013158826 0.0021099757 0.10044474
-0.013230073 0.00036913617 0.10073673
-0.013289448 -0.0013803253 0.1011023
-0.013453108 -0.0031261735 0.10168369
-0.013498158 -0.0049020018 0.1025979
-0.013570295 -0.0067263737 0.10351086
-0.013752601 -0.0085663264 0.10482615
-0.014051033 -0.01061384 0.10680976
-0.014379051 -0.012658655 0.10948398
-0.0098017783 0.017775546 0.084244944
-0.0099122204 0.016733386 0.086349571
-0.010048202 0.015488981 0.088253561
-0.0099517203 0.014180381 0.089939098
-0.009601678 0.013090943 0.091699205
-0.0093136297 0.011791021 0.092874694
-0.0088287359 0.010470556 0.093778853
-0.0084218901 0.0090647848 0.09466701
-0.0079484044 0.0076518305 0.095598619
-0.0079806585 0.0060517032 0.096749994
-0.0094558872 0.0041524939 0.098880204
-0.011060147 0.0021476727 0.099653329
-0.011378643 0.00036277206 0.10011977
-0.011550212 -0.0013907583 0.10036522
-0.011626566 -0.0031696016 0.1010425
-0.011692026 -0.0049438941 0.10223048
-0.011758999 -0.0066225805 0.10319953
-0.011746325 -0.0084286757 0.10415479
-0.011967057 -0.010358844 0.10605919
-0.012310398 -0.01247133 0.10852225
-0.0083504739 0.0177022 0.084020583
-0.0084519664 0.016627503 0.085791987
-0.0086557118 0.015411111 0.087447049
-0.0085205352 0.014122682 0.089070767
-0.0081462745 0.012991132 0.090552253
-0.0077969896 0.011627128 0.091027239
-0.0073992694 0.010295143 0.091737117
-0.007199597 0.0088299967 0.092315035
-0.0069770759 0.0072535919 0.093274172
-0.0070260389 0.005703722 0.094263649
-0.0074329256 0.0040078153 0.095858847
-0.0080856174 0.0022313939 0.097634116
-0.0088855313 0.00045511453 0.09911914
-0.0094260927 -0.0013542793 0.099689885
-0.0098076709 -0.0031661557 0.10064852
-0.0097975279 -0.004757805 0.10191712
-0.0098134585 -0.0064332829 0.10275562
-0.0098786312 -0.0082618421 0.10401474
-0.010124339 -0.010222851 0.10573589
-0.010278562 -0.012339602 0.1078058
-0.010509843 -0.014340021 0.11070721
-0.0069646746 0.017637106 0.083566946
-0.0069774545 0.016561403 0.085056523
-0.0071258407 0.01533292 0.086659412
-0.0071234485 0.013987015 0.087916478
-0.0070135757 0.012709522 0.089082922
-0.0064782463 0.011588306 0.08995383
-0.0062755542 0.0098477919 0.089663856
-0.0061663988 0.008273813 0.090210293
-0.006119142 0.0067985136 0.091370709
-0.0061358254 0.0052717908 0.092337205
-0.0062778149 0.0035979303 0.093661705
-0.006616587 0.0018712768 0.095293793
-0.0072478919 0.0001062462 0.097228907
-0.0075650984 -0.0016385562 0.098876431
-0.0078584664 -0.0031856941 0.10058352
-0.007878908 -0.0046624726 0.1018293
-0.0079789869 -0.0063435264 0.10272308
-0.0080347715 -0.0080225129 0.10392586
-0.0082495978 -0.010262181 0.10546037
-0.0084308993 -0.012346855 0.10735303
-0.0086075656 -0.014570508 0.11060181
-0.0055193004 0.01763507 0.082876934
-0.0055290896 0.016513592 0.08433433
-0.00562761 0.015300204 0.085825331
-0.0057086509 0.013927887 0.086921745
-0.0058239242 0.012431339 0.087762266
-0.0058864814 0.010936672 0.087817015
-0.0056102994 0.0095386643 0.08806601
-0.0055202667 0.0079120815 0.088369445
-0.0055752381 0.0063207479 0.089002666
-0.0054709183 0.0048166419 0.090242197
-0.005257554 0.0029143954 0.091617484
-0.0054736507 0.0013553178 0.09302805
-0.0056553653 -0.00035752606 0.095121647
-0.0058667418 -0.0018306248 0.098198718
-0.0061017594 -0.0033956195 0.10004941
-0.0061083178 -0.0048030066 0.10140906
-0.0062025098 -0.0064585326 0.10236211
-0.0061922927 -0.0080763374 0.10379101
-0.0063856071 -0.010268276 0.10525756
-0.0064824684 -0.012292303 0.1072597
-0.00668816 -0.014601878 0.11054948
-0.0040707401 0.016465775 0.083575112
-0.0041755601 0.015319859 0.085435258
-0.004260077 0.014045982 0.086734241
-0.0043712082 0.012500266 0.087497064
-0.004379839 0.010948596 0.087442066
-0.0043853643 0.0093553986 0.087233275
-0.0046476128 0.0076945482 0.086944497
-0.0046906807 0.0060480588 0.087192206
-0.0045759097 0.004412059 0.088028852
-0.0038788576 0.0024679261 0.090336284
-0.0039896374 0.00070008471 0.091493474
-0.004214072 -0.00092335471 0.0934147
-0.0041692437 -0.0020734044 0.097682995
-0.0044016588 -0.0035826505 0.099542974
-0.0044524848 -0.0049589155 0.10072249
-0.0044759859 -0.0064503692 0.10205551
-0.0044677325 -0.0081333734 0.10357146
-0.0045466792 -0.010252447 0.10523077
-0.0046419704 -0.012353015 0.10758265
-0.0047225596 -0.014632825 0.11061082
-0.0023411208 0.016544592 0.083386013
-0.0025719692 0.015524239 0.085585568
-0.002770203 0.014116076 0.087022038
-0.0028522763 0.012585724 0.087577458
-0.0028913724 0.011026439 0.087788078
-0.0029159243 0.0093613011 0.087339109
-0.0030592402 0.0074899104 0.08672947
-0.0030916565 0.0058608501 0.086507457
-0.0028998846 0.0042771317 0.087416118
-0.0016807232 0.0015946196 0.089870459
-0.0018359555 9.8935275e-05 0.091123679
-0.0020561306 -0.0014547495 0.092686759
-0.0024859992 -0.0022117688 0.097076191
-0.0026530014 -0.0035723201 0.099461947
-0.0026812428 -0.0050563925 0.10071027
-0.0027159684 -0.0065666374 0.1018789
-0.0027342924 -0.0081312729 0.10358529
-0.0027670539 -0.010173722 0.10510261
-0.0027405405 -0.012392909 0.10749921
-0.0028737171 -0.014736326 0.1102348
-0.00093462173 0.016508316 0.08353748
-0.0011447277 0.015435593 0.08559258
-0.0012510319 0.014067358 0.087305464
-0.001363363 0.012598943 0.087845282
-0.0014115951 0.011047823 0.088170606
-0.0013910908 0.0094627129 0.088167117
-0.0012914976 0.0074468848 0.087566179
-0.0013498634 0.0059014829 0.087174578
-0.00021665393 0.0034335388 0.088292631
0.00026365166 0.0015141564 0.089766808
9.0299509e-05 0.00014671031 0.091503918
-8.455368e-05 -0.0012836415 0.093427494
-0.00082955641 -0.0022290154 0.096977906
-0.00092153533 -0.0035651903 0.099363328
-0.00094230087 -0.0050620367 0.10080636
-0.00092324675 -0.0066324739 0.10215167
-0.001013647 -0.0083413163 0.10344235
-0.0010085168 -0.010264892 0.10563883
-0.00098117329 -0.012613255 0.10784154
-0.00085529366 -0.015035888 0.1104768
0.00049810129 0.016473635 0.083603792
0.00030896516 0.015370594 0.085745113
0.00024525418 0.014075241 0.087256889
0.00011855436 0.0125426 0.088244431
0.00010385632 0.010914643 0.088616952
0.00034821414 0.0090057425 0.088737433
0.00066872758 0.007124911 0.088897884
0.0010754838 0.0052052413 0.08920355
0.0014869004 0.0033967908 0.090380909
0.0015761025 0.0019118645 0.091309433
0.0016911443 0.00042529326 0.092489415
0.001341968 -0.0010065562 0.094260959
0.00089710419 -0.0021500009 0.097312385
0.00078602658 -0.0036402063 0.099251115
0.00077248741 -0.0050892691 0.10083168
0.00076301015 -0.0067067601 0.10214203
0.00075140912 -0.008518724 0.10322329
0.00080656909 -0.010401183 0.10555282
0.00090367049 -0.012643596 0.10775775
0.0010250986 -0.015083367 0.11026401
0.0018904312 0.016430492 0.083726209
0.0017710235 0.015341944 0.08587516
0.0017115347 0.014051626 0.087524982
0.0016327556 0.012526271 0.088645627
0.0015845398 0.010804457 0.089065629
0.0019009093 0.0088096613 0.08954954
0.0021292027 0.007019124 0.090487673
0.0024035597 0.0053780513 0.09101292
0.0026396392 0.0039004311 0.091965597
0.0028737897 0.0023790146 0.092859154
0.0029128671 0.00091685105 0.093893085
0.0027012091 -0.00069772011 0.095444763
0.0025934167 -0.0020430657 0.098145552
0.0025413349 -0.0035961925 0.099540088
0.0025240293 -0.0052159492 0.10067746
0.0024902359 -0.0067904099 0.10212817
0.002537729 -0.0086271133 0.10312054
0.0026770002 -0.010513086 0.10529703
0.002811422 -0.012720352 0.10758323
0.002920569 -0.015127706 0.10995079
0.0033010809 0.016365859 0.083729015
0.003192485 0.015258575 0.085740197
0.003102968 0.013934895 0.087785926
0.0030299476 0.012463634 0.08869321
0.0030549182 0.01084187 0.089302239
0.0033211432 0.0090069063 0.089920621
0.0034132632 0.0073102492 0.091121498
0.0036755332 0.0058712602 0.092178059
0.0038586468 0.0044467493 0.093051676
0.0039672457 0.0029317621 0.094020926
0.0040936947 0.0014172498 0.095126294
0.0039922225 -0.0002371684 0.0969638
0.0041753019 -0.0018731828 0.098901735
0.0042248896 -0.0034859185 0.10011163
0.0041793351 -0.0051859959 0.10112966
0.0042669552 -0.0068390726 0.10224076
0.0043259607 -0.0086993368 0.10327902
0.0044542238 -0.010708946 0.10535206
0.0046805407 -0.012932598 0.10760319
0.0049214125 -0.015172191 0.11017083
0.004698948 0.016317359 0.084056438
0.0045541227 0.015258116 0.08598028
0.0044648293 0.01396709 0.087633537
0.0044778789 0.012555985 0.088488531
0.0044869318 0.011014014 0.089538959
0.0047443209 0.0093150409 0.090412699
0.0048658707 0.0077660552 0.091502449
0.0049297664 0.0064044126 0.092971351
0.005170436 0.0049285707 0.09397824
0.0052549668 0.0034708716 0.095176698
0.0051531841 0.0018772731 0.096794793
0.0053986523 0.0001094137 0.098506625
0.0059003188 -0.001733384 0.099819432
0.0059655467 -0.0033841019 0.10075739
0.0060441503 -0.0051540201 0.10159313
0.0059966726 -0.0068943307 0.10261185
0.0060961618 -0.0087350931 0.10373231
0.0061992862 -0.011047211 0.10521435
0.0065477933 -0.01336862 0.10756321
0.0059350564 0.016235109 0.084607242
0.0059912375 0.01527639 0.086060178
0.0059480426 0.01395585 0.08742934
0.0059440294 0.012539418 0.08823332
0.0059500388 0.011127238 0.089486885
0.0062533273 0.0096329663 0.090351801
0.0064405133 0.0081644489 0.091698903
0.0063943853 0.0068191989 0.09330623
0.0065350268 0.0053675261 0.094763338
0.0067885147 0.0035128506 0.096398446
0.0068327284 0.0020210276 0.098145363
0.0073366118 0.00021092435 0.099793647
0.0076260207 -0.0016552339 0.10046368
0.0077215366 -0.0034010759 0.10131103
0.0077801886 -0.0051722062 0.10233189
0.0077673239 -0.0069352115 0.10330237
0.0079493675 -0.0090989066 0.10400036
0.0081708335 -0.011519715 0.10556351
0.0084776156 -0.014015441 0.10735682
0.0087796971 -0.015899587 0.10913588
0.0072284672 0.01705327 0.083337567
0.0073674981 0.016260177 0.084868531
0.0074196446 0.015267101 0.086270816
0.007439435 0.013963051 0.087604287
0.0073865913 0.012547172 0.088235444
0.007432694 0.011009915 0.089553431
0.007603966 0.0096141209 0.090468614
0.0078979191 0.0084031466 0.091628651
0.0077763006 0.0072242366 0.094052465
0.0082324645 0.0054105457 0.095235623
0.0084531259 0.0035891464 0.096828942
0.0086476987 0.0019569297 0.099020088
0.0089737013 0.00026016295 0.10028655
0.0092739116 -0.0015809537 0.10114139
0.0094199378 -0.0033359654 0.10204575
0.0095344596 -0.0052336748 0.10281548
0.0097360776 -0.0072979526 0.10367393
0.0099270597 -0.0094357429 0.10444418
0.010132527 -0.011949548 0.10565773
0.010302675 -0.014614022 0.10675565
0.0085769134 0.017095351 0.083361898
0.0087603901 0.016224995 0.084899619
0.0088347579 0.015193737 0.086278225
0.0088279996 0.01390549 0.08762676
0.0088944724 0.012428478 0.088527153
0.0089817664 0.010965636 0.089659518
0.0090548633 0.0095753184 0.09052929
0.0092008406 0.0081040077 0.09161298
0.0095008692 0.0072330302 0.09421944
0.0099842173 0.005322119 0.095345622
0.010201588 0.0037089341 0.097729707
0.010370216 0.0020922213 0.099488784
0.010596352 0.00042128271 0.10042801
0.010829701 -0.0013378971 0.10166087
0.011147198 -0.0032711692 0.10257772
0.011331062 -0.0052185474 0.10313079
0.011603907 -0.0073347687 0.10419781
0.011842292 -0.0095924571 0.10508621
0.012038737 -0.012336255 0.10606675
0.012173122 -0.014987467 0.10698645
0.0099678772 0.017169286 0.083419809
0.010096923 0.016317629 0.084718785
0.010103627 0.015257851 0.08610138
0.010261944 0.013906357 0.087289015
0.010397023 0.012505049 0.088184076
0.010495002 0.011049231 0.089426182
0.010587689 0.0096825337 0.090493016
0.010699787 0.0082587343 0.091540167
0.011286117 0.0069169145 0.093953395
0.011569156 0.0053000872 0.095769454
0.011831349 0.0038116209 0.098056738
0.012125347 0.0021898281 0.099720335
0.012394471 0.00053426649 0.10065018
0.012581519 -0.0012854223 0.10176047
0.012871949 -0.0031355947 0.10274087
0.013158934 -0.0050876493 0.10363454
0.013489255 -0.007265486 0.10477081
0.01366271 -0.0099798953 0.10597587
0.013940166 -0.01277704 0.10684716
0.014115746 -0.015034202 0.10748722
0.01143358 0.017536684 0.083985747
0.011534233 0.016557792 0.084899853
0.011503933 0.015340072 0.086212772
0.011742972 0.01394097 0.08734824
0.011915 0.012533441 0.088121174
0.01194873 0.0110991 0.089220471
0.01205739 0.0097403359 0.090216531
0.0121342 0.0083249962 0.091233304
0.012358069 0.0070739531 0.093651466
0.013138259 0.0052402819 0.095925087
0.013532631 0.0037705865 0.098038257
0.013865749 0.0022136599 0.099876949
0.014144995 0.00061055242 0.10095104
0.014392202 -0.0010906338 0.10168412
0.014672695 -0.0029939848 0.10302369
0.014943957 -0.0049842841 0.10390004
0.015306625 -0.0073707517 0.10568068
0.015600012 -0.010644463 0.10713193
0.016020026 -0.013092433 0.1081799
0.012855571 0.01753837 0.083976616
0.012917717 0.016708927 0.085207961
0.012962682 0.01548172 0.086253704
0.013237429 0.01394517 0.087627576
0.013380701 0.012557354 0.088304209
0.013405764 0.01116474 0.089329669
0.013522115 0.0097955514 0.090252955
0.013667007 0.008402838 0.091357389
0.013869008 0.0070303377 0.093190288
0.014663758 0.0051461959 0.095900382
0.015331981 0.003755852 0.09845795
0.015706634 0.0022001085 0.099889089
0.016029594 0.00053015613 0.10124654
0.016107381 -0.0011188113 0.10190334
0.016458275 -0.0029289537 0.10335581
0.016873851 -0.0050313069 0.10502214
0.017353257 -0.0075685429 0.10715173
0.017809125 -0.010580912 0.10861304
0.014431369 0.017630153 0.084317516
0.014526192 0.016846372 0.085543257
0.014543766 0.015730859 0.086670918
0.014748257 0.014101183 0.087502073
0.014875 0.012755382 0.088546257
0.014993957 0.011309795 0.089612249
0.015081448 0.0098476121 0.090588088
0.015240202 0.0084855534 0.092126666
0.015654436 0.0071460227 0.093849671
0.016150021 0.0053372988 0.095791839
0.01700726 0.0037144776 0.098524099
0.017460208 0.0021335656 0.099883032
0.01776868 0.00051645441 0.10126532
0.018011238 -0.0011267811 0.10233371
0.018318764 -0.0029603286 0.10383516
0.018920061 -0.0051467935 0.10622129
0.019779371 -0.0080100849 0.10916417
0.016064921 0.01792711 0.085045315
0.016124679 0.016958573 0.086195839
0.016145199 0.015681 0.087185596
0.016319733 0.014344711 0.088070436
0.016443335 0.012913267 0.088884734
0.016606931 0.011465022 0.09018307
0.016656101 0.0099284269 0.091040908
0.016951868 0.0085395057 0.092456628
0.017472805 0.0070999434 0.094647062
0.017763034 0.0054610912 0.09590862
0.01862137 0.0038068541 0.098423306
0.019155081 0.0021730397 0.099738334
0.019570948 0.00062407457 0.10130618
0.020051565 -0.0012132859 0.10290335
0.020464702 -0.0031611127 0.10480622
0.021197432 -0.0054751846 0.10751125
0.022048919 -0.0078639865 0.11025931
0.017659817 0.018127588 0.085825686
0.01773134 0.017049282 0.086852519
0.01771046 0.015752861 0.087577189
0.017913143 0.014480605 0.088654685
0.018073171 0.013080459 0.089584623
0.018373616 0.011545765 0.090415463
0.018291726 0.0099873095 0.091163877
0.018462493 0.0084975801 0.092326841
0.019171845 0.0070775679 0.095076923
0.019567639 0.005513944 0.096448329
0.020652503 0.0038118377 0.098911427
0.02107995 0.0022118275 0.10026434
0.021574842 0.00048196062 0.10175632
0.022117612 -0.0015727187 0.10353575
0.023045125 -0.003624293 0.10614581
0.023496778 -0.0055920031 0.10886208
0.019133255 0.018190424 0.086025212
0.019342662 0.017090236 0.087209353
0.019431476 0.015826769 0.088042424
0.019635294 0.014482337 0.08896026
0.019790308 0.012893645 0.089512618
0.019985618 0.011334988 0.090315814
0.019938905 0.0098774582 0.091192658
0.020112791 0.0084657125 0.092440166
0.020851633 0.0070157149 0.095162812
0.021332977 0.0055257827 0.096576862
0.022463105 0.0037679302 0.09896839
0.022941631 0.0021224652 0.10063201
0.023558025 0.00024257222 0.10218613
0.024349443 -0.0017491243 0.10435116
0.025211964 -0.003651252 0.10710276
0.025922216 -0.0057438243 0.11026581
0.020600631 0.018178832 0.086148036
0.020919777 0.017040959 0.087354537
0.021246098 0.015620646 0.088133243
0.021371676 0.014278507 0.089056544
0.021375063 0.012800389 0.08941491
0.021530446 0.011260628 0.090097043
0.021512493 0.0097807508 0.090973715
0.021882791 0.0084042097 0.092871381
0.022401871 0.0069365582 0.094807133
0.023066469 0.005356651 0.096120043
0.024232943 0.003726709 0.098950246
0.025166556 0.0019526525 0.10169874
0.025649198 8.6839701e-05 0.10295075
0.026412708 -0.0016593933 0.10503616
0.027383559 -0.0036770793 0.10853885
0.022210516 0.018129282 0.08641378
0.022472733 0.016871581 0.087240462
0.022791182 0.015518308 0.088081775
0.022926852 0.014146543 0.08881917
0.022949154 0.012708807 0.089281704
0.023141986 0.011248376 0.090133356
0.02408775 0.0098973047 0.092314033
0.024184761 0.0084662162 0.093654321
0.02452198 0.0068126679 0.094946019
0.02574678 0.0052794693 0.097396876
0.026623805 0.0037102178 0.099826482
0.027743899 0.0016903535 0.10285446
0.028137086 0.0002031756 0.10459331
0.028713708 -0.0016093542 0.10661894
0.029635897 -0.0037906722 0.1100198
0.023768054 0.017983289 0.086418234
0.024101742 0.016786462 0.087426857
0.02433425 0.015455318 0.088193975
0.024448038 0.014061714 0.088713941
0.024551637 0.012666249 0.089364184
0.024910034 0.01135193 0.090379627
0.025637025 0.010021974 0.091791213
0.025959764 0.0085977545 0.092886437
0.026426409 0.0071060434 0.094569295
0.027708173 0.0054197866 0.097565405
0.028893996 0.0036001425 0.10109449
0.030262223 0.0018046144 0.10403958
0.030626919 0.00014732649 0.10612895
0.030974679 -0.0015208733 0.1081687
0.03175347 -0.0035886948 0.11068815
0.025232313 0.017884481 0.086190279
0.025623163 0.01669253 0.087385257
0.025879295 0.015367251 0.088240027
0.025995304 0.014029311 0.088735622
0.026102871 0.012589206 0.089307427
0.026554521 0.01123927 0.089901755
0.026891766 0.0099216778 0.09083609
0.027296559 0.0085816456 0.092022224
0.027755033 0.0070785771 0.093458287
0.029299375 0.0055454666 0.097168214
0.031330416 0.0035759486 0.10249087
0.032288206 0.0019442189 0.10541641
0.032646529 0.00030688057 0.10704998
0.033094888 -0.001311673 0.10934158
0.026734756 0.017769829 0.086234693
0.027080174 0.016601991 0.087241803
0.027418867 0.0153223 0.088005045
0.027704399 0.014075253 0.088884991
0.027984412 0.012611129 0.089302597
0.028112346 0.011209247 0.089703387
0.02831592 0.0098904256 0.090456379
0.028758764 0.0085802207 0.091792686
0.030187274 0.0073458925 0.095057878
0.030998052 0.0056525057 0.09732923
0.033715147 0.0036021987 0.10388252
0.034374443 0.0021853954 0.10685426
0.034803248 0.000539325 0.10871668
0.035429944 -0.0010953461 0.11089141
0.027882337 0.017639993 0.08533289
0.028546575 0.016598602 0.087111473
0.028956802 0.015363117 0.087981067
0.02925161 0.013988905 0.088529326
0.029411319 0.012518824 0.088923735
0.029549246 0.011149715 0.08947794
0.029696369 0.0098228674 0.090144697
0.030362955 0.0085945495 0.091984527
0.031702774 0.0073750466 0.094918322
0.032426491 0.0057554373 0.096633319
0.036408079 0.0037738355 0.1068843
0.036918307 0.0020506936 0.10864517
0.037199173 0.00029189792 0.10993635
0.038302338 -0.0019490197 0.1111076
0.028811142 0.017406405 0.08388779
0.029715633 0.016505309 0.086174517
0.030210336 0.015182053 0.087279198
0.030623628 0.013854025 0.088114694
0.030790267 0.012396839 0.088519192
0.031008212 0.011059978 0.089253742
0.031413969 0.0097759638 0.090448275
0.031758059 0.008514291 0.091490839
0.032846543 0.007194852 0.093799812
0.03512624 0.0053668616 0.09874084
0.038994716 0.0037394727 0.10783074
0.039453953 0.0019088734 0.10950139
0.040106734 -0.00025240212 0.11049501
0.040522264 -0.0020006961 0.11128592
0.030632731 0.016228071 0.084660633
0.031313149 0.014935618 0.086096665
0.031853221 0.013614365 0.087039627
0.032108179 0.012194619 0.0878964
0.032361606 0.010781898 0.088754043
0.032837044 0.0094512252 0.090064082
0.033368134 0.0082707792 0.091526246
0.034393284 0.0069906641 0.093864515
0.039468295 0.0048633805 0.10393683
0.041042842 0.0036536559 0.10814325
0.041741938 0.0016834291 0.10983744
0.042217901 -0.00040023529 0.11054715
0.042934576 -0.0021536518 0.11129824
0.032252616 0.014766848 0.084222187
0.03291175 0.013453679 0.085488652
0.03356123 0.012107938 0.087458035
0.03393848 0.010526945 0.088435447
0.03428732 0.0092153601 0.089656159
0.034817911 0.0080517657 0.091103047
0.037116402 0.0066651027 0.095893224
0.041393618 0.0048479593 0.1043593
0.042741401 0.00372427 0.10792305
0.043460954 0.0018127997 0.10920207
0.044062158 -0.00033441727 0.11010477
0.044390547 -0.0022605467 0.11041257
