ply
format ascii 1.0
comment Automatically gnerated by model-converter
element vertex 764
property float x
property float y
property float z
element face 0
property list uchar int vertex_indices
end_header
-0.029463818 0.018216081 0.088413782
-0.029987426 0.016962243 0.09007217
-0.030129956 0.015471726 0.090715364
-0.03027774 0.013876253 0.091111287
-0.03056938 0.01230171 0.091866054
-0.031072415 0.011008413 0.092938855
-0.031445913 0.0097340522 0.093930617
-0.031799383 0.0084726233 0.094751954
-0.032619763 0.0072201998 0.096233472
-0.033777542 0.0062418547 0.099004015
-0.035048146 0.0047258786 0.10223987
-0.035477117 0.0029250199 0.10325127
-0.035556741 0.0011530229 0.10332597
-0.035501923 -0.00064749783 0.10342743
-0.035686746 -0.0027165669 0.10392962
-0.036178015 -0.005005118 0.10523317
-0.036905766 -0.0075812405 0.10783708
-0.028492332 0.01844077 0.089584179
-0.028777691 0.01716662 0.090886049
-0.0288982 0.01562514 0.091370545
-0.029035829 0.014004566 0.091724128
-0.029392933 0.012473495 0.092550538
-0.029862223 0.011135962 0.093592577
-0.030375019 0.0099837491 0.094954692
-0.030937664 0.0087145027 0.095979109
-0.031634387 0.0074953195 0.09758874
-0.032626737 0.0063369451 0.10001536
-0.033657618 0.0045821969 0.10276814
-0.034081701 0.0028006288 0.1040378
-0.034202371 0.0011266618 0.10416155
-0.034224838 -0.00084726478 0.10453949
-0.034505635 -0.0030399617 0.10524248
-0.034812562 -0.005351169 0.10630728
-0.035389509 -0.0076681995 0.10793009
-0.026728736 0.018374227 0.088541828
-0.027243767 0.017253678 0.090491563
-0.027617211 0.015641099 0.091863014
-0.027758649 0.014067751 0.092429332
-0.028104277 0.012704392 0.093319833
-0.02845999 0.011297902 0.094231039
-0.028929917 0.010023595 0.09548638
-0.029524576 0.0088498481 0.09658397
-0.03035851 0.0076678335 0.098769046
-0.031198025 0.0063413722 0.10097426
-0.032006647 0.0044908505 0.1029999
-0.032543994 0.0026396213 0.10472883
-0.032679215 0.00079506671 0.10547487
-0.03277937 -0.0011365414 0.10570125
-0.033058885 -0.0031649866 0.10644233
-0.033382058 -0.0055423379 0.10750844
-0.033694714 -0.0076890606 0.10861699
-0.02506193 0.018368769 0.08798039
-0.025686674 0.017341577 0.090162277
-0.026341183 0.015861493 0.092372581
-0.026463954 0.014243927 0.093235485
-0.027007615 0.013048911 0.094686396
-0.027293479 0.011585155 0.095396101
-0.027645029 0.010180002 0.096316479
-0.028150745 0.0089456355 0.09748029
-0.028852854 0.0076961201 0.099371321
-0.029669113 0.006282575 0.10194039
-0.030314803 0.0044528404 0.10329133
-0.030757645 0.0026267213 0.10479075
-0.031069143 0.00058829674 0.10622482
-0.031242801 -0.0014183505 0.10686541
-0.031465288 -0.0032760389 0.10737783
-0.031839576 -0.0052242996 0.10826138
-0.032099839 -0.0074547017 0.10944672
-0.023566538 0.018413816 0.087977789
-0.024252843 0.017463848 0.090353519
-0.024986673 0.016153581 0.092547715
-0.025014333 0.01471711 0.093788587
-0.02546582 0.013123456 0.094993569
-0.025715388 0.011645316 0.095783159
-0.026272653 0.010300311 0.097236894
-0.026695946 0.0090559842 0.098596409
-0.027278863 0.0076350924 0.099790931
-0.027913224 0.0061888257 0.10206088
-0.028510749 0.004496275 0.10310683
-0.028803248 0.0024815074 0.10442106
-0.029461164 0.00059956277 0.1065191
-0.029618783 -0.0015221462 0.10751915
-0.029864592 -0.0034181953 0.10823878
-0.030145835 -0.005287447 0.10902848
-0.030314524 -0.0071497913 0.10986905
-0.021984994 0.018361252 0.087646894
-0.022890558 0.017441513 0.090590268
-0.023350215 0.016270636 0.092677809
-0.023494199 0.014938767 0.093716964
-0.023760963 0.013243084 0.09493725
-0.024062462 0.01167 0.096069738
-0.024734687 0.01038909 0.097870335
-0.025159961 0.0089207096 0.098842099
-0.025557684 0.0075104227 0.10008559
-0.02606214 0.0060201525 0.10161541
-0.026326315 0.0042230426 0.10266167
-0.026991036 0.0024005421 0.10426325
-0.027541459 0.00053178967 0.10647628
-0.027872903 -0.0014514244 0.10783435
-0.028024588 -0.0034598331 0.10854749
-0.028127342 -0.0053157904 0.10934057
-0.028277121 -0.0071878363 0.11015616
-0.020319544 0.018256957 0.087237127
-0.021296201 0.017439587 0.090383574
-0.021678396 0.016350739 0.092512056
-0.02191522 0.014998782 0.09386573
-0.022166641 0.013521057 0.094986558
-0.022554338 0.011806742 0.096346289
-0.023183756 0.010377314 0.098201081
-0.023449622 0.0088964123 0.099047132
-0.023742335 0.0073864958 0.10002043
-0.024068695 0.0058598598 0.10115888
-0.024347743 0.0041454984 0.10207025
-0.024826689 0.0023161715 0.10388748
-0.025571346 0.00050803804 0.10617168
-0.026065154 -0.0014121259 0.10787145
-0.026246279 -0.0032915019 0.10879545
-0.026191615 -0.0052030832 0.10969158
-0.026578905 -0.0069223102 0.11013184
-0.018898726 0.0181784 0.087358981
-0.019659888 0.017367156 0.090023309
-0.020059535 0.016349578 0.092400014
-0.020279499 0.015010605 0.093739897
-0.020582967 0.013558256 0.09520375
-0.02088799 0.011941722 0.096293621
-0.021405324 0.010317381 0.097996242
-0.021712502 0.0087520629 0.09899652
-0.021989645 0.0071849814 0.099813938
-0.022288015 0.0056789741 0.1009089
-0.022490574 0.0039629047 0.10162191
-0.022898385 0.0023017796 0.10329358
-0.023427706 0.00049289491 0.10545756
-0.024060894 -0.0013045607 0.10742532
-0.024320768 -0.0031135974 0.10852067
-0.024347983 -0.0050740042 0.10939226
-0.024268059 -0.006905952 0.11015114
-0.017314898 0.01815824 0.087042384
-0.017796589 0.017290113 0.08942315
-0.018280352 0.016285786 0.091815442
-0.018581282 0.014995027 0.093632959
-0.018917453 0.013533238 0.095177174
-0.019133329 0.011819677 0.096103728
-0.019563179 0.010142259 0.097487167
-0.019968962 0.0086530643 0.099031776
-0.020245316 0.0070661367 0.099886641
-0.02044508 0.0054513989 0.10058461
-0.020667855 0.0038428754 0.1013894
-0.020892397 0.0022383116 0.10280062
-0.021190993 0.00058656128 0.10430438
-0.021701818 -0.001306117 0.10594077
-0.022112843 -0.0031274525 0.10747232
-0.022389224 -0.0048850318 0.10837196
-0.022246808 -0.006744666 0.10917527
-0.022153147 -0.0088764811 0.11006382
-0.015761768 0.017996399 0.086249031
-0.016167359 0.017128201 0.088703834
-0.016446421 0.016184462 0.09085685
-0.016833952 0.014892842 0.093037128
-0.017180085 0.013348789 0.094798461
-0.017359294 0.011695032 0.095905714
-0.017783459 0.0099852793 0.097146571
-0.018205218 0.0086098248 0.098876238
-0.018485883 0.0070180055 0.099794231
-0.018587671 0.0053811674 0.10036282
-0.018824581 0.0038236671 0.10112951
-0.018959196 0.0022544037 0.10216929
-0.019198287 0.00052303768 0.10353209
-0.019534096 -0.0013084845 0.10465226
-0.019771684 -0.0031815853 0.10569242
-0.020083126 -0.0050513106 0.1067005
-0.020140644 -0.00722493 0.10754466
-0.020306025 -0.0091755893 0.10872
-0.020574095 -0.01118806 0.11043613
-0.014185349 0.017980983 0.085666128
-0.014585047 0.016976284 0.087951072
-0.014770471 0.015823981 0.089962192
-0.015067928 0.014721602 0.092579223
-0.015328709 0.013139909 0.09434624
-0.015458226 0.011496464 0.095631212
-0.015974967 0.0098800296 0.097038202
-0.016418809 0.0084658349 0.098717786
-0.016650308 0.0069594439 0.099747024
-0.016762255 0.0054468382 0.1002819
-0.016877886 0.0038750686 0.10075025
-0.017027903 0.0022425512 0.10157695
-0.017274916 0.00051873852 0.10270591
-0.017350666 -0.0012944231 0.10314936
-0.017470056 -0.0031650285 0.10379696
-0.017464982 -0.0048861862 0.10479631
-0.017802939 -0.0071257451 0.10600406
-0.017937401 -0.0090975463 0.10716338
-0.018251214 -0.011170924 0.10912723
-0.018348111 -0.012778109 0.11081842
-0.012632349 0.017975992 0.085198537
-0.013051705 0.016846053 0.087617256
-0.013149937 0.015664078 0.089346386
-0.013262467 0.014554348 0.091952741
-0.013473832 0.013071285 0.093725495
-0.01343795 0.011578153 0.095218815
-0.013219655 0.010151964 0.096649155
-0.013649897 0.0086397287 0.09840937
-0.014700993 0.0070538349 0.099504016
-0.01460435 0.0056533399 0.10006493
-0.014873496 0.0039579147 0.10058212
-0.014994539 0.0021867631 0.10093506
-0.015153325 0.00049094291 0.10157914
-0.015236168 -0.0012145276 0.1022214
-0.015274488 -0.0030396932 0.10251622
-0.015363957 -0.0048204954 0.1033624
-0.015613654 -0.0068594841 0.10462174
-0.015789419 -0.0088110827 0.10590006
-0.016080659 -0.010848001 0.10781757
-0.016445087 -0.013005357 0.11044452
-0.011190012 0.017842745 0.084812418
-0.011418215 0.016753251 0.086803392
-0.011573596 0.015537723 0.088791609
-0.011496416 0.014365396 0.090790212
-0.011506671 0.013143552 0.093043521
-0.011342318 0.011695858 0.094051048
-0.011025434 0.010331701 0.095254242
-0.01064158 0.00898859 0.096602693
-0.010280431 0.007624337 0.097970597
-0.012538076 0.0056340517 0.099277899
-0.013007358 0.0038665903 0.10001928
-0.013190529 0.0021440994 0.1005175
-0.01325384 0.00041078555 0.1008374
-0.013290472 -0.0013224534 0.10124521
-0.013441949 -0.003067117 0.10182219
-0.013502659 -0.0048743407 0.10269952
-0.01357809 -0.0067254589 0.10358582
-0.013753526 -0.0085899159 0.10487113
-0.014042946 -0.010664439 0.10682894
-0.014362106 -0.012757759 0.10947637
-0.0097867697 0.017661296 0.084280863
-0.009933901 0.016640566 0.086389013
-0.010111154 0.01540144 0.088300705
-0.010020638 0.014135155 0.090014003
-0.0097327614 0.013034583 0.091779426
-0.009483479 0.011732292 0.092965268
-0.0091003794 0.010376312 0.093895368
-0.0088429684 0.0089156982 0.094765693
-0.0085585844 0.0074359537 0.095645919
-0.0086802049 0.0057981475 0.096705519
-0.0099487063 0.0039164424 0.098768696
-0.011122476 0.0021460189 0.099709459
-0.011394712 0.00040989544 0.10024821
-0.011527458 -0.0013115524 0.10056802
-0.011594796 -0.0030874 0.10124797
-0.011694742 -0.0049115173 0.10234923
-0.011768469 -0.0066288211 0.10325205
-0.011755371 -0.0084584896 0.10417604
-0.011968098 -0.010420577 0.10604629
-0.012299982 -0.01256331 0.10849351
-0.0083320616 0.017572891 0.084075823
-0.0084545156 0.016509674 0.085857362
-0.0087011512 0.015323774 0.087581374
-0.0085896971 0.014068821 0.089220189
-0.0082415426 0.012935814 0.090690896
-0.0079059051 0.01156592 0.091185525
-0.0075595574 0.01023767 0.091980062
-0.007437916 0.008757933 0.092551038
-0.0073428345 0.0071326997 0.093449794
-0.0074729673 0.0055449232 0.094375238
-0.0079084905 0.0038214456 0.09580911
-0.008464694 0.002037067 0.09756285
-0.0090902224 0.00030326939 0.099109828
-0.0095263459 -0.0014625218 0.099765532
-0.0097670304 -0.003088071 0.10092656
-0.0098087937 -0.0047543477 0.10201596
-0.0098286029 -0.0064618238 0.1027817
-0.0098872483 -0.0083058979 0.10400466
-0.010127241 -0.010285973 0.10571118
-0.010269389 -0.012412594 0.10778196
-0.010496005 -0.014454842 0.11065144
-0.0069371616 0.017490411 0.083641753
-0.0069702612 0.016426591 0.085153565
-0.007144358 0.015229711 0.086834408
-0.0071730562 0.013923662 0.08815743
-0.0070787743 0.012667065 0.08934547
-0.0065631997 0.011519898 0.090174638
-0.0063625243 0.0097954804 0.090188965
-0.0063181892 0.0082223704 0.090617269
-0.0063589262 0.006714283 0.091713026
-0.0064213932 0.005183131 0.092531472
-0.0065947431 0.0034923926 0.093745224
-0.0069021196 0.0017480865 0.095296033
-0.0074368776 -3.2667122e-06 0.097232662
-0.0076778769 -0.0017233603 0.098909087
-0.0079061426 -0.0032420254 0.1006315
-0.0079085268 -0.0047241729 0.10181741
-0.0079994695 -0.0064238091 0.10268302
-0.0080413977 -0.0081050824 0.10386998
-0.0082480656 -0.010306408 0.10545586
-0.0084202671 -0.012401408 0.10733259
-0.0085825305 -0.01466 0.11054107
-0.0054806545 0.017471373 0.082977191
-0.0055092312 0.016362598 0.084461078
-0.0056192479 0.015182441 0.086047329
-0.0057346239 0.013824864 0.087269284
-0.0058865398 0.012334575 0.088225618
-0.0059576938 0.010816287 0.088447727
-0.0056622471 0.0093980562 0.088842854
-0.0055912337 0.0077720238 0.089190058
-0.0057149907 0.0062416764 0.089620285
-0.0056340271 0.004763999 0.090583928
-0.0054724654 0.002841294 0.091784805
-0.0056800959 0.001280537 0.093127042
-0.0058494159 -0.0004413643 0.095149413
-0.0059825261 -0.0018891895 0.098202907
-0.0061606565 -0.0034477848 0.1000554
-0.006142552 -0.0048608161 0.1013749
-0.0062262393 -0.0065446435 0.10229702
-0.0062008048 -0.008186874 0.10369265
-0.0063830931 -0.010317382 0.10523827
-0.0064716488 -0.012336143 0.10724501
-0.0066690654 -0.014682751 0.11050418
-0.0040498809 0.016299365 0.08371561
-0.0041458029 0.015187933 0.085757248
-0.004303291 0.013886243 0.087155223
-0.0044447156 0.012348322 0.088012084
-0.0044769179 0.010779071 0.088075653
-0.0044619646 0.0091660218 0.088059619
-0.0046555926 0.0074990224 0.087938935
-0.0048087901 0.0058808345 0.088154055
-0.0047700242 0.004278088 0.088901035
-0.0040498469 0.002413634 0.090561599
-0.0041507925 0.0006385899 0.091696374
-0.0043823463 -0.00098391913 0.093553893
-0.0042801439 -0.0021125902 0.097660236
-0.0044605313 -0.0036248036 0.099526532
-0.0044894624 -0.0050109141 0.1006809
-0.0044985847 -0.0065290965 0.10197514
-0.0044760765 -0.0082419962 0.1034568
-0.0045483983 -0.010319702 0.10519821
-0.0046303165 -0.012390789 0.10755979
-0.0047033285 -0.014703427 0.11057135
-0.0025187558 0.016432084 0.083686121
-0.0026641707 0.015398676 0.085908622
-0.0028268781 0.013927316 0.087433837
-0.0029304186 0.012405626 0.088079192
-0.0029961199 0.010849684 0.088389322
-0.0030421149 0.0091544017 0.08814767
-0.0032023911 0.0072768494 0.087785661
-0.003291141 0.0056610946 0.087586492
-0.0031462377 0.00409204 0.088463128
-0.0019330089 0.0016139568 0.09025228
-0.001990333 6.0626557e-05 0.091406979
-0.0021348624 -0.0015514471 0.092897236
-0.0025712762 -0.0022236363 0.097065046
-0.0027033694 -0.0035888453 0.099454343
-0.002713094 -0.0050814734 0.10068538
-0.0027324574 -0.0066139549 0.10182006
-0.0027429974 -0.0082191471 0.10348784
-0.0027628676 -0.010222911 0.10505861
-0.002726563 -0.012426293 0.10746927
-0.0028516459 -0.014788032 0.11019436
-0.0011058484 0.016402133 0.083784677
-0.0012409481 0.015359194 0.085861422
-0.0013063388 0.013913563 0.087633476
-0.0014313896 0.012426571 0.088284709
-0.0015089102 0.010871844 0.088726856
-0.0015297884 0.0092788693 0.088835761
-0.0015874145 0.0072478275 0.08863233
-0.001643152 0.0056973556 0.088271499
-0.00094073417 0.0035903468 0.089195155
-9.4123156e-05 0.0016829214 0.090200633
-7.7620767e-05 0.00019052565 0.091783583
-0.00013765538 -0.0013376065 0.09360633
-0.00087247137 -0.0022628529 0.097061202
-0.00096151547 -0.0035623889 0.099361062
-0.00097220414 -0.0050675212 0.10079364
-0.0009418822 -0.0066498979 0.10212097
-0.001015731 -0.008370501 0.10340389
-0.0010021381 -0.010292103 0.10560833
-0.0009650258 -0.012638676 0.10780062
-0.00082854362 -0.015051316 0.1104577
0.00032950848 0.016371198 0.083797716
0.00022106874 0.015302097 0.085964464
0.00019121397 0.013983734 0.087463558
7.2516879e-05 0.012407631 0.088574164
2.564894e-06 0.010766988 0.089088663
-5.3485215e-05 0.0089283753 0.08928822
0.00017765583 0.007076513 0.089507572
0.00038524391 0.0053031486 0.089965038
0.00082603924 0.003598673 0.091038153
0.0012193193 0.0020555188 0.09173923
0.0015131506 0.00050814397 0.092766434
0.0012779824 -0.00099055294 0.094409943
0.00085654814 -0.0021720997 0.097406544
0.00075883174 -0.0036378403 0.099270776
0.00074629829 -0.0050860555 0.10082456
0.0007544157 -0.0067182556 0.10211729
0.00075127522 -0.0085348804 0.1031924
0.00081352796 -0.010419706 0.10552289
0.00092083862 -0.01265732 0.1077342
0.0010531901 -0.015081934 0.11025425
0.0017224412 0.0163345 0.08386597
0.0016893189 0.015279333 0.086039208
0.0016678686 0.013967631 0.087686822
0.0016206747 0.012448523 0.088822
0.0014241844 0.010764777 0.089288861
0.0015518438 0.0088187987 0.089906462
0.0017507246 0.0070462576 0.090964891
0.0018781567 0.0055113621 0.091600217
0.0021977918 0.004028176 0.092462771
0.0025896356 0.0024954181 0.093223751
0.0027423347 0.00099543063 0.0941552
0.0026410248 -0.0006784937 0.095599808
0.0025543976 -0.0020365012 0.098228097
0.0025204436 -0.003589899 0.099575453
0.0025172792 -0.0052210102 0.10067885
0.0024859896 -0.0067923414 0.10210707
0.002539491 -0.0086334227 0.10309261
0.0026845783 -0.010521692 0.105269
0.0028300087 -0.012722028 0.1075648
0.0029508208 -0.015117142 0.10994398
0.0031388765 0.016272061 0.083813585
0.0031102388 0.015204084 0.085848987
0.0030735231 0.013871222 0.087883845
0.0030159398 0.012416643 0.088792823
0.0029099884 0.010848951 0.089417838
0.0030324089 0.0090454994 0.090176687
0.0030844235 0.0074049714 0.091466479
0.0033372324 0.0059842952 0.092552356
0.0035796452 0.0045541706 0.093391463
0.003710787 0.0030527387 0.094323121
0.0039322078 0.0015031513 0.095358305
0.0039391802 -0.00021440496 0.097117312
0.0041345712 -0.0018389083 0.098969944
0.0042132726 -0.0034645987 0.10014314
0.004183264 -0.0051762788 0.10112914
0.0042701825 -0.0068361596 0.10222051
0.004328561 -0.0086958315 0.10325636
0.0044720261 -0.010710574 0.10532683
0.0047067283 -0.012930759 0.10758057
0.0049555721 -0.015156326 0.11015986
0.0045593418 0.016228015 0.084089331
0.0044972822 0.015205047 0.086019583
0.0044398406 0.013916451 0.087673314
0.0044605639 0.012518748 0.088538684
0.0043955017 0.011018052 0.089625567
0.0044933064 0.009369906 0.090623409
0.0045597265 0.0078743463 0.091788583
0.0046535176 0.0065190578 0.093257256
0.0049506114 0.0050445888 0.094226375
0.0050451839 0.0035846096 0.095431007
0.0050116428 0.0019498207 0.09701249
0.0053468267 0.00015402609 0.098643444
0.0058961203 -0.0016876147 0.099890023
0.0059621031 -0.0033567797 0.10079163
0.0060499366 -0.0051397262 0.10159505
0.0060069379 -0.0068950113 0.10258543
0.0061032255 -0.0087290229 0.1037067
0.0062179994 -0.011054321 0.10516631
0.0065803989 -0.013374913 0.10751796
0.0058521312 0.016172277 0.08460287
0.0059395195 0.015216909 0.086063504
0.0059213862 0.013901802 0.087434106
0.0059280177 0.01249723 0.08825244
0.0059054038 0.011107006 0.089548044
0.0060490877 0.0096662464 0.090525277
0.0061489083 0.0082704537 0.091925219
0.006134734 0.0069334786 0.093525
0.0063600959 0.0054636258 0.094945058
0.0066580791 0.0036049495 0.096576907
0.0067518107 0.0020757972 0.098297663
0.007318398 0.00026192807 0.099906854
0.0076074121 -0.0016100754 0.10053679
0.0077204606 -0.0033722888 0.1013508
0.0077863485 -0.0051619322 0.10233725
0.007780123 -0.0069428203 0.10327306
0.0079620471 -0.0091055278 0.10394114
0.0081931623 -0.011538042 0.10548501
0.0085231215 -0.014046963 0.10725673
0.0087796971 -0.015899587 0.10913588
0.0071377186 0.017034959 0.083358064
0.0072960826 0.016217437 0.084860779
0.0073718331 0.015212622 0.086251915
0.0074168891 0.013906654 0.087579884
0.0073715332 0.012500919 0.088229686
0.0074128755 0.010996075 0.089592613
0.0074878493 0.0096372114 0.090586662
0.0076753139 0.0084812911 0.091787733
0.0075563234 0.0073351166 0.094205856
0.0080772489 0.0055306894 0.095399328
0.0083526783 0.0036952505 0.09700156
0.0086001968 0.002019014 0.099151731
0.0089542642 0.00032492552 0.10041467
0.0092634046 -0.0015352807 0.10123701
0.0094177099 -0.0033092967 0.10209571
0.0095467586 -0.0052232617 0.10282212
0.0097720036 -0.0073161162 0.10360523
0.0099612623 -0.0094645834 0.10432956
0.010177907 -0.011987613 0.10551424
0.010367551 -0.014671152 0.10655394
0.0084891124 0.017123856 0.08340387
0.0086917607 0.016206354 0.084892891
0.0087966509 0.01515626 0.086246066
0.0088191992 0.013854866 0.087578833
0.0088846041 0.012388789 0.088504873
0.0089717098 0.010956474 0.089678213
0.0090387538 0.0095852492 0.090584762
0.0091469148 0.0081471661 0.091715641
0.009295864 0.0073741851 0.094347194
0.0098478468 0.0054849987 0.095531508
0.010118661 0.0038182531 0.097897649
0.010336438 0.002176011 0.099622421
0.010581284 0.00051866804 0.10058064
0.010823079 -0.0012303554 0.1018658
0.011152561 -0.0032085441 0.10270565
0.011354013 -0.0052059488 0.10312879
0.011647301 -0.0073642568 0.10410736
0.011899342 -0.0096389074 0.10493013
0.012110811 -0.012394473 0.10584737
0.012261915 -0.015067493 0.10669193
0.0098745851 0.017256537 0.08350201
0.010031843 0.016337773 0.084738418
0.010080433 0.015214737 0.086052112
0.010257122 0.013849974 0.08722242
0.01039142 0.012447459 0.088127285
0.010484483 0.011016272 0.089412704
0.010591003 0.009671079 0.090509534
0.010714015 0.0082610371 0.091577888
0.01120911 0.0070749698 0.094101377
0.011464916 0.0054697534 0.095953181
0.011778311 0.0039298809 0.098201104
0.012104576 0.002280883 0.099848375
0.01237488 0.00064286398 0.10084262
0.012572926 -0.0011795248 0.10196506
0.012880928 -0.0030792563 0.10284645
0.013190134 -0.0050895154 0.10361358
0.013545201 -0.0073144645 0.10465212
0.01374595 -0.010047283 0.10577455
0.014045021 -0.012864885 0.10654692
0.014232012 -0.01514127 0.10711098
0.011356824 0.017642042 0.084109142
0.011470092 0.016631126 0.084985018
0.011491743 0.015276951 0.086128578
0.011739689 0.013874304 0.087257005
0.011912668 0.012465733 0.088034794
0.011941855 0.011053136 0.08917781
0.012066613 0.0097049894 0.090196021
0.012150953 0.0083015962 0.091229603
0.012408225 0.0070838714 0.093664609
0.013075743 0.005387018 0.096043631
0.013504378 0.0038841162 0.098164849
0.013852427 0.0023112413 0.10000659
0.014126623 0.0007232565 0.1011456
0.014382024 -0.00099294493 0.1018431
0.014691751 -0.0029604833 0.103081
0.014992363 -0.0050030118 0.1038366
0.015395868 -0.007465078 0.10550195
0.015720353 -0.010746059 0.10685483
0.016171932 -0.013231856 0.10779472
0.012788615 0.017619615 0.084046841
0.012885144 0.016699338 0.085187823
0.01295366 0.01540875 0.086147793
0.013239409 0.01386926 0.087513149
0.013382156 0.012496003 0.088222638
0.013410361 0.011106368 0.089277469
0.01354078 0.0097477427 0.090199597
0.013693837 0.0083567034 0.09130986
0.013929321 0.0069821407 0.093130931
0.014639475 0.0052096634 0.095956735
0.015324656 0.0038411277 0.098534442
0.015702387 0.0022735475 0.099971026
0.016032118 0.00060565223 0.10135468
0.016108088 -0.0010536431 0.10199093
0.016493719 -0.002920721 0.10335159
0.016970566 -0.0051150122 0.10487486
0.017494768 -0.0076837074 0.10687415
0.017984996 -0.010729721 0.10824586
0.014388672 0.017632842 0.084284574
0.014513852 0.016788552 0.085453846
0.014555027 0.015636578 0.086547062
0.014750782 0.014037602 0.087418817
0.014874362 0.012719666 0.088507928
0.015004971 0.011259754 0.089551657
0.015105728 0.0097831581 0.090503067
0.015292116 0.0084105572 0.092021331
0.015718298 0.0070092697 0.093675479
0.016163791 0.0052869767 0.095719732
0.017017631 0.0037456648 0.098516285
0.017460996 0.0021640472 0.099902786
0.017773738 0.00056174048 0.10130419
0.018026417 -0.0010997395 0.10234403
0.018369135 -0.0029861971 0.10375528
0.019036949 -0.0052412343 0.10602941
0.019920982 -0.0081368517 0.10887113
0.016053719 0.017834574 0.084912546
0.016128138 0.016856464 0.086050928
0.016146196 0.015608612 0.087066792
0.016321836 0.014302624 0.088014811
0.016439497 0.012891803 0.08885695
0.016615426 0.011430013 0.09012834
0.016693661 0.0098422905 0.090911679
0.01700302 0.0084271831 0.092304654
0.017515883 0.006959273 0.094473049
0.017794913 0.0053537888 0.095773883
0.018645195 0.0037862216 0.098358817
0.019157501 0.002186453 0.099733524
0.019579191 0.00065296266 0.10131235
0.020080866 -0.001216857 0.10285396
0.020537354 -0.0032197863 0.10467248
0.021286316 -0.005497904 0.10734778
0.022161439 -0.0079576196 0.1100009
0.017664131 0.017986614 0.085605852
0.017736947 0.016950427 0.086677402
0.017709412 0.015695378 0.087469079
0.017912004 0.014474069 0.088603392
0.018068885 0.013091728 0.089580506
0.018380981 0.011581805 0.090465844
0.018326221 0.0099141523 0.09104459
0.01851188 0.0084093846 0.092194058
0.019211011 0.0069515309 0.094917171
0.019604459 0.0053926716 0.096290544
0.020664746 0.003816203 0.098883241
0.02109188 0.0022231028 0.10024345
0.021591071 0.00050493341 0.10174124
0.022155156 -0.0015553484 0.10349168
0.023095235 -0.0035857125 0.10608505
0.023555322 -0.0055894488 0.10873741
0.019138593 0.01803969 0.085779481
0.019347787 0.016994363 0.087017924
0.019433517 0.015769934 0.087906405
0.019643115 0.014465303 0.088892177
0.019805672 0.01290628 0.08953514
0.020002091 0.011382881 0.090402722
0.019971792 0.0098750722 0.09116888
0.020158974 0.0084126713 0.092338175
0.020888733 0.006908562 0.095016591
0.021366239 0.005401331 0.096422724
0.02246947 0.0037981924 0.098959364
0.022955559 0.0021410121 0.10061171
0.02357807 0.00028157572 0.10216077
0.024392651 -0.0017078025 0.10430724
0.025255306 -0.003621547 0.10703249
0.025958132 -0.0057455963 0.11016805
0.020606555 0.018031929 0.085915573
0.020921776 0.016931379 0.087149017
0.021251226 0.015519109 0.087945484
0.021388985 0.014238519 0.088950239
0.021392057 0.012786217 0.089396894
0.021546984 0.011285617 0.090159677
0.02154552 0.0098061245 0.090992697
0.021925051 0.0083791008 0.092798144
0.02244303 0.0068650921 0.094689183
0.023074366 0.005384767 0.096088201
0.02424008 0.0037716832 0.098950818
0.025180303 0.0019830824 0.10167313
0.025677931 0.00013261412 0.10291263
0.026463987 -0.0016236125 0.1049928
0.027425848 -0.0036728333 0.10846322
0.022210458 0.018004509 0.086198188
0.022475177 0.016763225 0.087045014
0.022796394 0.015421229 0.087893985
0.022940008 0.01407599 0.088673048
0.022967512 0.012662296 0.089196302
0.023164973 0.011236184 0.090120047
0.024140069 0.0098521234 0.092221193
0.024233658 0.0084337564 0.093575723
0.02457731 0.0068148323 0.094900958
0.025754791 0.0053374092 0.097397171
0.026631234 0.0037631586 0.099823773
0.027755026 0.0017512494 0.10283937
0.028178098 0.00022103504 0.10453459
0.028762989 -0.0015931274 0.10656241
0.029677413 -0.0038119219 0.1099317
0.023768404 0.017887644 0.086239733
0.024102019 0.016710794 0.087267391
0.024339549 0.015375406 0.088017441
0.024462868 0.013984319 0.088539638
0.024573384 0.012600577 0.089215823
0.024946019 0.011295222 0.090246893
0.025676802 0.0099189552 0.091625229
0.026006931 0.008514706 0.092758626
0.026481381 0.0070772376 0.094485722
0.027726037 0.0054425891 0.097536415
0.028902788 0.003651378 0.10109154
0.030286329 0.0018459628 0.10400831
0.030662315 0.00013886714 0.10608334
0.031021882 -0.0015470589 0.10809633
0.031798884 -0.0036216245 0.11060125
0.025240112 0.017828489 0.086068109
0.025626633 0.016652001 0.087278098
0.025887024 0.015312587 0.08810024
0.026010485 0.013959085 0.088560179
0.026123751 0.012510944 0.089121684
0.026585801 0.011111103 0.089706436
0.026928175 0.0097908806 0.090657495
0.02733588 0.0084761828 0.091872901
0.027802657 0.0070105926 0.093353748
0.029314853 0.0055353888 0.097115241
0.03134099 0.0036385108 0.10251204
0.032305956 0.0019697829 0.10543127
0.03267809 0.00031620217 0.10703088
0.03314583 -0.0013468669 0.10932692
0.026745163 0.01775069 0.086157039
0.027089348 0.016589716 0.087173536
0.027436111 0.015316332 0.087945849
0.027719751 0.014046966 0.088780604
0.02799035 0.012489874 0.089112714
0.028145328 0.011076442 0.08950413
0.028351 0.0097522382 0.090273716
0.028796371 0.0084701031 0.091637373
0.030195979 0.007272949 0.094956584
0.031011388 0.0056392914 0.097273543
0.033717729 0.0036885128 0.10393357
0.034387458 0.0022193219 0.10688094
0.034823112 0.00054226792 0.10870799
0.035483271 -0.0011859323 0.11080164
0.027920078 0.017649647 0.08528807
0.028559081 0.016619541 0.087084964
0.028972806 0.015393723 0.087969042
0.029259326 0.013962868 0.088470429
0.029423816 0.012429616 0.088784009
0.029576089 0.011036854 0.089308411
0.029742572 0.009701075 0.089975007
0.030423122 0.008479842 0.091878057
0.031699173 0.0073446664 0.094855554
0.032447524 0.0057788622 0.096600927
0.036393486 0.0038355966 0.10697468
0.036940321 0.0020203092 0.10866147
0.037266754 0.00017995882 0.10983355
0.038436674 -0.0021406913 0.11082906
0.028892752 0.017440265 0.083869703
0.029757025 0.016557403 0.086183824
0.030243468 0.015225761 0.087287687
0.030639334 0.013841531 0.088078909
0.030819399 0.012357276 0.088434309
0.031041309 0.010988405 0.089134656
0.031437829 0.0096860947 0.090317294
0.031785954 0.0084361723 0.091374069
0.032874174 0.0071848622 0.093761362
0.035124078 0.0054945727 0.098769374
0.038976897 0.0038044772 0.10796309
0.03948814 0.0018632502 0.1094988
0.040203474 -0.00037143502 0.1103325
0.040661849 -0.0021633727 0.11098522
0.030731855 0.016312985 0.084702216
0.031403765 0.015020033 0.086148463
0.03193694 0.013676967 0.087068774
0.03217797 0.012213189 0.087874562
0.032422982 0.010757573 0.088686563
0.032886971 0.0094142426 0.089988358
0.033413313 0.0082708402 0.091484278
0.034420893 0.0070205098 0.093851395
0.039421093 0.0051567312 0.10414079
0.041032102 0.0037502928 0.10828354
0.041786727 0.0016534994 0.1098083
0.042316999 -0.00047515382 0.11035985
0.043072142 -0.0022671069 0.11096492
0.032433741 0.014922165 0.084315345
0.033086862 0.013605349 0.085582703
0.033666886 0.012188426 0.087515309
0.034036048 0.010562507 0.088442251
0.034364194 0.0092345569 0.089641698
0.03488129 0.008090456 0.09110488
0.03711313 0.0067799669 0.095932581
0.041341648 0.0051991222 0.10457727
0.04272607 0.003880433 0.10806226
0.043500327 0.0018702059 0.10917683
0.044155166 -0.00033418529 0.10990722
0.044532076 -0.0022738569 0.11007313
