ply
format ascii 1.0
comment Automatically gnerated by model-converter
element vertex 764
property float x
property float y
property float z
element face 0
property list uchar int vertex_indices
end_header
-0.029440084 0.018734241 0.08860907
-0.030024452 0.017556799 0.090274219
-0.03026779 0.016142275 0.091018897
-0.030505355 0.014627869 0.09160725
-0.030919041 0.01313252 0.092615873
-0.031360205 0.011657911 0.093627825
-0.031553132 0.010115375 0.094287564
-0.031764943 0.0086629986 0.094889313
-0.032333303 0.0071261195 0.096184999
-0.032897362 0.0054977057 0.098045736
-0.033840025 0.0037580964 0.1002332
-0.034344215 0.0020753539 0.10135004
-0.034468379 0.00034553567 0.10176863
-0.034782295 -0.0012793417 0.10249862
-0.035343094 -0.003003914 0.10365364
-0.036149239 -0.0047682936 0.10548539
-0.037330461 -0.0064471737 0.10858116
-0.028488095 0.019009842 0.089887503
-0.02885418 0.017801918 0.091186922
-0.029049538 0.016292977 0.091714729
-0.02929592 0.01475739 0.092282671
-0.029752596 0.013250239 0.093356219
-0.030120334 0.011730714 0.094208222
-0.030419636 0.010260479 0.095258188
-0.030772372 0.0087261484 0.096064079
-0.031219819 0.0071973428 0.097348739
-0.0319023 0.0056194328 0.099163104
-0.032639643 0.0038654815 0.10115055
-0.033082885 0.0021801615 0.10236165
-0.033185158 0.00043798779 0.10277849
-0.033579875 -0.0012783601 0.10370973
-0.034189514 -0.0030632871 0.10504286
-0.034928292 -0.0048967325 0.10672775
-0.035732778 -0.0067331367 0.10867428
-0.026722792 0.01882086 0.088823821
-0.027250501 0.017791353 0.090780955
-0.027769821 0.016298799 0.092235699
-0.028044068 0.014828564 0.093046002
-0.028412096 0.013381526 0.093999736
-0.028667046 0.011824982 0.094709724
-0.028951589 0.010286588 0.095677647
-0.029283719 0.0088227103 0.096554041
-0.029889266 0.0072548371 0.09838546
-0.030642906 0.0056907244 0.10026399
-0.03119839 0.0039912377 0.10197496
-0.031721456 0.0021659135 0.1034049
-0.031926766 0.00044102046 0.10430384
-0.032269096 -0.0013334927 0.10512357
-0.03275452 -0.0031251752 0.10621573
-0.0335609 -0.005023659 0.10804211
-0.034066237 -0.0068778787 0.10940464
-0.025083987 0.018734325 0.088260948
-0.025658261 0.017749649 0.090374343
-0.026427847 0.016468846 0.092769508
-0.026795741 0.014956843 0.093949985
-0.027253041 0.013537364 0.095389623
-0.027451574 0.011944817 0.095870559
-0.027653895 0.010377936 0.096478332
-0.027854288 0.0088666132 0.097337838
-0.028391924 0.0073143595 0.09897317
-0.029201006 0.0057908418 0.10140427
-0.029712966 0.0040489437 0.10271836
-0.030084918 0.0022846199 0.10392762
-0.030530094 0.00034493957 0.1054089
-0.030885956 -0.0014189094 0.1065449
-0.03122982 -0.003186586 0.10733614
-0.031819923 -0.0049311339 0.10857501
-0.032394554 -0.0068388656 0.11016734
-0.023569566 0.018690941 0.088161539
-0.024180089 0.017757348 0.090480409
-0.024927544 0.016476709 0.092734959
-0.025180292 0.015079313 0.093953315
-0.025666288 0.013545594 0.095380883
-0.025853549 0.011970628 0.096038118
-0.026264592 0.01041964 0.097325903
-0.026505572 0.0089504598 0.098487239
-0.026866457 0.0073575846 0.0994558
-0.027500824 0.0058003561 0.10165664
-0.027956578 0.0041057761 0.10271152
-0.028173195 0.0022877163 0.10399505
-0.028971244 0.00041850556 0.10597992
-0.029336962 -0.0014751918 0.10743353
-0.029697421 -0.0032803007 0.10835014
-0.030104938 -0.0050197749 0.10934399
-0.030497148 -0.0068131152 0.1104757
-0.0219765 0.01855801 0.087732058
-0.022784788 0.017613473 0.090555646
-0.023286217 0.016392782 0.092605692
-0.023485472 0.015004573 0.093418811
-0.023886946 0.013529307 0.09486451
-0.024207828 0.011939149 0.096069768
-0.024688612 0.010452384 0.097845543
-0.02501201 0.0089229057 0.098843503
-0.025265197 0.0073480036 0.099791553
-0.025684231 0.00575769 0.10118662
-0.02601667 0.0041087456 0.10233637
-0.026624714 0.0023582312 0.10404621
-0.027127715 0.00031711715 0.10617854
-0.027590593 -0.0015151579 0.10771169
-0.027939756 -0.0034231869 0.10869872
-0.028233989 -0.0052751098 0.10961099
-0.028568143 -0.0070914665 0.11054847
-0.020278981 0.018329865 0.087165714
-0.021176369 0.017519766 0.090246089
-0.02160107 0.01635136 0.092259113
-0.021910835 0.014993539 0.093533564
-0.02222202 0.013570541 0.094721284
-0.022629708 0.011902603 0.096167299
-0.023109575 0.010518421 0.098119262
-0.023376988 0.0089964266 0.09923273
-0.023565715 0.0073972305 0.09995839
-0.023824656 0.0057704237 0.10088046
-0.024105996 0.0041299669 0.10192016
-0.024603462 0.0023743215 0.10388623
-0.025215389 0.00039830298 0.10609677
-0.025759127 -0.0016117113 0.10775001
-0.026127252 -0.0034831567 0.10892613
-0.026381522 -0.0053401717 0.10993306
-0.026887006 -0.0069704463 0.11045299
-0.01874458 0.018161201 0.087223005
-0.019555562 0.017420984 0.089919209
-0.019990186 0.016284559 0.092081051
-0.020258221 0.01493006 0.093313913
-0.020639196 0.01354869 0.094915401
-0.020947067 0.011933518 0.096030403
-0.021374563 0.010489938 0.097823039
-0.021636927 0.0090095159 0.099183884
-0.021790942 0.0073771172 0.099899311
-0.022057866 0.0057703781 0.10087551
-0.022264651 0.0040924044 0.10162379
-0.022636823 0.0024440774 0.10335485
-0.023171333 0.00060192777 0.105468
-0.023774948 -0.0014683134 0.10731298
-0.024100337 -0.0034081609 0.1084586
-0.024392916 -0.0053825381 0.10951821
-0.024597403 -0.0072211458 0.11041644
-0.017162118 0.018110877 0.086939189
-0.017688627 0.01721633 0.08927073
-0.018232463 0.016195112 0.09154873
-0.018591418 0.01491745 0.093295042
-0.018984187 0.013531992 0.094953511
-0.019218391 0.011863989 0.095820054
-0.019549825 0.010407297 0.097346444
-0.01992379 0.0090365745 0.099230841
-0.020120237 0.0074205284 0.1000324
-0.02029559 0.0057228664 0.10063829
-0.020460167 0.0040927261 0.10146091
-0.020726183 0.0024505761 0.10288648
-0.021034911 0.00068186445 0.10432629
-0.021454695 -0.0012681335 0.10584227
-0.021890247 -0.0033458889 0.10739854
-0.022345156 -0.0053366085 0.10846368
-0.022465226 -0.007259323 0.10936593
-0.022557241 -0.0091805682 0.1102611
-0.015597682 0.017919825 0.086165242
-0.016039831 0.017074501 0.088612624
-0.016426942 0.016009845 0.0906296
-0.016850392 0.014815513 0.092720278
-0.017269176 0.013461054 0.094700209
-0.017469491 0.011915022 0.095863972
-0.017823828 0.010365506 0.097140472
-0.018210737 0.0090410062 0.099060774
-0.018367737 0.0074432099 0.099820931
-0.018462423 0.0056991165 0.10035418
-0.018670092 0.0040792753 0.10127759
-0.018814385 0.0024543659 0.1022353
-0.019093248 0.00066410186 0.10361674
-0.019385214 -0.0011984684 0.10461007
-0.01959843 -0.0031090401 0.10566451
-0.019864073 -0.0050248539 0.10661561
-0.020074032 -0.0070364263 0.10760285
-0.02033531 -0.0089674643 0.10874723
-0.020690342 -0.010997661 0.11050053
-0.013984962 0.017790708 0.085437648
-0.014436608 0.01692207 0.087852873
-0.014710944 0.015793463 0.08984863
-0.015111596 0.014708718 0.09232381
-0.015432781 0.013339067 0.094226732
-0.015639505 0.011869461 0.095726088
-0.016038471 0.01040617 0.097151518
-0.016413426 0.0089840992 0.098833018
-0.016560799 0.0074118306 0.099720198
-0.01668399 0.0057447544 0.10030706
-0.016815717 0.0040932346 0.1009898
-0.016931516 0.0024035172 0.10169038
-0.017176186 0.00065678647 0.10275361
-0.017288536 -0.0011640873 0.1032052
-0.017385759 -0.0030250614 0.10372628
-0.017494399 -0.0048740064 0.10452617
-0.017831168 -0.0069457096 0.10601005
-0.018011354 -0.0089059593 0.10726937
-0.01834417 -0.010955114 0.10918974
-0.018462664 -0.012586198 0.11086386
-0.012453916 0.017737801 0.085010193
-0.012912298 0.016840206 0.087609917
-0.013067175 0.015691692 0.089280334
-0.013341503 0.014677081 0.0918964
-0.013609177 0.013330557 0.093703132
-0.013713451 0.011922658 0.095213972
-0.013741201 0.01049881 0.096748755
-0.014110586 0.0090434723 0.098292276
-0.01470868 0.0074217424 0.099361039
-0.014753554 0.0058255454 0.10008712
-0.014963174 0.0041301265 0.10077983
-0.015020431 0.0023672961 0.10102954
-0.015143673 0.00063328992 0.10158551
-0.015263778 -0.0011374188 0.10220949
-0.015310655 -0.0029585571 0.10236907
-0.015424947 -0.0048043763 0.10318552
-0.015697381 -0.0068044372 0.10452418
-0.015877684 -0.0087304925 0.10588142
-0.016188038 -0.010707922 0.10784701
-0.016575427 -0.012861213 0.11052003
-0.011001878 0.017659441 0.084698654
-0.011260615 0.016741986 0.086783573
-0.011469991 0.015554594 0.088784612
-0.011565763 0.01449145 0.090844527
-0.011724208 0.013368529 0.093076639
-0.011690969 0.011890147 0.093979883
-0.011620022 0.010462955 0.095057231
-0.01148448 0.0090889693 0.096425969
-0.011353687 0.0076932122 0.097830389
-0.012761037 0.0057562937 0.099043079
-0.013082651 0.00404832 0.10011556
-0.0132006 0.0023476914 0.10070235
-0.013234264 0.00058207196 0.10099036
-0.013275745 -0.001184789 0.10131704
-0.013429408 -0.0029659376 0.10180405
-0.013580058 -0.0048078017 0.10266799
-0.013658149 -0.0067043565 0.10339171
-0.013839571 -0.0085458807 0.10467624
-0.014138653 -0.010558474 0.10674612
-0.014509088 -0.012689314 0.10933686
-0.0095490311 0.01751883 0.084184062
-0.0097513613 0.016724061 0.086515274
-0.0099175591 0.015510366 0.088384457
-0.010019033 0.014274275 0.090088945
-0.0099095628 0.013186452 0.091698241
-0.0098815127 0.011846923 0.092903796
-0.0097321346 0.010399176 0.093707577
-0.0095195239 0.0089656818 0.094597314
-0.0093494649 0.0075787835 0.095709126
-0.009372503 0.0061111937 0.096992508
-0.010311661 0.0042854375 0.099167869
-0.011206519 0.0023638434 0.099781703
-0.011372414 0.00060884259 0.10047425
-0.011477164 -0.001148338 0.10075721
-0.011557016 -0.0029477461 0.10133607
-0.011735252 -0.0048198015 0.10238028
-0.011831233 -0.006625375 0.10312821
-0.011872313 -0.0084778257 0.10385342
-0.012075675 -0.010425428 0.10588664
-0.012417496 -0.01258479 0.1083173
-0.0081004565 0.017478329 0.084065974
-0.0082296757 0.016620084 0.086100728
-0.0083612656 0.015458244 0.087765064
-0.0084882788 0.014191864 0.089423641
-0.0083872141 0.013003061 0.090822999
-0.0081998789 0.011541143 0.091240927
-0.0079224475 0.01024325 0.092041385
-0.0078101966 0.0088243191 0.092820618
-0.0077620887 0.0073753614 0.093785103
-0.0079020452 0.0058110568 0.094779794
-0.0081788697 0.0042269046 0.09631547
-0.0087084411 0.0024529851 0.098026242
-0.0092588956 0.00070714869 0.099705726
-0.0095978868 -0.0010820868 0.10031011
-0.0097785527 -0.0028769771 0.10120404
-0.0098742996 -0.0047090593 0.10204547
-0.0099160419 -0.0065124475 0.10258865
-0.010015109 -0.0083749555 0.10367175
-0.010256313 -0.010361574 0.10552428
-0.010384291 -0.012392858 0.10760182
-0.010704808 -0.014500389 0.11055701
-0.0067001192 0.017407284 0.083711699
-0.0067261329 0.01649864 0.085386314
-0.0068429243 0.015381776 0.087135032
-0.0069357657 0.014078266 0.088466122
-0.0069093294 0.012770115 0.089659434
-0.0067136593 0.011489104 0.090336505
-0.0062876894 0.0099183456 0.090719115
-0.0062394058 0.0084629222 0.091367144
-0.0063464877 0.0070517505 0.092442163
-0.0064814814 0.0055384505 0.093289971
-0.0066814227 0.003928819 0.094368812
-0.0069634738 0.0022390307 0.09591598
-0.007476801 0.00052550831 0.097909544
-0.0077211522 -0.0011782576 0.099662933
-0.0079359394 -0.0028257062 0.10111913
-0.008020305 -0.0046045969 0.10191067
-0.0080693304 -0.0063724811 0.10250244
-0.0081738373 -0.0082369479 0.10356045
-0.0083295256 -0.010216381 0.10540747
-0.0085018049 -0.01233913 0.10733813
-0.0087711555 -0.014646007 0.11053897
-0.0052378874 0.017343658 0.083044827
-0.0052542293 0.016368429 0.084647305
-0.0053158445 0.01524613 0.086252343
-0.0053773692 0.013948904 0.087598611
-0.0054213393 0.012564832 0.088819008
-0.0053623144 0.011079258 0.089257151
-0.0050731073 0.009682538 0.0897028
-0.0050490699 0.0081755975 0.090057593
-0.0051529277 0.006659898 0.09057929
-0.0052429608 0.0051692077 0.091628592
-0.0053796251 0.0034988502 0.092839457
-0.0055451042 0.0018892403 0.094187487
-0.0057116403 0.00024574612 0.096164126
-0.0059287645 -0.0012384242 0.09916763
-0.0061630583 -0.0028988729 0.1009471
-0.0062739428 -0.0045781965 0.10191662
-0.0062779291 -0.006308025 0.10253705
-0.0063572419 -0.0080960155 0.10384646
-0.0064691577 -0.010168169 0.10534694
-0.0066314018 -0.012309317 0.10752061
-0.0068192785 -0.014654189 0.11054606
-0.0037975839 0.016203635 0.083789993
-0.0038360767 0.015214358 0.085930198
-0.0038643899 0.013938757 0.087329339
-0.0038838176 0.012546957 0.088530462
-0.00386259 0.01105594 0.088924073
-0.003806717 0.0095469304 0.089142181
-0.0038517593 0.0079838708 0.089135051
-0.0039468114 0.0064363121 0.089302007
-0.004018045 0.0048803164 0.090208527
-0.0039277487 0.0032015125 0.091833096
-0.0040382585 0.001516406 0.093061063
-0.004162769 -0.00013921167 0.094911576
-0.0042236736 -0.0013507155 0.098628897
-0.0044194232 -0.0029596462 0.10044485
-0.004477384 -0.0045268777 0.10136527
-0.0045420779 -0.0061980211 0.10246142
-0.0045776723 -0.0080385544 0.10378702
-0.0046255803 -0.010147538 0.10539225
-0.0047480841 -0.012289576 0.10772379
-0.004870429 -0.014663259 0.11065143
-0.00217105 0.016303698 0.08375701
-0.0022760975 0.015260919 0.085852272
-0.002364605 0.013973158 0.087396197
-0.0023685462 0.012554997 0.088252574
-0.0023526299 0.011085183 0.088840891
-0.002347193 0.0094838846 0.088948068
-0.00238089 0.0078145883 0.089024186
-0.0024694279 0.0062416289 0.089036189
-0.0024656951 0.0047724357 0.090137639
-0.0022717651 0.0028226016 0.091700904
-0.0023159066 0.0012412546 0.092880461
-0.0024228255 -0.000371376 0.094402727
-0.0025545922 -0.0014607168 0.098037731
-0.0026707193 -0.0029764772 0.10031614
-0.0027010933 -0.0045996301 0.10136775
-0.0027481734 -0.0062380561 0.10236044
-0.0027916354 -0.0079517337 0.10392058
-0.0028294607 -0.010048575 0.10531001
-0.00283857 -0.012318007 0.10766855
-0.0029967359 -0.01474598 0.11030559
-0.00075196688 0.016326433 0.083835505
-0.00082594918 0.015236983 0.085766674
-0.00083978404 0.014007825 0.087492976
-0.00086738882 0.012612689 0.088322322
-0.00084365383 0.011131467 0.088962567
-0.0008533897 0.0095732222 0.08922901
-0.00085463678 0.0077683186 0.089395407
-0.00093891792 0.0062281415 0.089381364
-0.00080306067 0.00459874 0.090538006
-0.00066780423 0.0029537769 0.09185705
-0.00067535747 0.0013699159 0.093246907
-0.00070372766 -0.0002288666 0.094920199
-0.00096384402 -0.0015666614 0.097993907
-0.00094306242 -0.0029599443 0.10021742
-0.00096094792 -0.004594282 0.10150087
-0.0009506715 -0.0062996682 0.1026692
-0.0010387108 -0.0081057726 0.10379455
-0.0010491096 -0.010132551 0.10588279
-0.0010465828 -0.012514915 0.10803901
-0.00095188478 -0.015000788 0.11060992
0.00067021349 0.01633543 0.08379225
0.00064376113 0.015232954 0.085848767
0.00062773781 0.014051576 0.087350171
0.0006251816 0.012651091 0.088637114
0.0006516114 0.011099803 0.089244913
0.00056739611 0.009431005 0.089698001
0.00053161482 0.0078532591 0.090372172
0.00055101203 0.006226796 0.090973065
0.00068533902 0.0046943354 0.092201852
0.0008015015 0.0031444038 0.093284893
0.00089712168 0.0015259556 0.094062574
0.00086534483 -7.331188e-05 0.095547016
0.00078599644 -0.0014550997 0.098270237
0.00075957423 -0.0030083172 0.10007562
0.00075888916 -0.0046173735 0.10152613
0.00075820089 -0.006390614 0.10259761
0.00074098518 -0.0082464768 0.10359354
0.00077470945 -0.01023104 0.1058351
0.00084424185 -0.012514563 0.10799201
0.00094120611 -0.015005052 0.11044936
0.0020789283 0.016363863 0.083861459
0.0021072226 0.015227113 0.085874871
0.0021148565 0.014063386 0.087568409
0.0021006067 0.01274142 0.088947699
0.0019927206 0.011155661 0.089493855
0.0020541598 0.0093855592 0.09031536
0.0021268893 0.0079267158 0.091903497
0.0021529944 0.0064088099 0.092649549
0.0022645063 0.0048796853 0.0935321
0.0023427084 0.0033180703 0.094372499
0.0023991211 0.0017693812 0.095143754
0.0023686485 0.0001003227 0.09652213
0.0025159794 -0.0013784901 0.098853123
0.0025391371 -0.0030637062 0.10010671
0.0025355213 -0.0047495361 0.1011737
0.0024858421 -0.0064806253 0.10255032
0.0025364015 -0.0083258609 0.1034819
0.0026530599 -0.010304707 0.10561055
0.0027565319 -0.012548649 0.10787162
0.0028464694 -0.015000682 0.11019371
0.003489656 0.016345896 0.083756484
0.0035584467 0.015152289 0.085699592
0.0035796851 0.014001962 0.087703686
0.0035727475 0.012630583 0.088748332
0.0035107637 0.011169132 0.089418396
0.0035388124 0.0094757732 0.090418566
0.0035637255 0.0080314065 0.092112623
0.0036703659 0.0065535184 0.093221772
0.0037887062 0.0050632113 0.094059199
0.0037824412 0.0035971494 0.095000043
0.0038867712 0.0019996755 0.095953315
0.0039663068 0.00031911673 0.097692992
0.0042469108 -0.0014572846 0.099340267
0.0043297708 -0.0031270793 0.10046183
0.0043098864 -0.0048193049 0.10136797
0.004311736 -0.0065546525 0.10254937
0.0043257533 -0.0084262527 0.10363259
0.004414262 -0.01045514 0.10572683
0.0046383604 -0.012681342 0.10797682
0.0048437368 -0.014976738 0.11050067
0.0049126301 0.016312179 0.083937447
0.0049680628 0.01514557 0.085544795
0.0050091112 0.013965544 0.087408844
0.0050527295 0.012607559 0.088323585
0.005024044 0.011209511 0.089478016
0.0050739357 0.0096427318 0.09064636
0.0051051169 0.0082163587 0.091857023
0.0051501431 0.0068041708 0.093545328
0.0053215586 0.0052405502 0.094450492
0.0053821421 0.0037893774 0.095673099
0.0053871083 0.0022285665 0.097343448
0.0056193038 0.0004445524 0.098750222
0.0060501246 -0.0014906192 0.09985891
0.0060853278 -0.0031056491 0.10096827
0.006104941 -0.0048741037 0.10164865
0.0061299333 -0.0066257732 0.10271597
0.0061106608 -0.0084775491 0.10406819
0.0062208997 -0.010716073 0.10566913
0.0065580359 -0.013005693 0.10804588
0.0063226379 0.016284771 0.084352989
0.0064065503 0.015120109 0.085487809
0.0064749485 0.013879915 0.086981561
0.0065032544 0.012512308 0.087803673
0.0065477449 0.011189664 0.089273676
0.0066317872 0.0097499108 0.090402741
0.0066856479 0.0083380411 0.091830048
0.0067352129 0.0069425323 0.093463905
0.006927375 0.00544736 0.094847776
0.0070901911 0.0036726056 0.096417725
0.0072352155 0.0021908544 0.098211799
0.007631493 0.00018754778 0.099314447
0.0077758315 -0.0014948529 0.10027651
0.0078714038 -0.0031999251 0.10136681
0.0079318611 -0.0049284424 0.10229506
0.0079890495 -0.0067700434 0.10326599
0.0079618008 -0.008753418 0.10444607
0.008190678 -0.011095474 0.10613443
0.0084865219 -0.01346796 0.10808792
0.0087544159 -0.01550259 0.10977858
0.0076291221 0.017417412 0.083387572
0.0077591515 0.016317025 0.084676065
0.007863848 0.015133968 0.08568183
0.0079630576 0.013896954 0.087005529
0.0079576937 0.012496478 0.087632906
0.0080189258 0.011128273 0.089176699
0.0080919582 0.0097463145 0.090287369
0.0082275574 0.0084330347 0.091523096
0.0083133295 0.0071521976 0.094034247
0.0085667982 0.005407855 0.095018614
0.0087751355 0.0037078896 0.096666835
0.0090606217 0.0020513692 0.098722964
0.0093115204 0.00021571301 0.099691499
0.0095074685 -0.001515791 0.10071468
0.0096830199 -0.0031482879 0.10200161
0.0097673 -0.0050275847 0.10259513
0.0099144424 -0.007061407 0.10334264
0.01001841 -0.0091069718 0.10476423
0.010184185 -0.011438205 0.10639577
0.010354587 -0.013905054 0.10790828
0.0090367086 0.017434394 0.083471615
0.0091861845 0.016333231 0.084760427
0.0092635774 0.015099411 0.085697554
0.0093419645 0.013899979 0.087004348
0.0094522671 0.012514856 0.088044159
0.0095323464 0.011159721 0.089298058
0.0096133482 0.0097513343 0.090229086
0.0097386394 0.0083027989 0.091308154
0.0099907724 0.0071166393 0.094178267
0.010239675 0.0053681266 0.094936103
0.010605606 0.0037701418 0.097385544
0.010769127 0.0020788797 0.098908916
0.01094066 0.00026412836 0.099678885
0.01114176 -0.001484363 0.10078527
0.011444921 -0.0033147196 0.10203007
0.01157084 -0.0051531559 0.10266759
0.011801288 -0.007169957 0.10382597
0.011982718 -0.009256722 0.10524278
0.012116445 -0.011728631 0.10697238
0.012220048 -0.014176952 0.10835136
0.01042813 0.017431011 0.083498861
0.010551946 0.016319323 0.084430627
0.010596562 0.015043513 0.085380051
0.010778209 0.013861378 0.086734403
0.010898227 0.012548821 0.087708191
0.011053047 0.011216063 0.08910707
0.011140958 0.0098325303 0.09018632
0.011265298 0.0084270672 0.091271072
0.01162583 0.0069913273 0.093732837
0.011931462 0.0053934203 0.095340487
0.012236307 0.0038387224 0.097579844
0.012489313 0.0021204755 0.0990396
0.012705403 0.0003680189 0.099943824
0.012872582 -0.0014311958 0.10091171
0.013169782 -0.0032360766 0.10206265
0.013420278 -0.0051309469 0.10300645
0.01368235 -0.0072253079 0.10439938
0.013828519 -0.0095130071 0.10641707
0.014035331 -0.01197816 0.10796658
0.014172281 -0.01412876 0.10894345
0.011924143 0.017571957 0.084150489
0.012001282 0.016350453 0.08461982
0.012022122 0.015066016 0.085379783
0.012252192 0.013862453 0.086826355
0.012388824 0.012542805 0.087618411
0.01252914 0.011186661 0.088914651
0.012632791 0.009816335 0.0899528
0.01274488 0.0084115025 0.090957489
0.013064611 0.0071377929 0.093581892
0.013592217 0.005382228 0.095457699
0.013903574 0.003833368 0.097504534
0.014233687 0.0021994655 0.099266697
0.014434184 0.00049717205 0.1002906
0.014697932 -0.0012528458 0.10088107
0.014963523 -0.0031196503 0.10230937
0.015221997 -0.0050865882 0.10312074
0.015576258 -0.0073635871 0.10532813
0.015784131 -0.0098607358 0.10778635
0.016142956 -0.01216299 0.10928393
0.013320123 0.017580865 0.08416532
0.013406355 0.016404331 0.084848892
0.013482749 0.015104398 0.085385476
0.013772012 0.013907733 0.087193023
0.013947338 0.012506041 0.087985963
0.014022083 0.011204362 0.089015808
0.014149516 0.0098562553 0.08998169
0.014271308 0.008433917 0.091049157
0.014570583 0.007079767 0.092880797
0.015210753 0.0053157948 0.095469013
0.015747673 0.0038593889 0.098191414
0.016055553 0.0022788484 0.099571869
0.016328117 0.00050365238 0.10071938
0.016441672 -0.001262443 0.10120464
0.016737847 -0.0030398801 0.10271487
0.017193283 -0.0051803707 0.10439793
0.017631553 -0.007382317 0.10697175
0.018002568 -0.0098971287 0.10915703
0.014808632 0.017753923 0.08467871
0.014931754 0.016581378 0.085415256
0.015060609 0.015270156 0.086151116
0.01529935 0.013885767 0.087106861
0.01545119 0.012554683 0.088069137
0.015615622 0.011247044 0.089260537
0.015720253 0.0098897847 0.0902518
0.015948083 0.0085277524 0.09179277
0.016423317 0.0071032539 0.093516167
0.016846501 0.0053809196 0.095297747
0.017484927 0.0038389688 0.098199711
0.017787462 0.0022617374 0.099606957
0.018067648 0.00056247148 0.10081021
0.018287948 -0.0011211083 0.10182589
0.018595958 -0.0030186461 0.10336795
0.019232143 -0.005169332 0.10573429
0.019985185 -0.0075107995 0.10932002
0.016356202 0.017947248 0.08549815
0.016495474 0.016703573 0.086096275
0.016625949 0.015336834 0.086690318
0.016889493 0.014000196 0.087476652
0.017011602 0.012610516 0.08824053
0.01723425 0.011323609 0.089742817
0.017289105 0.009951395 0.090680837
0.017671152 0.0085186553 0.092051204
0.018243739 0.007079669 0.094214801
0.018485899 0.00545892 0.095355932
0.019137152 0.0038779391 0.097952213
0.019493958 0.0022892134 0.099419005
0.019834454 0.00068987982 0.10096537
0.020264624 -0.0010992546 0.10266597
0.020690789 -0.0030402922 0.10462076
0.021444401 -0.0051564094 0.10740969
0.02219962 -0.0072640789 0.11054405
0.017929104 0.018038709 0.086099796
0.018074165 0.016776179 0.086647228
0.018174476 0.015404328 0.087070819
0.018459171 0.014094217 0.088028278
0.018663775 0.012691379 0.088911712
0.019024289 0.011396581 0.090240326
0.019018548 0.0099487198 0.090859651
0.019212137 0.0084766908 0.091979265
0.019963561 0.007078832 0.094727561
0.020270589 0.0055110382 0.095990107
0.021025995 0.0039384477 0.098570443
0.021372798 0.0023344155 0.10005359
0.021824996 0.00063480978 0.10154095
0.022310575 -0.0012602741 0.10351162
0.023179513 -0.0032079093 0.10624408
0.023635637 -0.005135189 0.10896312
0.019351756 0.018048125 0.085991479
0.019644314 0.016819931 0.086945131
0.019832479 0.01548799 0.087595686
0.020097175 0.014189175 0.088455376
0.020337791 0.012789607 0.089278921
0.020643226 0.01137639 0.09030877
0.020680976 0.0099070925 0.091042094
0.020862199 0.0084796729 0.09212631
0.021628181 0.0070859475 0.094965328
0.021982208 0.0055823059 0.096316875
0.022875218 0.0039550932 0.098926953
0.023216574 0.002349769 0.10042418
0.023765348 0.00062856044 0.10229474
0.024507852 -0.0013028716 0.10446722
0.025277488 -0.003167653 0.10717984
0.026001016 -0.0052639884 0.11044406
0.020773473 0.017958099 0.085750118
0.021182524 0.016819547 0.086987048
0.021525768 0.015520098 0.087853398
0.021735048 0.014212861 0.08872727
0.021878747 0.012775797 0.089210428
0.022145797 0.011342068 0.090043392
0.022240137 0.0098436433 0.090861846
0.022618074 0.0084642633 0.09253845
0.023165631 0.007020589 0.094520226
0.023658259 0.0054492646 0.095952716
0.02454484 0.0039565417 0.09874253
0.025363096 0.0023578635 0.10179334
0.02579644 0.00058910589 0.10311355
0.026594395 -0.0012872685 0.10518985
0.027525327 -0.003257862 0.10868364
0.022409982 0.017962878 0.086074009
0.022703926 0.016778032 0.086950198
0.023067223 0.015543882 0.087937087
0.02327029 0.01415704 0.088619687
0.023389305 0.012718449 0.089031212
0.023714295 0.011337535 0.090020981
0.024452388 0.0099954542 0.091809742
0.024666697 0.0085699996 0.09328188
0.024991516 0.0069226606 0.094560638
0.025943052 0.0054673283 0.09722767
0.02672855 0.0040476138 0.099780973
0.027764686 0.0023289527 0.1030812
0.028300597 0.00058548076 0.10461408
0.028806974 -0.001295861 0.10645914
0.029781913 -0.0033973846 0.11012452
0.023960488 0.017935796 0.086143601
0.024317106 0.016804159 0.087167524
0.024620291 0.01551503 0.088064153
0.024795385 0.014119095 0.088536746
0.024944907 0.012699804 0.089039739
0.025368548 0.011323812 0.089995857
0.025984346 0.010043692 0.091401119
0.026226832 0.008626508 0.092388395
0.026679796 0.0071300669 0.094248566
0.027797434 0.0055298765 0.097451646
0.028909498 0.0039770943 0.10094528
0.030260167 0.0023172409 0.10434416
0.030703136 0.000527 0.10625282
0.031126095 -0.001306405 0.10799044
0.031925358 -0.0032684696 0.11071378
0.025398989 0.017899339 0.085865006
0.025834051 0.016756791 0.087076056
0.026149524 0.015467444 0.088039886
0.026328119 0.01412751 0.088520203
0.026492579 0.012674658 0.088999238
0.026878491 0.011259956 0.089510649
0.027180017 0.0099304285 0.090369307
0.027536028 0.0085239946 0.091521211
0.027938081 0.0070644261 0.092961065
0.029308981 0.0055565285 0.096779764
0.031277489 0.0040222625 0.10231354
0.032346698 0.0023241258 0.10540827
0.032690794 0.00051580262 0.10677866
0.033380599 -0.0012861453 0.10887176
0.026941261 0.017955185 0.086207226
0.027309074 0.016789028 0.087196294
0.027645099 0.015459981 0.08788158
0.027950125 0.014162423 0.088668939
0.028208984 0.01259887 0.08887665
0.028374762 0.011154988 0.089270782
0.02855907 0.0097960182 0.089946438
0.029013894 0.0084566185 0.09132079
0.030126158 0.00714783 0.094511643
0.030978406 0.0055743817 0.096896619
0.033740632 0.0039375622 0.10380178
0.034546601 0.0023534856 0.10662592
0.035072196 0.00055116261 0.10827982
0.035794773 -0.001365899 0.11030841
0.028100369 0.017845535 0.085376523
0.028791935 0.016823902 0.087205332
0.029160542 0.015527963 0.087965823
0.029434557 0.014081439 0.088381488
0.029617661 0.012541449 0.0885791
0.0297724 0.011080482 0.089006182
0.029892716 0.0096795536 0.089539688
0.030507028 0.0083624441 0.091308556
0.031632533 0.0070689385 0.094284311
0.032276944 0.0055975956 0.095985219
0.036412883 0.0040272484 0.10642025
0.037115382 0.0021517023 0.10819622
0.037532236 0.00026708811 0.10935773
0.038501826 -0.0017296686 0.11072517
0.029016317 0.017613 0.083856825
0.029934993 0.016735754 0.086233527
0.030444697 0.015416651 0.087373555
0.030844062 0.014053113 0.088193529
0.031044331 0.012559081 0.088441983
0.031220497 0.01109598 0.0889224
0.031576725 0.009640702 0.089949384
0.031880041 0.0082497029 0.090811826
0.032783749 0.0068888941 0.09315047
0.034890471 0.0054849494 0.09810831
0.039037669 0.0039277121 0.10743256
0.039562981 0.0020919518 0.1089745
0.04021364 0.00010341946 0.11005917
0.040641151 -0.0015885152 0.11100622
0.030829716 0.016488003 0.084712248
0.031527843 0.015246598 0.08621341
0.03208429 0.013921579 0.087232202
0.032381263 0.012479647 0.087991752
0.032623511 0.01100207 0.088663514
0.033043755 0.0095355948 0.089834206
0.03349959 0.0081521803 0.091094888
0.034363745 0.0067703519 0.093307648
0.039096469 0.0053117999 0.10292216
0.040948182 0.003878102 0.10746486
0.041722518 0.0020815808 0.10927773
0.042248035 6.467219e-05 0.11014698
0.043028764 -0.0016278977 0.11105946
0.032467652 0.015180441 0.084439951
0.033041358 0.013811221 0.085609608
0.033766465 0.012444358 0.087576162
0.034160249 0.010884751 0.088521905
0.034499272 0.0094250851 0.089526065
0.035012543 0.0080898516 0.09085045
0.036942325 0.0066803589 0.095452841
0.04119744 0.0052658836 0.10369924
0.042672487 0.0039454512 0.10723151
0.043451462 0.0022030911 0.10867647
0.044095488 0.00015279647 0.10972672
0.044484919 -0.0017519066 0.11024804
