ply
format ascii 1.0
comment Automatically gnerated by model-converter
element vertex 764
property float x
property float y
property float z
element face 0
property list uchar int vertex_indices
end_header
-0.029454312 0.018370508 0.088263001
-0.029965916 0.017024501 0.089808383
-0.030126008 0.015518925 0.090420343
-0.030307559 0.013930298 0.090818394
-0.030646001 0.012397155 0.091649204
-0.031175531 0.011153142 0.092814102
-0.031535758 0.0098677734 0.09383658
-0.031854367 0.0085752848 0.094644617
-0.03259306 0.0072163786 0.096084759
-0.033577932 0.0061436999 0.098689563
-0.034628086 0.0045112409 0.10143301
-0.035097228 0.0027552463 0.10246913
-0.035208616 0.00099186337 0.10266154
-0.035310323 -0.00078643029 0.10301501
-0.03572547 -0.0026807162 0.10388333
-0.036446402 -0.0046584783 0.10551363
-0.037418319 -0.0068108025 0.10840131
-0.028458576 0.018537143 0.089420866
-0.028742673 0.017194661 0.09062535
-0.028881788 0.015640899 0.091049951
-0.029061812 0.014025811 0.091430884
-0.029454114 0.012538299 0.092325732
-0.029953877 0.011248575 0.093447462
-0.030448075 0.010094739 0.09484623
-0.030965299 0.0087800324 0.095859472
-0.031604048 0.0074991858 0.097445663
-0.03249643 0.006308231 0.09977603
-0.033271024 0.0044004637 0.10207903
-0.033740485 0.0026405845 0.10330517
-0.033868212 0.00096179644 0.10351428
-0.034039513 -0.00095360027 0.10414706
-0.034568241 -0.0029199922 0.10523631
-0.035151901 -0.0050097334 0.10668378
-0.035942904 -0.0070372571 0.10852994
-0.026720495 0.018528697 0.088406868
-0.02722542 0.01730382 0.090285812
-0.027596917 0.015616842 0.091521994
-0.027767439 0.014054975 0.092119727
-0.028136551 0.012718137 0.093059621
-0.028525191 0.011350024 0.094035413
-0.028996153 0.010109643 0.09534508
-0.029558591 0.0089281904 0.096485745
-0.030333033 0.0076742687 0.09868259
-0.031116113 0.0063701945 0.10081982
-0.03167955 0.0043644067 0.10249572
-0.032244181 0.0024715608 0.10406684
-0.032348238 0.00062770612 0.10479071
-0.03260807 -0.001215372 0.10532666
-0.033088694 -0.0030654847 0.1063831
-0.03374264 -0.0051831337 0.1078556
-0.034246913 -0.0071606764 0.10919158
-0.02507297 0.01854924 0.087862376
-0.0256807 0.017411031 0.089983989
-0.026313151 0.015804499 0.092041101
-0.026453158 0.014175449 0.092899085
-0.026993436 0.013014952 0.094366659
-0.027320069 0.011588427 0.095142484
-0.027695144 0.010230668 0.096131068
-0.028178513 0.0090282238 0.097366192
-0.028823502 0.0077363555 0.099269926
-0.02961137 0.0063173887 0.10182174
-0.030093137 0.00440622 0.10302915
-0.030496472 0.0025258836 0.10436624
-0.030822835 0.00045378844 0.10569355
-0.031143463 -0.0014322028 0.10658546
-0.031534977 -0.0031657203 0.10737615
-0.032113422 -0.0049449298 0.10853074
-0.032609744 -0.0070073125 0.10996232
-0.023575435 0.018550813 0.087819647
-0.024254378 0.017485286 0.090146668
-0.024988948 0.016067804 0.092243996
-0.025034576 0.014581323 0.093394533
-0.025462878 0.013038022 0.094656329
-0.025739545 0.011608237 0.09549088
-0.026316854 0.01031273 0.097008281
-0.026705273 0.0090542924 0.098411162
-0.027240205 0.0076863547 0.09966581
-0.027873555 0.0062662132 0.10196243
-0.028393529 0.0045520703 0.10300713
-0.028546692 0.0024957262 0.10431379
-0.02932204 0.00053584137 0.10624158
-0.029598758 -0.0015200516 0.10739002
-0.02999566 -0.0032953841 0.10832061
-0.030389886 -0.0050297223 0.10931276
-0.030733684 -0.0068022227 0.11031922
-0.021996131 0.018458981 0.087433483
-0.02289913 0.017406351 0.090337354
-0.023376003 0.016169177 0.092357699
-0.023545265 0.014821608 0.093365777
-0.023794624 0.013116789 0.09457969
-0.024085965 0.011593889 0.095758892
-0.024787097 0.01030554 0.097541485
-0.025179349 0.008809383 0.098555215
-0.025573695 0.0075104007 0.099942683
-0.026053638 0.0061081403 0.10154821
-0.026298485 0.0043237428 0.10270001
-0.026920507 0.0024569649 0.10432122
-0.027484907 0.0003933026 0.10632402
-0.027922295 -0.0014564093 0.1078414
-0.028171353 -0.0033938509 0.10869707
-0.028373102 -0.0051766297 0.10961354
-0.028617932 -0.0069670209 0.1105635
-0.020325451 0.018263672 0.086938296
-0.021313419 0.017388163 0.090112541
-0.021718373 0.016260551 0.092218097
-0.021971813 0.014883373 0.093523916
-0.022235874 0.013389061 0.094640576
-0.022629864 0.011641208 0.095932603
-0.023294464 0.01021095 0.097755589
-0.023510121 0.0087837065 0.098696232
-0.023775416 0.0073675176 0.099812568
-0.024063817 0.0059324866 0.10106766
-0.024330972 0.0042551749 0.10211081
-0.024797756 0.0023878452 0.10393969
-0.025541463 0.00039918895 0.1060821
-0.026105371 -0.0014744307 0.10788264
-0.026389463 -0.0032797862 0.10894652
-0.026428385 -0.0051272612 0.10994847
-0.026900157 -0.0067892186 0.11052535
-0.018854556 0.018046772 0.086908262
-0.019683762 0.017313917 0.08974129
-0.020103764 0.016261418 0.092098452
-0.020343276 0.014914887 0.093426403
-0.020655185 0.013451985 0.09486739
-0.021001481 0.011740261 0.095849626
-0.021540042 0.010159393 0.097577396
-0.021820316 0.0086649326 0.098667238
-0.022041636 0.0071566103 0.099607612
-0.022291515 0.0057260252 0.10081893
-0.022493243 0.0040631311 0.10165728
-0.022874603 0.0023991452 0.10335994
-0.023399634 0.00048126151 0.10544883
-0.024110521 -0.0014263086 0.10742271
-0.024438141 -0.00316897 0.10867829
-0.024564719 -0.0050803509 0.10970177
-0.024572685 -0.0068556839 0.11058124
-0.017251611 0.017966032 0.086597636
-0.017822563 0.017208598 0.089057837
-0.018339457 0.016210865 0.091503449
-0.018655945 0.014928389 0.093329522
-0.019004191 0.013456669 0.094861981
-0.019256018 0.011657163 0.095696676
-0.01970753 0.010049252 0.097153515
-0.020092842 0.0086334301 0.09876531
-0.020341426 0.0071300031 0.099723108
-0.02048634 0.0055382061 0.1004981
-0.020679401 0.003939664 0.10140521
-0.020874487 0.0023570253 0.10286549
-0.021157623 0.00065787489 0.10435775
-0.021665867 -0.0012872121 0.10600313
-0.022153465 -0.0032061391 0.10754332
-0.022545434 -0.0050009512 0.10862755
-0.022507075 -0.0068186118 0.10961988
-0.022413062 -0.0088260007 0.11034019
-0.01567009 0.017766654 0.085874174
-0.016173067 0.017007097 0.088361889
-0.01653494 0.016067062 0.090543292
-0.016934566 0.014860936 0.092753973
-0.017294126 0.013386175 0.094519265
-0.017518089 0.011730578 0.095616907
-0.017927401 0.0099891296 0.096885133
-0.018346628 0.0087118042 0.098697699
-0.018576156 0.0072096456 0.099698003
-0.018628869 0.0055440683 0.10030358
-0.018844469 0.0039296141 0.10110413
-0.018966088 0.0023560319 0.10217486
-0.019173158 0.00062433919 0.10353953
-0.019485584 -0.0012109198 0.10468535
-0.019702616 -0.0030942717 0.10573225
-0.020011954 -0.005006725 0.1067662
-0.020204511 -0.0071447045 0.1074922
-0.020437077 -0.0090220715 0.10869598
-0.020714652 -0.011000281 0.11046605
-0.014061661 0.01769263 0.085334137
-0.014563757 0.016830837 0.087682735
-0.014805831 0.015729706 0.08968313
-0.015151692 0.014749394 0.092305515
-0.015436867 0.013335162 0.094178774
-0.015613923 0.011848515 0.095582907
-0.01614376 0.010093146 0.096922461
-0.016565858 0.0086785839 0.098640304
-0.0167591 0.0072042022 0.099689916
-0.016805536 0.0056542698 0.10020374
-0.016926151 0.0039998201 0.10070324
-0.017025684 0.0023655229 0.1015644
-0.017271405 0.00062345451 0.10266586
-0.01732765 -0.0011828236 0.10314769
-0.017435314 -0.0030550582 0.10381367
-0.017507698 -0.0048897708 0.10461527
-0.017874351 -0.0071098425 0.10575127
-0.018017962 -0.0090357601 0.10696638
-0.018364829 -0.011024006 0.10903012
-0.018447916 -0.012570264 0.11078161
-0.012480072 0.017656 0.084922489
-0.01300749 0.016711345 0.087423962
-0.013170332 0.015590054 0.089181058
-0.013347621 0.014581214 0.091703825
-0.013598943 0.013246271 0.093585946
-0.013650856 0.011886868 0.095092066
-0.013702405 0.010431822 0.096310526
-0.014271001 0.0089087519 0.098037581
-0.014864127 0.0073033436 0.099288564
-0.014770433 0.0057448814 0.099607386
-0.01495728 0.0040663586 0.10033267
-0.015036097 0.0023128396 0.10084068
-0.015166321 0.00060300104 0.10155299
-0.015251333 -0.0011187015 0.10218336
-0.015314647 -0.0029677164 0.10244866
-0.015418584 -0.0048199289 0.10316723
-0.015676274 -0.0068881133 0.10437102
-0.015859009 -0.008791355 0.10568965
-0.016167002 -0.010751354 0.10772767
-0.016546254 -0.012830145 0.11042277
-0.011007412 0.017541423 0.08464934
-0.011340279 0.016586338 0.086701855
-0.011554361 0.015497347 0.088730846
-0.011509611 0.014377193 0.090658016
-0.011677962 0.013158483 0.092813998
-0.011647794 0.01171882 0.093775037
-0.011729448 0.010233469 0.094707396
-0.011929788 0.0086356774 0.095701374
-0.012212309 0.0069875599 0.096708007
-0.012852208 0.0055758038 0.098559808
-0.01314947 0.0039155338 0.099617604
-0.013287999 0.0022173053 0.10026817
-0.013311329 0.00049991824 0.10072466
-0.013323952 -0.0012401667 0.1012016
-0.013473037 -0.0029956963 0.10177078
-0.013535965 -0.0048488749 0.10257795
-0.013619652 -0.0067465038 0.10338474
-0.013812543 -0.0086092032 0.10467529
-0.014113604 -0.01059883 0.10672432
-0.014455184 -0.012630203 0.10945208
-0.0095600467 0.017379364 0.084271859
-0.0098327683 0.016421453 0.086409368
-0.010016718 0.015338945 0.088401679
-0.009913371 0.01418133 0.090166919
-0.0099073248 0.012911206 0.091722626
-0.0099005904 0.011498487 0.092702218
-0.0099436501 0.0099363294 0.093319714
-0.010213442 0.0083085713 0.0939162
-0.010491653 0.0066433612 0.094469525
-0.010672664 0.0049400702 0.095522322
-0.011174494 0.0032594854 0.097799822
-0.011372592 0.0021004622 0.099185165
-0.011484075 0.00046719011 0.10004614
-0.011562705 -0.0012373968 0.10053389
-0.011616587 -0.0030137502 0.10123133
-0.011701265 -0.0048743395 0.10228331
-0.011797176 -0.006635576 0.10310195
-0.011804835 -0.0084891292 0.10401639
-0.012036628 -0.01041103 0.10593153
-0.012369705 -0.012466758 0.10842041
-0.0080876006 0.017275093 0.084161136
-0.0083004837 0.016229907 0.085975561
-0.0085969102 0.01511696 0.087838944
-0.0085094855 0.01402129 0.0895604
-0.0083017233 0.01281989 0.090939868
-0.0081061204 0.011362747 0.091372993
-0.0080589451 0.0098496271 0.092079665
-0.0082568959 0.008293922 0.092417303
-0.0085377725 0.0065610677 0.092976552
-0.0088515505 0.0049233855 0.093761575
-0.0091820583 0.0031648006 0.095132664
-0.0094455854 0.0014697546 0.096992404
-0.0095654078 2.7686445e-05 0.098898675
-0.0096796872 -0.0015694529 0.099828832
-0.0097659342 -0.0030099187 0.1010685
-0.0097946087 -0.0047081807 0.10203653
-0.009819455 -0.0064571586 0.10272764
-0.0099162655 -0.0083310473 0.10385779
-0.010173763 -0.010277365 0.10561887
-0.010308299 -0.012349816 0.10778492
-0.010608819 -0.014366728 0.11064681
-0.0066737207 0.017151733 0.083817732
-0.0067767848 0.016101136 0.085357338
-0.0070195461 0.014956281 0.08717395
-0.0070832192 0.013775865 0.088646408
-0.0070349532 0.012559627 0.089922816
-0.0065992784 0.011328489 0.090764485
-0.0063153335 0.0095738014 0.091076124
-0.0066623585 0.0078876408 0.091053795
-0.0069970305 0.0063200251 0.091888592
-0.0071425077 0.0047662081 0.092525877
-0.0074544437 0.003061647 0.093480349
-0.00763999 0.0013460085 0.094978101
-0.0078401352 -0.00023343357 0.097030055
-0.0078668715 -0.0017525488 0.098957368
-0.0079085618 -0.003105607 0.10084499
-0.0078404106 -0.0046759332 0.10187576
-0.007916931 -0.0063615187 0.1027174
-0.0079676453 -0.008109869 0.10379642
-0.0082537537 -0.010242457 0.10546896
-0.0084459493 -0.012320889 0.10737522
-0.0086452253 -0.014569372 0.11057686
-0.0051870688 0.017096276 0.083239
-0.0052870154 0.015993531 0.084739089
-0.0054474622 0.014848792 0.086470895
-0.005636734 0.013526084 0.087929882
-0.0058271766 0.012049888 0.089131653
-0.005880899 0.010491887 0.08965794
-0.0055113439 0.0090879421 0.090127211
-0.005465352 0.0074901265 0.090288431
-0.0056334422 0.0059754403 0.090439092
-0.005718054 0.0045212379 0.091089562
-0.005858823 0.0026324493 0.091973741
-0.0060990122 0.0010375431 0.093171064
-0.0062191333 -0.00065021164 0.095113609
-0.0061691906 -0.0019216196 0.098203528
-0.0061810217 -0.0033511851 0.10017285
-0.0060722607 -0.0047483442 0.10149058
-0.0061470514 -0.0064056386 0.10243289
-0.006098893 -0.0080529945 0.10378108
-0.0063719566 -0.010254776 0.10526743
-0.0064909575 -0.012244425 0.10731043
-0.0067244191 -0.014576805 0.11055924
-0.0038375915 0.015894923 0.084043637
-0.0039432818 0.0147885 0.086336836
-0.0042230878 0.013450456 0.08791478
-0.0043851116 0.011945762 0.088974692
-0.0044164141 0.010366571 0.089300569
-0.0042593404 0.008834437 0.089607447
-0.0040983921 0.0072709196 0.08971449
-0.0043078512 0.0056773552 0.089677658
-0.0044617508 0.0040880985 0.090248384
-0.0041734749 0.0024404896 0.091202412
-0.0043332794 0.00064400863 0.092234708
-0.0046670697 -0.001054631 0.093899395
-0.0044591643 -0.0021574345 0.097600385
-0.0044912459 -0.0035619332 0.09959371
-0.0044523796 -0.0048747931 0.10080124
-0.0044142708 -0.0063482279 0.10215756
-0.0043729378 -0.0080158817 0.10363834
-0.0045354788 -0.010278956 0.10521672
-0.0046622288 -0.012282401 0.10760008
-0.0047700107 -0.0146261 0.11069173
-0.0027729838 0.016014938 0.084136482
-0.0027770809 0.014866779 0.086275946
-0.0027745557 0.013400782 0.088103153
-0.0028712136 0.011927287 0.088979464
-0.0029570509 0.010413389 0.089512106
-0.0029679444 0.0087922374 0.08973828
-0.0028460099 0.0071247812 0.089968995
-0.0027904782 0.0055378955 0.089674514
-0.0028675691 0.0039835947 0.090425893
-0.0024225514 0.0021896027 0.091622088
-0.002313669 0.00046924122 0.09239801
-0.0023175515 -0.0013677613 0.093558777
-0.0026906283 -0.0022474609 0.097037558
-0.0027188808 -0.003507812 0.09950339
-0.0027011042 -0.0049904696 0.10073695
-0.0026905084 -0.006449545 0.10194994
-0.0026559609 -0.007937206 0.10373084
-0.0027431414 -0.010199278 0.10503816
-0.0027287566 -0.012355985 0.107505
-0.0028913531 -0.014682335 0.11029953
-0.0013619306 0.015996752 0.084137045
-0.0013544986 0.014901694 0.086174317
-0.0012997835 0.013391001 0.088060688
-0.001373976 0.011939093 0.08901754
-0.0014599415 0.010429785 0.089716274
-0.0015232075 0.0088716391 0.090051033
-0.0017968818 0.0072089361 0.091046468
-0.0016719202 0.0056519753 0.09081177
-0.0019241925 0.0042749513 0.091902934
-0.00093315414 0.002633536 0.09171705
-0.00052880818 0.0007842945 0.092696164
-0.00031825148 -0.0010938173 0.094065905
-0.00089626273 -0.0022474456 0.097272396
-0.0009557358 -0.0035120787 0.099373725
-0.00095241988 -0.0050101697 0.10080056
-0.00089883434 -0.006540925 0.10215843
-0.00097538877 -0.0082899122 0.10343078
-0.00099735485 -0.010305107 0.10552915
-0.00096917065 -0.012608902 0.10782897
-0.00083688237 -0.014872981 0.11059761
7.2702515e-05 0.015982394 0.084058925
0.0001075021 0.014878483 0.086195964
0.00014256071 0.013533003 0.087653589
0.00012255104 0.01195956 0.089075498
4.7019049e-05 0.010328753 0.089924768
-0.00033042528 0.0087331045 0.090610221
-0.00046491766 0.0071830733 0.091555689
-0.00064271316 0.0059523412 0.092730857
-0.00020172965 0.0043954087 0.09339061
0.00048960991 0.002727547 0.093176615
0.0010747539 0.0010050177 0.093597837
0.0011048379 -0.0007689932 0.094764009
0.00085948291 -0.0022448671 0.097546976
0.00078217437 -0.0036716268 0.099278029
0.00077038552 -0.0050661466 0.10082047
0.00078471028 -0.00667816 0.10213384
0.00077842615 -0.0084916717 0.10319433
0.0008251449 -0.010421816 0.10550176
0.00091680297 -0.012595753 0.10774047
0.0010270299 -0.014888972 0.11044947
0.0014719234 0.015974394 0.084041055
0.0015859447 0.014875871 0.086165678
0.0016277109 0.013553488 0.087815515
0.0016639219 0.012111455 0.089023579
0.0013936417 0.010469728 0.089633699
0.0012184731 0.0087903258 0.090974193
0.0012939836 0.0073553435 0.092673086
0.0012677621 0.0060916471 0.093646373
0.0016843825 0.004491521 0.094100211
0.0021923842 0.002857813 0.094239727
0.0024979612 0.0012246635 0.094752338
0.0025977094 -0.00065490406 0.095830165
0.0025891366 -0.0021562683 0.098278388
0.002540143 -0.0036614418 0.099568986
0.0025422964 -0.0052929839 0.10062868
0.0025160166 -0.0067738439 0.10209716
0.0025610783 -0.0086090062 0.10308436
0.0027027538 -0.010513487 0.10524863
0.0028413441 -0.012638566 0.10758843
0.0029513036 -0.014923941 0.11016179
0.0028792923 0.015927015 0.083898269
0.003003598 0.014820376 0.085885585
0.0030535829 0.013511291 0.087872799
0.0030502552 0.012136054 0.088860311
0.0028245115 0.010626829 0.089641373
0.0027260072 0.0090194144 0.090904746
0.0027829773 0.0076788916 0.092505872
0.0030982299 0.0062518064 0.093563571
0.0034005303 0.0047675486 0.094236292
0.0035126248 0.0032389272 0.09512078
0.0038731968 0.0015426642 0.095803414
0.0040872351 -0.00040739835 0.097223483
0.0041562922 -0.0019068884 0.099008069
0.0042333794 -0.0035365236 0.10011192
0.0042008208 -0.0052394804 0.10107243
0.0042953142 -0.0068684877 0.10216804
0.0043478277 -0.0086986665 0.10322648
0.0044878146 -0.010689146 0.10532525
0.0047167225 -0.012829956 0.1076568
0.0049562343 -0.014952904 0.11039776
0.0043407348 0.015904956 0.084044099
0.0044102496 0.014732942 0.085793462
0.0044247976 0.013536832 0.087490928
0.0044862908 0.012227431 0.088488553
0.0043434796 0.010816539 0.089742269
0.0042538638 0.0093413028 0.091037463
0.0043365059 0.0080064195 0.092361756
0.0046178964 0.0066351707 0.093770635
0.0049806368 0.0051272798 0.094643403
0.0050742272 0.0035861314 0.09591417
0.0052074976 0.0017233572 0.097308963
0.0055731351 -0.00011087834 0.098646283
0.0059305453 -0.001769532 0.099830828
0.0059927781 -0.0034334988 0.10071647
0.0060744281 -0.0052097317 0.10151036
0.0060346979 -0.0069657015 0.10248928
0.0061216713 -0.0087737157 0.10363016
0.0062263045 -0.011056211 0.10515225
0.0065918865 -0.013287251 0.10759378
0.0057105368 0.015770813 0.084360406
0.0058485498 0.014696096 0.085697975
0.0059037574 0.013499557 0.08714975
0.0059413763 0.012190712 0.088113367
0.0059244002 0.010904587 0.089560561
0.0058411667 0.0095285047 0.090702787
0.0059173433 0.0082723978 0.092182711
0.0061357797 0.0069426315 0.093698684
0.006539807 0.0054046363 0.09499266
0.0067940128 0.0035264088 0.096655178
0.0069070612 0.0019136611 0.098327749
0.007386178 0.00013174634 0.099722058
0.0076569623 -0.0017084276 0.10041201
0.0077612253 -0.0034612589 0.10123912
0.007825254 -0.0052482365 0.10222176
0.0078229928 -0.0070435314 0.10312718
0.0079780598 -0.0091685858 0.10384071
0.0081993332 -0.01155702 0.10545645
0.0085263559 -0.014011483 0.10730162
0.0087796971 -0.015899587 0.10913588
0.0069856453 0.016818395 0.083199829
0.0071723624 0.015844635 0.0845806
0.0072911028 0.014721306 0.085833118
0.0074021155 0.013508359 0.08722192
0.0073915455 0.012197225 0.088029444
0.007469035 0.010864569 0.089526493
0.0074399777 0.0095402389 0.090587966
0.0074993735 0.0084134685 0.091755193
0.0076794391 0.0072306623 0.094012607
0.0082012755 0.0054232888 0.09524329
0.0084145162 0.0036383809 0.096995749
0.0086542708 0.0019811958 0.099139061
0.009017583 0.00026012966 0.10033994
0.009325929 -0.0016398611 0.10108312
0.0094706644 -0.0034062554 0.10196074
0.0095881736 -0.0053288271 0.10266172
0.009815916 -0.0074624897 0.10331159
0.0099923229 -0.0095897875 0.10408393
0.010187413 -0.012065391 0.10539971
0.01035699 -0.014714194 0.10653301
0.0083524026 0.016968441 0.083273239
0.0085779391 0.015923138 0.084653042
0.0087238076 0.01474822 0.085864991
0.0088151708 0.013473352 0.087174784
0.008913462 0.012170286 0.088228847
0.0090318164 0.0108611 0.089521605
0.0091185491 0.0095258322 0.090473835
0.0092212446 0.0081839408 0.091717094
0.0093787001 0.0072154133 0.093988057
0.0098943655 0.0053964835 0.095430631
0.010178945 0.0037513486 0.097847603
0.010398107 0.0021289502 0.099648036
0.010621417 0.00052859104 0.1006929
0.010868493 -0.0012701939 0.10187994
0.011194971 -0.0033164617 0.10256698
0.011397488 -0.00534212 0.10287947
0.011702076 -0.0075448793 0.10375207
0.01194334 -0.0098064286 0.10460455
0.012123597 -0.012501392 0.10568813
0.012255281 -0.015147013 0.10661202
0.0097411735 0.017175979 0.083462484
0.0099358252 0.016152849 0.084571447
0.010069296 0.014918989 0.085747451
0.010268866 0.013562676 0.086886149
0.010428208 0.012174864 0.087787971
0.010545054 0.01084886 0.089162734
0.010688801 0.0095096757 0.090244483
0.01085369 0.0080805207 0.091314356
0.01128144 0.0069050652 0.093878723
0.011495117 0.005391275 0.095847271
0.011839538 0.0038617914 0.098140844
0.012163926 0.0022562499 0.099877547
0.012414243 0.00064540965 0.10095417
0.012617046 -0.0012403952 0.10199818
0.012926335 -0.0031990407 0.1026758
0.013244581 -0.0052598415 0.10331991
0.013610558 -0.0075342118 0.10424213
0.013783033 -0.010202542 0.10551917
0.01405422 -0.012967621 0.10642329
0.014229861 -0.015237452 0.10701006
0.011218972 0.017637306 0.084209547
0.011357679 0.016564505 0.08503259
0.01147236 0.015070723 0.085876562
0.011748914 0.013662806 0.086988643
0.011963164 0.012251669 0.087744962
0.012006413 0.010836044 0.088850893
0.012185127 0.0094913314 0.089856256
0.012299041 0.0080943573 0.090890337
0.012559363 0.0068269817 0.093290902
0.013102184 0.0052989635 0.095897421
0.013547045 0.0038001907 0.098109689
0.013923266 0.0022798076 0.10002378
0.014165356 0.00070832999 0.10121756
0.01441863 -0.0010414964 0.10183921
0.014736648 -0.0031146833 0.10284598
0.015052454 -0.0052109179 0.10346938
0.015480632 -0.0077597624 0.10499825
0.015745282 -0.010860236 0.10670881
0.016186964 -0.013337137 0.10767731
0.012640692 0.017735018 0.084251575
0.012785101 0.016684414 0.085236419
0.012921963 0.015277783 0.085962989
0.013237379 0.013740542 0.087305471
0.013431137 0.012363618 0.088006594
0.013505978 0.010939517 0.088973705
0.01366806 0.0095698969 0.089876793
0.013850623 0.0081665451 0.090963911
0.014105741 0.006767066 0.092765897
0.014725139 0.0050769392 0.095869679
0.015387355 0.0037731624 0.098448772
0.015752063 0.0022261564 0.099924169
0.016050253 0.00056668298 0.10140613
0.016134353 -0.0011207482 0.10194855
0.016544423 -0.0031309293 0.10306184
0.017066748 -0.0054499332 0.10437494
0.017561084 -0.007928967 0.1065537
0.018015284 -0.010851088 0.10810962
0.014231528 0.01782134 0.084510751
0.014396621 0.016826342 0.085526284
0.014497152 0.015560793 0.086464483
0.014753882 0.01397463 0.087268274
0.01491535 0.012599449 0.088326145
0.015085434 0.011141576 0.089311436
0.015227196 0.0096536153 0.090224535
0.015441137 0.0082551916 0.091709297
0.015885375 0.0068306465 0.093356866
0.016295768 0.0051482031 0.095519144
0.017099198 0.0036652704 0.098372746
0.017508577 0.0020565542 0.09981244
0.017799937 0.00049081187 0.10124239
0.018038469 -0.0011773648 0.10228492
0.018408373 -0.0031747127 0.10351771
0.019132163 -0.0055699765 0.10562666
0.019938415 -0.0082515334 0.10874958
0.015906013 0.017985289 0.085095379
0.016022298 0.016911315 0.086151674
0.016085172 0.015626915 0.08711391
0.01632912 0.01426879 0.087960702
0.016471761 0.012805525 0.088676851
0.016676337 0.011332472 0.08991259
0.016809465 0.0097519071 0.090657991
0.017156414 0.0082853013 0.09202981
0.017670034 0.0068238518 0.094217055
0.017942102 0.0052158733 0.095564473
0.018745964 0.0036774321 0.098218299
0.019205734 0.0020696906 0.099663425
0.01960441 0.00057557161 0.1012526
0.020076223 -0.0012633476 0.10283527
0.020552375 -0.0033754264 0.10450654
0.021314428 -0.0056286883 0.10723171
0.022146677 -0.0079966537 0.10997741
0.017549036 0.018060846 0.085664105
0.017650768 0.017013713 0.086746317
0.01763874 0.015754928 0.087537802
0.01786549 0.014461435 0.088584062
0.018071875 0.013008395 0.08941336
0.018412607 0.011458787 0.090217024
0.018456468 0.0097860843 0.090757102
0.0186682 0.0083023953 0.091944769
0.019356586 0.0068618474 0.094715122
0.019745368 0.0052606365 0.096094928
0.020728829 0.0036774206 0.098752435
0.021118954 0.0021237884 0.10015797
0.021594566 0.00042970933 0.10169458
0.022136294 -0.0016341869 0.10346146
0.023037381 -0.0036459368 0.10606035
0.023560549 -0.0056448018 0.10872212
0.019048779 0.018093376 0.085783209
0.019272906 0.017053126 0.087041289
0.019368944 0.015823899 0.087932787
0.019603701 0.014462369 0.088835243
0.019801685 0.012839958 0.089351158
0.020030347 0.011279997 0.090142082
0.020082196 0.0097846413 0.090906572
0.02030386 0.0083598294 0.092111662
0.021023063 0.0068606471 0.094837811
0.021504318 0.00523936 0.096243661
0.022515641 0.0036663217 0.098856527
0.022971726 0.0020845734 0.10061978
0.023538969 0.00028381434 0.1022115
0.024327082 -0.0017233222 0.10434799
0.025230685 -0.0036187371 0.10707
0.025975346 -0.0057781097 0.11016983
0.020527626 0.018107162 0.085950017
0.020858075 0.016989323 0.087153644
0.021216118 0.015558001 0.087912452
0.021369262 0.014255225 0.088881634
0.021396117 0.012782933 0.089253303
0.021580608 0.011253625 0.089949638
0.021654861 0.0097637386 0.090773143
0.022060375 0.008385424 0.092628602
0.022585285 0.0068851611 0.094548765
0.023215235 0.0051534514 0.095928009
0.024292277 0.00366821 0.098935604
0.02513521 0.0020297588 0.10180576
0.025606667 0.00019069378 0.10306067
0.026392158 -0.0016110224 0.10504643
0.027455521 -0.0037408894 0.10842288
0.022131819 0.018077579 0.086191677
0.022419668 0.016824232 0.087016209
0.022762759 0.015472039 0.087839168
0.022935745 0.014131801 0.088594794
0.022981655 0.012716976 0.089086551
0.023201162 0.011280869 0.089989513
0.024267501 0.01003407 0.092276159
0.024331742 0.0085686785 0.093546867
0.024662594 0.006949187 0.094916518
0.025788958 0.0052881926 0.097422309
0.026624054 0.0037630311 0.099890474
0.027688045 0.0017943202 0.10297787
0.028131981 0.00023457036 0.10459288
0.028775851 -0.0016685536 0.10650994
0.029727381 -0.0039041222 0.10983619
0.023699922 0.017947828 0.086175308
0.024055889 0.016788115 0.087231885
0.024309845 0.015450833 0.087962512
0.024460499 0.014081494 0.088454809
0.02459613 0.012706477 0.089150116
0.025015824 0.011444539 0.090265665
0.02579508 0.010093001 0.091710903
0.026104768 0.0086746439 0.092849315
0.026524529 0.0072073718 0.094575644
0.027721719 0.0054513074 0.097609446
0.028901424 0.0035975028 0.10113485
0.030327201 0.0017592324 0.10391195
0.030743987 -1.6999798e-05 0.10590515
0.031156946 -0.0017672579 0.10792388
0.03186552 -0.0037468815 0.11046127
0.02520172 0.017867165 0.085983072
0.025590814 0.016776129 0.087300744
0.025865288 0.015441211 0.088120512
0.026008936 0.014080634 0.088519223
0.026175897 0.01265158 0.089080371
0.026719039 0.011300911 0.089824956
0.027065675 0.0099651967 0.09077993
0.027441346 0.0086426363 0.091974438
0.027844561 0.0071401496 0.093429879
0.029329959 0.0055015562 0.097211685
0.031393828 0.003468971 0.10241524
0.032461873 0.0016962567 0.10514852
0.032850936 -2.1004201e-05 0.10667881
0.033395089 -0.0017835722 0.1089116
0.026710743 0.017818241 0.086150349
0.027066814 0.016745422 0.087269175
0.027426629 0.015520313 0.088104882
0.02771704 0.014252041 0.088904585
0.02810253 0.012659304 0.089324698
0.028310291 0.011272784 0.089718546
0.028484218 0.0099400501 0.090454713
0.028899824 0.0086203106 0.091776259
0.030236425 0.00729347 0.095091611
0.031001439 0.0055448336 0.097313579
0.033922652 0.0033295872 0.10365632
0.034682879 0.001768522 0.10643042
0.035144065 -1.3279645e-05 0.10814121
0.035833802 -0.001736805 0.11015859
0.027889357 0.017654968 0.085294407
0.028533296 0.016781922 0.087196074
0.028962756 0.015627003 0.088176954
0.029320375 0.014172819 0.088750027
0.02955761 0.012634665 0.089096892
0.029724842 0.011255227 0.089604896
0.02986577 0.0099141923 0.090228189
0.030512404 0.0086130239 0.092085805
0.031738417 0.0072598043 0.094984807
0.032420499 0.005565593 0.096653939
0.036763615 0.0032518987 0.10635899
0.037285727 0.0014399825 0.10792721
0.037601492 -0.0003302257 0.10917303
0.038700866 -0.0023339222 0.11068401
0.02887046 0.017349862 0.083898965
0.029732562 0.016649378 0.086291969
0.030255021 0.015406423 0.087519128
0.030732152 0.014026361 0.088380556
0.030946169 0.012560206 0.088759765
0.03119826 0.011225223 0.089501113
0.031591279 0.0099041469 0.090696969
0.031874582 0.0085890987 0.091654618
0.032878163 0.0070728056 0.093869202
0.035133328 0.0050160435 0.098684262
0.039363313 0.0032087057 0.10713122
0.039853916 0.0013929745 0.10883336
0.040516838 -0.00064435503 0.11005302
0.040899197 -0.0023237125 0.11097237
0.030708031 0.016288906 0.084827125
0.031423286 0.015117601 0.086380858
0.032011661 0.013812906 0.087344329
0.032305511 0.012411351 0.088220414
0.032592758 0.010993218 0.089079563
0.0330279 0.0095646386 0.090332013
0.033461369 0.0082222675 0.091639157
0.034419935 0.0067983968 0.09393835
0.039695663 0.0042625475 0.10316216
0.041451075 0.0031300877 0.10745305
0.042168654 0.001257843 0.10930252
0.042621103 -0.00076886354 0.11017786
0.043287823 -0.0024934984 0.11098934
0.032462085 0.014944111 0.084537715
0.033149591 0.013692624 0.085831504
0.033794438 0.012372553 0.087880797
0.034222312 0.010719917 0.088831335
0.034486303 0.0092937718 0.08993395
0.034917072 0.0079863691 0.09124763
0.037121588 0.0062898945 0.095972244
0.04171125 0.0041581488 0.10361513
0.043152377 0.0031549435 0.10720718
0.043884762 0.0013213014 0.10866697
0.044461787 -0.0007664351 0.1097125
0.044738258 -0.0026757289 0.11013936
