ply
format ascii 1.0
comment PCL generated
element vertex 348
property float x
property float y
property float z
element camera 1
property float view_px
property float view_py
property float view_pz
property float x_axisx
property float x_axisy
property float x_axisz
property float y_axisx
property float y_axisy
property float y_axisz
property float z_axisx
property float z_axisy
property float z_axisz
property float focal
property float scalex
property float scaley
property float centerx
property float centery
property int viewportx
property int viewporty
property float k1
property float k2
end_header
-0.05443915 0.032039009 0.18500884
-0.055926576 0.028887929 0.18657203
-0.056703564 0.025873538 0.18840259
-0.05740349 0.022623997 0.19071063
-0.058227822 0.019294547 0.19292532
-0.058553819 0.016115477 0.19448327
-0.058575019 0.012817631 0.19550575
-0.050973527 0.033192396 0.18103299
-0.051997922 0.031680215 0.1826937
-0.052485991 0.029034695 0.18427542
-0.053098317 0.025829472 0.18590108
-0.053806517 0.022462381 0.18853812
-0.054568589 0.01905039 0.19086121
-0.055378877 0.01582215 0.19280069
-0.056014054 0.013751028 0.1941155
-0.056699775 0.0097137187 0.19579744
-0.0564816 0.0062520504 0.1979003
-0.047470953 0.035776209 0.17819203
-0.048129275 0.033919517 0.17928123
-0.048342597 0.031638481 0.18077777
-0.048764471 0.029047158 0.18244906
-0.049780685 0.026016666 0.18524002
-0.050342005 0.022094076 0.18880481
-0.051161449 0.018711654 0.19076648
-0.051739912 0.017224746 0.1924334
-0.052702326 0.013909114 0.19419821
-0.053498622 0.0097777415 0.19568244
-0.053840809 0.0058442946 0.19819124
-0.054507941 0.0026386247 0.20072949
-0.054694593 1.4899415e-05 0.20318222
-0.054698888 -0.0011948374 0.20700569
-0.044921212 0.036728445 0.17738907
-0.045022268 0.034243986 0.17854555
-0.045274593 0.031841692 0.18024813
-0.04577487 0.029625701 0.18258759
-0.046478603 0.026674308 0.18515943
-0.047333654 0.021527519 0.1895729
-0.0482582 0.018077334 0.19189961
-0.048841331 0.01689465 0.19323877
-0.049810767 0.01319517 0.19431321
-0.050258957 0.0091101583 0.19537556
-0.050609283 0.0056725922 0.19821802
-0.051004741 0.0029434226 0.20094344
-0.051957816 0.00047689403 0.20489237
-0.05270385 -0.0016561773 0.20881353
-0.053046256 -0.0039176932 0.21239592
-0.052234344 -0.0073785167 0.21537361
-0.041618545 0.039918099 0.17643093
-0.042128969 0.037455384 0.17746584
-0.042213306 0.034808863 0.17895859
-0.042389896 0.03242505 0.1807456
-0.043109592 0.030071352 0.1834646
-0.043627802 0.02724999 0.18589552
-0.044220705 0.022410573 0.18931149
-0.045139801 0.019772938 0.19212604
-0.046099376 0.016309042 0.19399555
-0.046738613 0.012228076 0.19444242
-0.046866782 0.0078119077 0.19509122
-0.047347877 0.0050566918 0.19784774
-0.047936767 0.0032410051 0.20199037
-0.048852701 0.00092542998 0.20640878
-0.049450506 -0.0015067665 0.21021552
-0.049645826 -0.0050316551 0.21253675
-0.050011825 -0.0080267601 0.21509591
-0.050324876 -0.010760778 0.21953066
-0.038842916 0.041182179 0.17663279
-0.039797243 0.038009841 0.17807648
-0.039371289 0.035497185 0.1795896
-0.039767623 0.033123836 0.18154457
-0.040245555 0.030692482 0.18381959
-0.04063531 0.027852053 0.18616049
-0.041259985 0.023756564 0.18905325
-0.04256494 0.019300323 0.19326667
-0.043184754 0.015723439 0.19518627
-0.043339316 0.011502087 0.19538136
-0.043448169 0.0073934826 0.19610724
-0.044006173 0.0050478177 0.19947137
-0.044757236 0.0034430309 0.20395298
-0.045623351 0.0012637172 0.20802832
-0.046126965 -0.0014848382 0.21196672
-0.046051715 -0.0053773383 0.2138018
-0.046507273 -0.0082111871 0.21645732
-0.047258515 -0.011256092 0.21975508
-0.047607981 -0.015031904 0.2227423
-0.047158167 -0.018527478 0.22460395
-0.035350662 0.043616343 0.175826
-0.03589385 0.041757464 0.17730094
-0.035311475 0.038906511 0.17880608
-0.036520898 0.036290504 0.18002161
-0.037062362 0.033830006 0.18212892
-0.037488911 0.031091796 0.18453158
-0.037488408 0.028271155 0.18681334
-0.0386898 0.023710903 0.18992153
-0.039416127 0.019308573 0.19464716
-0.039991878 0.015667204 0.19693075
-0.040203515 0.011516332 0.19755109
-0.040249947 0.0078040161 0.19870064
-0.040644892 0.0052504442 0.20220573
-0.041309383 0.0036605063 0.20639071
-0.042440169 0.0016199303 0.21016821
-0.042841412 -0.0013166536 0.21323249
-0.042892683 -0.0050536734 0.21426643
-0.043548163 -0.0079123918 0.21653742
-0.043510709 -0.011368912 0.21850638
-0.043907229 -0.015187319 0.22110902
-0.044588294 -0.019106248 0.22400564
-0.044322126 -0.021779684 0.22554615
-0.032922368 0.043837544 0.17611055
-0.032963727 0.042108648 0.17776111
-0.033120897 0.039463196 0.17915529
-0.033526592 0.036697637 0.180447
-0.033875421 0.034175918 0.18261142
-0.034421366 0.031391907 0.18564938
-0.034449305 0.028413475 0.18793473
-0.035822414 0.023657398 0.19090138
-0.036308091 0.019960586 0.19543077
-0.036745541 0.0159068 0.19874248
-0.036916208 0.012145027 0.19994633
-0.03682708 0.008174126 0.20106694
-0.03725278 0.0059064659 0.20475377
-0.038048327 0.0042579523 0.20849904
-0.038982891 0.0019530853 0.21180595
-0.039427493 -0.00071255903 0.21435609
-0.039841209 -0.004577579 0.21499895
-0.040351193 -0.0079789516 0.21683362
-0.039973948 -0.011699859 0.21835661
-0.040142115 -0.015359268 0.22036043
-0.040623721 -0.019131444 0.22278394
-0.040785432 -0.022206806 0.22513819
-0.029938651 0.04401907 0.17681603
-0.030027013 0.042323247 0.17792277
-0.03031549 0.039695222 0.17968389
-0.03072213 0.036791801 0.18173534
-0.030867163 0.034227096 0.18366051
-0.031240286 0.0313836 0.18647216
-0.03132572 0.028226733 0.18927354
-0.031858619 0.024641167 0.19148573
-0.033080358 0.021038665 0.19584902
-0.033516072 0.016552789 0.19961977
-0.032981712 0.012213139 0.20212922
-0.033290841 0.0090920152 0.20441782
-0.034118075 0.0069931424 0.20691164
-0.034755308 0.0046987706 0.20970799
-0.035288751 0.0023116476 0.21287362
-0.035947043 -0.00036883887 0.21526398
-0.036376696 -0.0047001108 0.21554425
-0.036808498 -0.0081443992 0.21732745
-0.036554594 -0.011516237 0.21876779
-0.036475558 -0.014768976 0.22119816
-0.037289646 -0.019440344 0.22267467
-0.036801998 -0.022232996 0.22524881
-0.026938517 0.044171494 0.17712815
-0.027024783 0.042391744 0.17842165
-0.027245224 0.03967813 0.18003894
-0.027591866 0.037020959 0.18258692
-0.027753215 0.034260761 0.18450385
-0.028191226 0.03153418 0.18722248
-0.028396511 0.028473319 0.19000332
-0.028494745 0.025166368 0.19199888
-0.03030899 0.020595428 0.19505182
-0.030643921 0.014993513 0.19855222
-0.029613961 0.012996954 0.20377663
-0.030104415 0.0099547599 0.20655796
-0.030608168 0.0073765032 0.20854315
-0.030847296 0.0061725639 0.20962889
-0.032330122 0.0019524321 0.21379021
-0.032253005 -0.00038467656 0.21553431
-0.032955032 -0.0046750149 0.21604314
-0.033411838 -0.0081370864 0.21793596
-0.0329023 -0.011212842 0.21976653
-0.032927804 -0.014768857 0.22293697
-0.032817475 -0.018431624 0.22456762
-0.033307381 -0.02224927 0.22665216
-0.033264916 -0.024228271 0.22981338
-0.0238805 0.044346325 0.17817685
-0.024120769 0.042594705 0.17931111
-0.024152068 0.039821174 0.18039383
-0.024374837 0.037041783 0.18260667
-0.024749603 0.034429066 0.18508872
-0.025147269 0.0317134 0.18777548
-0.025296412 0.028810622 0.19092372
-0.025613308 0.025256148 0.19323859
-0.026662624 0.021553518 0.19615868
-0.027232887 0.016339384 0.19970044
-0.026171241 0.012172579 0.20328625
-0.027013378 0.01095298 0.20803483
-0.027368924 0.0082353707 0.21039522
-0.027634239 0.0057364954 0.21226369
-0.027940085 0.0026952636 0.21468876
-0.028838513 -0.0014604211 0.21477172
-0.029462878 -0.0048569818 0.21699001
-0.02957085 -0.0080505032 0.21930411
-0.029177206 -0.011388162 0.22105704
-0.029295374 -0.015022123 0.22395481
-0.029546136 -0.018781288 0.22610305
-0.029922221 -0.022518234 0.22795847
-0.030125557 -0.024795979 0.23067608
-0.021718139 0.044733629 0.17850775
-0.021319199 0.042615008 0.18040067
-0.021035999 0.040252257 0.18164715
-0.021126864 0.037393715 0.18312494
-0.021413676 0.034678169 0.18588565
-0.021962633 0.032042276 0.1882402
-0.022307418 0.028892843 0.19164601
-0.022514874 0.025473161 0.19473037
-0.023088245 0.022007167 0.1975105
-0.023594717 0.017703613 0.20159613
-0.023437819 0.013494945 0.20457897
-0.023359386 0.010189274 0.20695554
-0.023644768 0.0074535101 0.20944306
-0.024193514 0.0046297391 0.21201201
-0.024776755 0.0016228918 0.21408385
-0.025033679 -0.0013111144 0.21586874
-0.025528964 -0.0043348013 0.21852694
-0.02579136 -0.0077664354 0.22130767
-0.025713265 -0.011574744 0.22201039
-0.026137589 -0.015652129 0.22522002
-0.026131384 -0.019093305 0.22699164
-0.02648147 -0.022916293 0.22846025
-0.026690386 -0.025747854 0.23156913
-0.017964093 0.042699855 0.18191545
-0.018629981 0.039984629 0.18343583
-0.018114928 0.037679709 0.18476133
-0.01828884 0.034977011 0.18655546
-0.018715564 0.032283988 0.18889166
-0.019160807 0.029338367 0.19167678
-0.019265095 0.025633451 0.19621788
-0.019767342 0.021925723 0.19919617
-0.020405982 0.018260809 0.2022437
-0.020382583 0.014743758 0.20501027
-0.020187654 0.011201809 0.20754316
-0.020424336 0.0081950407 0.21030457
-0.02090349 0.0050227982 0.21308823
-0.021236153 0.0021573158 0.21554606
-0.021510633 -0.00096172956 0.21784829
-0.021959575 -0.0040607401 0.22101864
-0.02225331 -0.007654422 0.22308633
-0.022150917 -0.011715468 0.223811
-0.022590512 -0.016095465 0.22654761
-0.022513542 -0.019447979 0.22688349
-0.022738792 -0.02316414 0.2277068
-0.023136182 -0.026017165 0.23157594
-0.015573988 0.040811643 0.18468627
-0.015212042 0.037957672 0.18609023
-0.015412909 0.035176612 0.18749888
-0.015606613 0.032471307 0.18948121
-0.015818402 0.029375624 0.19195536
-0.016050436 0.026096173 0.19685401
-0.016787194 0.021740394 0.20080929
-0.016996643 0.018606568 0.20331942
-0.016908983 0.015261354 0.20536016
-0.016947964 0.01205106 0.20805727
-0.016874639 0.0089503182 0.21067724
-0.017205404 0.0054538399 0.21368273
-0.017568136 0.0023073133 0.21681291
-0.017837498 -0.00084782427 0.22003694
-0.018198995 -0.0040901368 0.22280096
-0.018561017 -0.0076201116 0.22457883
-0.018537449 -0.011537766 0.22530819
-0.018760256 -0.015386922 0.22642842
-0.018991238 -0.018916121 0.2274476
-0.01908192 -0.022747587 0.22907895
-0.019508522 -0.026200259 0.23312534
-0.01266296 0.038037479 0.18721084
-0.012370449 0.035522573 0.18853122
-0.012517041 0.032694671 0.19054443
-0.012664343 0.029534614 0.19219819
-0.012638319 0.02622224 0.19664361
-0.013025062 0.022444163 0.2011999
-0.013626088 0.018870896 0.20470904
-0.013700247 0.015828995 0.20693067
-0.01360822 0.012670895 0.20927435
-0.013543476 0.0094763925 0.21169277
-0.013737573 0.0058300346 0.21476208
-0.014045401 0.0025030514 0.21783608
-0.014264801 -0.0006212978 0.220682
-0.014342282 -0.0041037309 0.22348434
-0.014577795 -0.0076782387 0.22501172
-0.014737 -0.011372101 0.22544275
-0.014915545 -0.015083618 0.22680898
-0.015190196 -0.018841701 0.2281145
-0.015724894 -0.022828361 0.23109382
-0.015524286 -0.025871526 0.23475266
-0.0099246958 0.035287738 0.18925971
-0.0093822246 0.032841496 0.1911961
-0.0092591979 0.029591935 0.19344617
-0.0092342878 0.026280684 0.1971426
-0.0096888253 0.02280074 0.20169395
-0.010006928 0.019337626 0.20547006
-0.010255835 0.016267775 0.20770259
-0.010250656 0.013199691 0.20979051
-0.010149917 0.010055955 0.21171603
-0.010112014 0.0066447388 0.21512963
-0.010258893 0.0028415683 0.21797593
-0.01040647 -0.00054690242 0.22087272
-0.010498873 -0.0041090152 0.22312471
-0.010651309 -0.0076563586 0.22503866
-0.010788871 -0.011185811 0.22474916
-0.010891208 -0.015080689 0.22753534
-0.010916944 -0.018496163 0.22910126
-0.011178279 -0.023572575 0.23354228
-0.0061457683 0.03196406 0.19336878
-0.0059070736 0.029304542 0.19576529
-0.006054983 0.025793778 0.19910778
-0.0066306433 0.023511115 0.20137912
-0.0064291996 0.019140979 0.20564677
-0.006550767 0.016423816 0.20779796
-0.0065570073 0.013525801 0.20977537
-0.0062412275 0.010408807 0.21189833
-0.0065169185 0.0071998471 0.21518604
-0.0066052941 0.0031292597 0.21808371
-0.0066780257 -0.000461355 0.22174102
-0.006737167 -0.0040951553 0.22268406
-0.0068236529 -0.0075660925 0.22476201
-0.0068857274 -0.0111018 0.22529735
-0.0069595729 -0.014977246 0.22770315
-0.0077650198 -0.018694472 0.22973989
-0.0088481894 -0.02188167 0.23158249
-0.0024404337 0.028702216 0.19778088
-0.0026925136 0.025476592 0.19964001
-0.0019288171 0.022086641 0.20150997
-0.0026735854 0.019325394 0.20443331
-0.0026282044 0.01616374 0.20694932
-0.0026002978 0.0134408 0.20949326
-0.0024222592 0.010493336 0.21215513
-0.0028438231 0.0032332086 0.21787199
-0.0028601463 -0.00050175592 0.22146721
-0.0029981409 -0.0041331006 0.22239617
-0.0030955619 -0.0076101851 0.2239792
-0.0037205429 -0.0110913 0.22499147
-0.0044448245 -0.014182424 0.22734331
0.00042647572 0.027656319 0.1985489
0.00045780159 0.024993034 0.19953158
0.00054242078 0.021948209 0.20106402
0.00080568821 0.01906269 0.20349382
0.001033609 0.016056919 0.20630004
0.0010643669 0.013244491 0.20906904
0.0011837182 0.010548872 0.21176641
0.00082656078 0.0076427134 0.21448864
0.00078199501 0.0039563151 0.21651536
0.00019336984 -0.00026306423 0.21975021
-0.00033571955 -0.0036967816 0.22201166
0.0030293984 0.024260156 0.19941713
0.003738285 0.021754844 0.20031232
0.0040555294 0.018880289 0.20250577
0.0040061576 0.016118225 0.20564309
0.0038439222 0.01346211 0.20841171
0.0037346145 0.011598002 0.21067084
0 0 0 1 0 0 0 1 0 0 0 1 0 0 0 0 0 348 1 0 0
