ply
format ascii 1.0
comment PCL generated
element vertex 348
property float x
property float y
property float z
element camera 1
property float view_px
property float view_py
property float view_pz
property float x_axisx
property float x_axisy
property float x_axisz
property float y_axisx
property float y_axisy
property float y_axisz
property float z_axisx
property float z_axisy
property float z_axisz
property float focal
property float scalex
property float scaley
property float centerx
property float centery
property int viewportx
property int viewporty
property float k1
property float k2
end_header
-0.055045903 0.029501067 0.18486606
-0.056145854 0.02673251 0.18660709
-0.056713451 0.023544202 0.18875551
-0.057195738 0.020178096 0.19107921
-0.057828538 0.016731089 0.19326468
-0.058065422 0.013544655 0.19468568
-0.058022525 0.010364959 0.19579379
-0.05121563 0.03141246 0.18110323
-0.052370727 0.029808607 0.18244395
-0.05275419 0.027017841 0.18388537
-0.053351436 0.023709767 0.18592295
-0.053859819 0.020024342 0.18869138
-0.054552458 0.016334962 0.1909917
-0.055306315 0.012910187 0.19285591
-0.055905718 0.0096671516 0.1945432
-0.056063235 0.005749614 0.19593015
-0.055935841 0.0022453149 0.19784023
-0.047580183 0.03440218 0.1785138
-0.048254039 0.032458164 0.17938116
-0.048451457 0.029997263 0.18041719
-0.048998758 0.027281458 0.18172637
-0.050027125 0.023918224 0.18472798
-0.050444953 0.019218793 0.18845452
-0.051268604 0.015468443 0.19030026
-0.05200335 0.012356236 0.19179809
-0.052596111 0.008902858 0.19384181
-0.053305857 0.0048805773 0.19532688
-0.05369423 0.0012477034 0.19722457
-0.054171573 -0.0010569562 0.20013714
-0.054077666 -0.0026932135 0.20272127
-0.053689275 -0.003395756 0.20551337
-0.045104697 0.035501692 0.17775455
-0.045179825 0.032919709 0.17855765
-0.045425415 0.030334551 0.17980912
-0.045875479 0.027849112 0.18158372
-0.046588067 0.024576051 0.18376853
-0.047511887 0.017951353 0.18835911
-0.048487838 0.014053095 0.1905835
-0.04927174 0.010968231 0.19164506
-0.050201498 0.0070551676 0.19319098
-0.050869405 0.0031000297 0.19366956
-0.050881635 6.7334353e-05 0.19614802
-0.050929226 -0.0015079624 0.19899225
-0.051089104 -0.0025238709 0.20296857
-0.051682774 -0.0039231977 0.20655672
-0.052022565 -0.0058364882 0.21002845
-0.051443968 -0.0093045672 0.21368052
-0.041880112 0.038927685 0.17697652
-0.04231701 0.036316685 0.1778966
-0.042356752 0.033497907 0.17892137
-0.042538524 0.030909063 0.18019897
-0.043162707 0.028175747 0.1822271
-0.043651797 0.024998872 0.18413083
-0.044590842 0.01869051 0.18706393
-0.046442866 0.013128403 0.18947527
-0.047191586 0.0092838174 0.19106333
-0.048139293 0.0048821196 0.19202603
-0.048729755 0.00039687828 0.1920929
-0.048667826 -0.0015772051 0.19425909
-0.047849111 -0.0015618616 0.19848768
-0.047751121 -0.00265049 0.20318928
-0.048111569 -0.0042235446 0.20699348
-0.048789337 -0.0072710421 0.21050639
-0.049402691 -0.010145892 0.21319833
-0.049959645 -0.012339209 0.21796831
-0.039160248 0.040321272 0.17695269
-0.040013362 0.036933839 0.17846608
-0.039527051 0.034180723 0.17956772
-0.039869484 0.0315076 0.180849
-0.040290263 0.028775733 0.18256585
-0.040624965 0.025627943 0.18430151
-0.041475117 0.02067952 0.18643138
-0.044635084 0.011992869 0.18913877
-0.045034319 0.0077842893 0.19030593
-0.045503754 0.0031228797 0.19053973
-0.045771528 -0.00095471274 0.19094297
-0.045105476 -0.0019990806 0.19434519
-0.044270996 -0.0017688761 0.19905029
-0.044372503 -0.0029008843 0.20352535
-0.044657122 -0.0048284945 0.20769553
-0.045040898 -0.0080489963 0.2111242
-0.045949616 -0.010614003 0.21403423
-0.047072027 -0.012721779 0.21847115
-0.047390576 -0.015745681 0.22215357
-0.046952579 -0.018763339 0.22454742
-0.035644311 0.042873524 0.1759561
-0.036153428 0.041020077 0.17749475
-0.035525218 0.03820084 0.17904091
-0.036642917 0.035332695 0.17996703
-0.037065696 0.032415338 0.18141809
-0.037491698 0.029209008 0.18326475
-0.037362397 0.026050247 0.18490171
-0.039135385 0.020386178 0.18701008
-0.042136759 0.011738512 0.18870106
-0.042170048 0.0074599697 0.18962054
-0.042190205 0.0026283059 0.18950312
-0.041809302 -0.00076947745 0.19130823
-0.04079362 -0.0017693378 0.19535272
-0.040451862 -0.0020684632 0.19961868
-0.04090501 -0.0032375522 0.20401676
-0.041479208 -0.005750285 0.20716354
-0.042240374 -0.0084886039 0.21018246
-0.043567561 -0.01058546 0.2130188
-0.043425214 -0.013120024 0.2171299
-0.043658555 -0.016283127 0.22057028
-0.044406373 -0.019457871 0.22401707
-0.044108354 -0.021879898 0.22583923
-0.033195373 0.043193646 0.17620377
-0.03318714 0.041466888 0.17790444
-0.033306565 0.038738955 0.17933549
-0.033636149 0.035798218 0.18034638
-0.033842109 0.03300146 0.18207641
-0.034284558 0.029760668 0.1845821
-0.034111857 0.026349284 0.18607947
-0.036479421 0.020043325 0.18770647
-0.039048929 0.012575738 0.18857862
-0.038298663 0.0076587559 0.18984708
-0.03818094 0.0034246892 0.18958615
-0.037124369 -0.00015464728 0.1919668
-0.036345802 -0.0011130103 0.19639574
-0.036731355 -0.0024293647 0.20031254
-0.037642483 -0.0039332644 0.20384474
-0.038371772 -0.0060335989 0.20657501
-0.039324805 -0.0082930215 0.21052331
-0.040644065 -0.010795597 0.21350768
-0.040087458 -0.013412381 0.21680458
-0.039992992 -0.016510736 0.21964979
-0.040457319 -0.019753136 0.22282806
-0.040705722 -0.022504751 0.22541042
-0.030271018 0.043396372 0.17677759
-0.030317385 0.041744348 0.1780068
-0.030579546 0.038995825 0.1798901
-0.030845752 0.035832483 0.18160462
-0.030878983 0.033132173 0.18320112
-0.031102946 0.030020826 0.18561153
-0.030954095 0.026235374 0.18762399
-0.031598315 0.02205804 0.18909086
-0.035317458 0.014471536 0.18904157
-0.034576856 0.0087426351 0.1910239
-0.032485988 0.0049669254 0.19334891
-0.032098744 0.0024352546 0.19605197
-0.033087261 0.00047294845 0.19874719
-0.033614744 -0.0015722726 0.20166382
-0.034273319 -0.0035191376 0.20496896
-0.035144206 -0.0056442842 0.20756581
-0.036178391 -0.0079776365 0.21158522
-0.037331913 -0.010522074 0.21465854
-0.036952212 -0.012857857 0.2173489
-0.036545049 -0.0156223 0.22027394
-0.037197296 -0.019911323 0.22244313
-0.036706947 -0.02243977 0.22519465
-0.027259836 0.043675613 0.17718974
-0.027364727 0.041924287 0.17852269
-0.027531577 0.039142337 0.18027379
-0.027756372 0.036151148 0.18240519
-0.027778355 0.03330927 0.18400219
-0.028115593 0.030289797 0.18650696
-0.028136846 0.0267001 0.18865265
-0.028095938 0.023252409 0.19010067
-0.030830985 0.017171867 0.19135284
-0.030992674 0.010300169 0.19352956
-0.028502224 0.0067705391 0.19606689
-0.028559739 0.0038616466 0.19880509
-0.029283738 0.0014711556 0.2007824
-0.029985175 0.0004116678 0.2022555
-0.031502772 -0.0031532866 0.20672254
-0.032036118 -0.0049165636 0.20894048
-0.033122014 -0.0073005515 0.21276335
-0.034151297 -0.0099374168 0.21585341
-0.033378866 -0.012069132 0.21854056
-0.03312273 -0.015186031 0.2222693
-0.032802876 -0.018623475 0.22413883
-0.033290315 -0.022341955 0.22646263
-0.033198167 -0.024272509 0.22944145
-0.024289934 0.043915376 0.1781742
-0.024488201 0.042167924 0.17938592
-0.024439033 0.039455872 0.18054971
-0.024556937 0.036388811 0.18252917
-0.0247551 0.033524457 0.18458414
-0.025133599 0.030551469 0.1871669
-0.025228379 0.027160697 0.18973869
-0.025398772 0.023523331 0.19147639
-0.026628202 0.019229013 0.19364385
-0.027332656 0.012478685 0.19520426
-0.025196565 0.008739206 0.19899479
-0.025309244 0.0055584288 0.20094024
-0.025476437 0.0030404306 0.20360105
-0.026065256 0.00091518462 0.20611963
-0.02732129 -0.0015437135 0.20884837
-0.028819613 -0.0039114729 0.21161443
-0.029894669 -0.0065994249 0.2146001
-0.030028727 -0.0091621475 0.21795596
-0.029512828 -0.012020651 0.22035334
-0.029573632 -0.015312167 0.2235934
-0.029600235 -0.018923553 0.22567792
-0.029872159 -0.02262954 0.22772191
-0.030083882 -0.024862153 0.23055534
-0.022160469 0.044399403 0.1785368
-0.021651963 0.042342082 0.18044357
-0.021247745 0.039968308 0.18167496
-0.021244453 0.036903821 0.18300937
-0.02139613 0.033793222 0.1854191
-0.02197358 0.031046268 0.1876405
-0.022354234 0.027477102 0.19056472
-0.022516737 0.023813162 0.19314799
-0.022936793 0.020283973 0.19562039
-0.02307268 0.015649388 0.19848046
-0.022583373 0.010899526 0.20088479
-0.022253308 0.0073577287 0.20326689
-0.022596793 0.0047583813 0.20594724
-0.023412641 0.0020226829 0.20873809
-0.024336446 -0.00058271684 0.21133183
-0.025023857 -0.0031316401 0.21361218
-0.025678813 -0.0057246727 0.21662591
-0.025893178 -0.0087090423 0.22010607
-0.025981527 -0.012244524 0.22159865
-0.026443383 -0.015902193 0.22495033
-0.026201498 -0.01930433 0.22649731
-0.02647496 -0.023113908 0.22837383
-0.026664648 -0.025755666 0.23135929
-0.018185755 0.042373002 0.18186328
-0.018684 0.03958657 0.18334645
-0.018047428 0.037128739 0.18458343
-0.018270655 0.034323875 0.18636504
-0.018752135 0.031520985 0.18859981
-0.019280888 0.028402859 0.19109249
-0.019360123 0.024232231 0.19473319
-0.019685341 0.020432223 0.19715266
-0.020097341 0.016665084 0.19950828
-0.019852756 0.012956425 0.20190603
-0.019563695 0.0093019642 0.20447056
-0.01982552 0.0061575635 0.20758462
-0.020357715 0.0029780015 0.2104927
-0.020959439 0.00035745997 0.2132713
-0.021454476 -0.00244543 0.21587755
-0.0219524 -0.0052622389 0.21933439
-0.022325635 -0.0084934616 0.22202931
-0.022352658 -0.012283796 0.22344232
-0.022965342 -0.016341239 0.22644882
-0.022670073 -0.019747097 0.22647272
-0.022820633 -0.023357389 0.22759894
-0.023219993 -0.02611321 0.2313917
-0.015610977 0.040343512 0.18459682
-0.015202942 0.037498999 0.1859941
-0.015438178 0.034656476 0.18750171
-0.015682505 0.03192481 0.18951
-0.015731202 0.028748376 0.19180456
-0.015801851 0.024937937 0.19593272
-0.016808709 0.020539852 0.19873518
-0.016830763 0.017243391 0.20099576
-0.016626619 0.013940772 0.20292728
-0.01661453 0.010787725 0.20607193
-0.016617248 0.0076705073 0.20882386
-0.01708803 0.004161228 0.21191873
-0.017526034 0.00091490027 0.21501344
-0.017904518 -0.0020050493 0.21827477
-0.018379815 -0.0048915269 0.22146359
-0.018726675 -0.0081776828 0.22363386
-0.018771091 -0.011923512 0.22486015
-0.019098965 -0.01569536 0.22643386
-0.019231809 -0.019178601 0.22722767
-0.019246493 -0.02301369 0.22894381
-0.019671818 -0.026308361 0.2329116
-0.012641807 0.037649225 0.18717027
-0.012368568 0.035101585 0.18863979
-0.012510595 0.032302354 0.19060721
-0.01247686 0.029114556 0.19216499
-0.012036918 0.025487518 0.19620076
-0.012405083 0.021532444 0.19999957
-0.0134498 0.017694924 0.20301385
-0.013638447 0.014717759 0.20515893
-0.013630301 0.011832648 0.2078297
-0.013586058 0.0087262793 0.210325
-0.013926025 0.0050419695 0.21349216
-0.014148277 0.0015283453 0.21641882
-0.014428746 -0.0013783791 0.21950801
-0.014661709 -0.0044868286 0.22269607
-0.01479108 -0.0078936825 0.22447945
-0.015119671 -0.011819505 0.22525841
-0.015303348 -0.015544085 0.22685404
-0.015467244 -0.01925035 0.22800738
-0.015961768 -0.02310783 0.2309178
-0.01574067 -0.026007617 0.23455089
-0.0099605666 0.035018608 0.18941982
-0.0093242917 0.032600198 0.19138527
-0.0089033861 0.029361678 0.19361307
-0.0086636292 0.025838606 0.19695324
-0.0092214979 0.022075092 0.20110761
-0.0098636737 0.018583924 0.20447184
-0.010284758 0.015502914 0.20670502
-0.010397911 0.012633797 0.20888142
-0.010337891 0.0096547753 0.21092245
-0.01051263 0.0062869941 0.21440488
-0.010476911 0.0022766995 0.21726601
-0.01060886 -0.00088284758 0.22034822
-0.010758503 -0.0043119877 0.22286703
-0.01086584 -0.0078195035 0.22492304
-0.010923862 -0.011547453 0.22484799
-0.011183457 -0.015498165 0.22768624
-0.011216862 -0.018805005 0.22913203
-0.011481672 -0.023775639 0.23355906
-0.005931823 0.032066491 0.19383396
-0.0055725453 0.029277707 0.19610579
-0.0056912759 0.02543975 0.19897331
-0.0064026937 0.02312802 0.20125796
-0.0063692704 0.018857736 0.20537141
-0.0066570048 0.01614752 0.20741886
-0.006761312 0.013308131 0.20952092
-0.0064801006 0.010298532 0.21185303
-0.0069818408 0.0070994445 0.21496712
-0.006774134 0.0028979897 0.21798797
-0.0070260381 -0.0005349188 0.221716
-0.0069042104 -0.0041778442 0.22274949
-0.0070102937 -0.0077089895 0.22489704
-0.0069983434 -0.011448715 0.22544152
-0.0071792244 -0.015287976 0.22782269
-0.0080641257 -0.018973494 0.22988078
-0.0092354175 -0.022183623 0.23184948
-0.002318847 0.028846791 0.19840392
-0.0024920006 0.025452841 0.19985928
-0.0015453446 0.022258449 0.2018332
-0.0023392816 0.019451754 0.20474496
-0.0024573782 0.016201746 0.20734003
-0.0024474284 0.013511487 0.20990346
-0.0024168596 0.010587172 0.21263129
-0.0029940975 0.0032075157 0.21831204
-0.0031082116 -0.00042147233 0.22188269
-0.0031414675 -0.0041514533 0.22278853
-0.003210074 -0.0078243678 0.22434714
-0.0038208195 -0.01141355 0.22531004
-0.004650617 -0.014527659 0.22755562
0.00038273761 0.027985992 0.19923106
0.00058477843 0.025356378 0.20014153
0.00095211808 0.022399565 0.20168276
0.0013228745 0.019416725 0.20423254
0.0014119414 0.016184144 0.20702529
0.0013281492 0.013456788 0.20988162
0.0012825803 0.010807642 0.21256059
0.00079920178 0.0079124467 0.21521109
0.0008589385 0.0040508755 0.21721911
0.00015221079 -9.208329e-05 0.22055002
-0.00045410544 -0.0037448059 0.22274777
0.0030938876 0.025007866 0.20032479
0.0043099537 0.022617524 0.20148386
0.0045475378 0.019410338 0.20395003
0.0043592597 0.016419264 0.20661026
0.0041784868 0.013841872 0.20939854
0.0039847931 0.01197371 0.2116845
0 0 0 1 0 0 0 1 0 0 0 1 0 0 0 0 0 348 1 0 0
