ply
format ascii 1.0
comment PCL generated
element vertex 348
property float x
property float y
property float z
element camera 1
property float view_px
property float view_py
property float view_pz
property float x_axisx
property float x_axisy
property float x_axisz
property float y_axisx
property float y_axisy
property float y_axisz
property float z_axisx
property float z_axisy
property float z_axisz
property float focal
property float scalex
property float scaley
property float centerx
property float centery
property int viewportx
property int viewporty
property float k1
property float k2
end_header
-0.055124439 0.029250156 0.1848308
-0.056158178 0.026471002 0.18661712
-0.056719903 0.02326804 0.18878125
-0.057192657 0.01990347 0.191101
-0.057803161 0.01646743 0.19328928
-0.058018897 0.013300078 0.19472197
-0.057959378 0.010135868 0.19588596
-0.051252469 0.031189177 0.18113102
-0.052407168 0.029575385 0.18243916
-0.052778579 0.026767444 0.18387911
-0.053367727 0.023448365 0.18593797
-0.053869531 0.019744119 0.18871331
-0.054553166 0.016058525 0.19102684
-0.055294361 0.012637631 0.19293076
-0.055862162 0.0094066858 0.19464214
-0.055907492 0.0055089178 0.19606444
-0.055779416 0.0020281964 0.19798334
-0.04761602 0.034211706 0.17859535
-0.048293121 0.032264408 0.17944033
-0.048495404 0.029797504 0.18044177
-0.049047586 0.027076695 0.18171951
-0.05005718 0.023673067 0.18471733
-0.050462551 0.018913543 0.18845253
-0.05127769 0.015151913 0.19032595
-0.052037835 0.012046282 0.191826
-0.052538544 0.0085704336 0.19390883
-0.053172749 0.0045707109 0.1954464
-0.05357508 0.00099052314 0.19732571
-0.054042459 -0.0012700892 0.20023705
-0.053933699 -0.0028770561 0.20279917
-0.053550523 -0.0037092434 0.20534846
-0.045148708 0.035327606 0.17784467
-0.045225766 0.032736804 0.1786163
-0.045478031 0.030145338 0.17983553
-0.045933362 0.027654091 0.18157716
-0.046654012 0.024366183 0.18374631
-0.047536183 0.017604476 0.18832442
-0.048503008 0.013703232 0.19058575
-0.049304377 0.0105774 0.19155924
-0.050125469 0.0066241515 0.19323418
-0.050797421 0.0027122931 0.19377324
-0.050807025 -0.00027360994 0.19621572
-0.050833732 -0.0017777487 0.19902416
-0.050933473 -0.0027541195 0.20296334
-0.051562071 -0.0042920024 0.20635012
-0.051965643 -0.0063216747 0.20969869
-0.051363014 -0.0096255932 0.2135774
-0.041925386 0.038773827 0.1770665
-0.042357203 0.036153894 0.17798351
-0.042402968 0.033318076 0.17897208
-0.042595241 0.030721314 0.18022051
-0.043225382 0.02797641 0.18220867
-0.043721203 0.024786633 0.18408774
-0.044643283 0.018343264 0.1869843
-0.046539899 0.012673612 0.18922901
-0.047235336 0.0087838098 0.19090438
-0.048092835 0.0043543419 0.19209631
-0.048701458 -0.00011163303 0.19218819
-0.048658878 -0.0019671035 0.19428594
-0.047762629 -0.0018634001 0.19843586
-0.047596581 -0.0029518183 0.20308535
-0.047964055 -0.004620153 0.20677944
-0.048697546 -0.0075659733 0.21042724
-0.049334474 -0.010462529 0.21308629
-0.049944542 -0.012615579 0.21783938
-0.03920592 0.040179737 0.17700675
-0.040053543 0.036778528 0.17854267
-0.039570507 0.034002803 0.17961282
-0.03992641 0.031320322 0.18086699
-0.040354524 0.028579665 0.18254946
-0.040690321 0.025417374 0.184258
-0.041542515 0.020394051 0.18633747
-0.04475385 0.011485407 0.18882208
-0.045102026 0.0072204559 0.19010417
-0.045515243 0.0025175107 0.1905257
-0.045812018 -0.0015061183 0.19091775
-0.045096584 -0.0024649086 0.19426093
-0.044170838 -0.0021359888 0.19889197
-0.044223312 -0.0032713227 0.20332992
-0.044520732 -0.0052810651 0.20742033
-0.044933554 -0.0083878255 0.21099243
-0.045893271 -0.010945006 0.2138876
-0.047075812 -0.012937822 0.21838193
-0.047404885 -0.015865911 0.22214006
-0.04695528 -0.018815013 0.2245965
-0.035693131 0.04274385 0.17596476
-0.03619694 0.040894452 0.1775243
-0.035561807 0.038088329 0.17910165
-0.036676116 0.03520076 0.18001811
-0.037105005 0.032252412 0.18143207
-0.037541524 0.029019473 0.18324885
-0.037408825 0.025842965 0.1848461
-0.039190453 0.020094685 0.18689975
-0.042267494 0.01119241 0.18832932
-0.042274497 0.006891699 0.18933558
-0.042248577 0.0020235835 0.18931894
-0.041836072 -0.0013370123 0.19114374
-0.040750001 -0.002233891 0.19515617
-0.040335737 -0.0024763567 0.19933343
-0.040738635 -0.0037140292 0.2036929
-0.041334759 -0.0062951534 0.20676334
-0.042156849 -0.00887312 0.20995256
-0.043528851 -0.010933841 0.21279737
-0.043420855 -0.013330494 0.21707572
-0.043644007 -0.016413832 0.22059964
-0.044406917 -0.019506747 0.22409706
-0.044108476 -0.021891776 0.22594222
-0.033243887 0.043085337 0.17621613
-0.033232018 0.041363213 0.17793299
-0.033343174 0.038634904 0.17938627
-0.033668514 0.035679925 0.18038125
-0.033855483 0.032861892 0.18207315
-0.034280129 0.029585671 0.18454577
-0.034095667 0.02614923 0.18599296
-0.036536857 0.019717555 0.18757351
-0.039164167 0.012041032 0.18815868
-0.038390093 0.0071382592 0.18950079
-0.038257889 0.0028794389 0.18930951
-0.037122555 -0.00067469478 0.19170056
-0.036251154 -0.0015503431 0.19611934
-0.036566526 -0.0029205387 0.19995889
-0.037472703 -0.0044731121 0.20343281
-0.038193725 -0.0065897861 0.20613654
-0.039241757 -0.0086802579 0.21029189
-0.04061912 -0.011127903 0.21331906
-0.040084448 -0.013608501 0.21676663
-0.039985452 -0.016621895 0.21971416
-0.04045283 -0.019801816 0.22294037
-0.040716834 -0.022522453 0.22551915
-0.030323677 0.04330894 0.17679377
-0.030367559 0.041666456 0.17803961
-0.03062504 0.03890213 0.17995134
-0.03087333 0.035716172 0.18163048
-0.030883214 0.033003431 0.18318896
-0.031080885 0.029864585 0.18555768
-0.030922422 0.026038297 0.18754381
-0.031568896 0.021818915 0.18897812
-0.035391342 0.013972691 0.18861696
-0.034628119 0.0082814805 0.19068839
-0.03249431 0.0045685363 0.19309206
-0.032062743 0.0020841474 0.19580828
-0.03299835 9.8563476e-05 0.19851223
-0.033467885 -0.0019605285 0.20138595
-0.034143183 -0.0039326521 0.20469144
-0.035027079 -0.0060709384 0.20728008
-0.036117498 -0.0083039291 0.2113947
-0.037335172 -0.010798731 0.21454218
-0.036975849 -0.013024235 0.21732359
-0.036570761 -0.015717821 0.22032337
-0.037205022 -0.019952107 0.22253993
-0.036717717 -0.022470793 0.22526114
-0.027318466 0.043615345 0.17723367
-0.027421214 0.041868743 0.17857513
-0.027579544 0.039079342 0.18034601
-0.027787054 0.036058549 0.1824398
-0.027789764 0.033209283 0.18400835
-0.028110333 0.03015659 0.18648148
-0.028121985 0.026532669 0.18860821
-0.028057115 0.023073645 0.19003184
-0.03085636 0.016890926 0.19118264
-0.031031143 0.009988565 0.19333699
-0.028461678 0.0064128949 0.19579601
-0.028506061 0.0035602879 0.19857466
-0.029222766 0.0012055358 0.20060284
-0.029948695 0.00016511108 0.20209447
-0.031479456 -0.0033810397 0.20657337
-0.032022722 -0.0051275515 0.20879994
-0.033093479 -0.0075557283 0.21262886
-0.03418003 -0.010148189 0.21578632
-0.033417951 -0.012194348 0.21853982
-0.033170305 -0.015234943 0.2223476
-0.032837033 -0.018643614 0.22422083
-0.033309489 -0.022373093 0.22650209
-0.03320938 -0.024310533 0.22946267
-0.024357552 0.043871496 0.17822194
-0.0245468 0.042122673 0.17944102
-0.024484733 0.039413657 0.18061508
-0.024590887 0.036325824 0.18258184
-0.024771402 0.03344382 0.18460776
-0.025142968 0.03044245 0.18717758
-0.025237747 0.027013235 0.18971707
-0.025380759 0.023368178 0.19142061
-0.026576495 0.019030867 0.19353317
-0.027335001 0.012231799 0.19501127
-0.025119374 0.0085224202 0.19880956
-0.025195001 0.0052689882 0.20068571
-0.025360001 0.00281698 0.20340221
-0.026005043 0.00075994182 0.20600264
-0.027339684 -0.0016452994 0.20879492
-0.028787961 -0.0041296589 0.21147539
-0.029890241 -0.0067878929 0.21449091
-0.030038826 -0.0093066636 0.21788241
-0.02954777 -0.012094809 0.22036561
-0.029631699 -0.015339361 0.22367802
-0.029638557 -0.018943442 0.2257341
-0.029895751 -0.022654841 0.22774795
-0.030098628 -0.024884524 0.23058747
-0.022230132 0.044366833 0.17858812
-0.021699991 0.042308677 0.18049103
-0.02128309 0.039932311 0.18171719
-0.021268575 0.03685569 0.18305542
-0.0214207 0.033724044 0.1854607
-0.022000473 0.030971808 0.18767898
-0.022384698 0.027371811 0.19057386
-0.022525821 0.023691347 0.19312109
-0.022913195 0.020165205 0.19557539
-0.023032784 0.015543056 0.19836883
-0.022517497 0.010750589 0.20073691
-0.022142731 0.0071748453 0.2030926
-0.022477608 0.0045672464 0.20576742
-0.02332107 0.0018224785 0.20857044
-0.024291404 -0.00075793208 0.2111955
-0.02500749 -0.0032877214 0.21351589
-0.025673501 -0.0058717858 0.21652918
-0.02588195 -0.0088297436 0.22003499
-0.02600468 -0.012314495 0.22161132
-0.026499925 -0.015927155 0.22500937
-0.026236989 -0.019335547 0.22650756
-0.026496394 -0.023147255 0.22838941
-0.026679354 -0.025769807 0.23137115
-0.01821498 0.042332478 0.18189046
-0.018696742 0.039533816 0.18336365
-0.018054282 0.037053321 0.18458386
-0.018293479 0.034245826 0.1863869
-0.018783079 0.031453755 0.18864244
-0.019323321 0.028349282 0.19113535
-0.019398127 0.024159934 0.19473577
-0.019695725 0.020365795 0.19712278
-0.020092886 0.016595863 0.19943306
-0.019825343 0.012869727 0.2017947
-0.019499278 0.0091841985 0.20432721
-0.019737804 0.0059958403 0.20743953
-0.020288093 0.0028100787 0.21035364
-0.020932499 0.00019928013 0.21317604
-0.021452328 -0.002578214 0.21579392
-0.021950113 -0.0053977869 0.21923579
-0.022318179 -0.0086044697 0.2219664
-0.0223705 -0.012346727 0.22345743
-0.023016296 -0.016373776 0.2264926
-0.022708405 -0.019797597 0.22645627
-0.0228562 -0.023399163 0.22759673
-0.02324805 -0.026139369 0.23139432
-0.015615639 0.040276106 0.18459834
-0.015200125 0.03742367 0.18597959
-0.015440671 0.034575712 0.1875017
-0.01570135 0.031856813 0.18953414
-0.015746409 0.028701108 0.19184858
-0.015815178 0.024890298 0.19595517
-0.016842877 0.020507848 0.19871259
-0.016848249 0.017195784 0.20094697
-0.016621394 0.013878453 0.20285586
-0.016575407 0.010688205 0.20597394
-0.016580684 0.0075654704 0.20872873
-0.017078634 0.0040620835 0.21184994
-0.01754399 0.00081165729 0.21496347
-0.017932393 -0.0021047459 0.21823214
-0.018401019 -0.0049912976 0.22142553
-0.018736158 -0.0082606869 0.22359054
-0.018788638 -0.011976243 0.22486885
-0.019137779 -0.015736166 0.22647943
-0.019268868 -0.019227074 0.2272255
-0.019281281 -0.023060998 0.22893137
-0.019697497 -0.026337843 0.23290317
-0.012632376 0.03757637 0.18715261
-0.012362065 0.035020176 0.18862703
-0.012511658 0.03223262 0.19061063
-0.012477999 0.029059121 0.19220056
-0.012004908 0.025448438 0.19624107
-0.012379263 0.021506421 0.20001629
-0.013467801 0.017649319 0.20298581
-0.013641262 0.014649517 0.20510282
-0.013613493 0.01176264 0.2077575
-0.013574048 0.0086645335 0.21026428
-0.013955148 0.0049942061 0.21347289
-0.014191787 0.0014739902 0.21643043
-0.014472122 -0.001427821 0.21952666
-0.014697085 -0.0045242431 0.22272347
-0.014803877 -0.0079284711 0.22449677
-0.015151353 -0.011866808 0.2252775
-0.01533598 -0.015589382 0.22688316
-0.015494447 -0.019297328 0.22800697
-0.015990231 -0.023147071 0.23089288
-0.015763367 -0.026040174 0.23453327
-0.0099545689 0.034941442 0.18940584
-0.0093220454 0.032528877 0.19138685
-0.0088842753 0.029307691 0.19364673
-0.0086176852 0.025786392 0.19698912
-0.0091704195 0.022036891 0.20111121
-0.0098512797 0.018534916 0.20444247
-0.010285071 0.015441676 0.20666669
-0.010401363 0.01258733 0.20884314
-0.010345285 0.0096327076 0.21090437
-0.010563473 0.0062853815 0.21443574
-0.010529855 0.0022670319 0.21731953
-0.010638503 -0.00088703888 0.22039267
-0.010772169 -0.0043226611 0.2229086
-0.010861932 -0.007836163 0.2249493
-0.010929861 -0.011582986 0.2248756
-0.011205249 -0.015534992 0.22771889
-0.011241502 -0.018838802 0.22915277
-0.011514452 -0.023811175 0.23355931
-0.0058885175 0.032001767 0.19383852
-0.0055151577 0.029211666 0.19610193
-0.0056245076 0.025354076 0.19893789
-0.0063462011 0.023076007 0.20124963
-0.006340629 0.018810045 0.20534879
-0.0066489074 0.016088702 0.20738487
-0.0067734411 0.013282827 0.20950963
-0.0065017319 0.01030918 0.21189521
-0.0070272693 0.0071397121 0.21502456
-0.0068079797 0.0029027944 0.21804254
-0.0070470991 -0.0005336373 0.22176507
-0.0069066412 -0.004190621 0.22277243
-0.0070071938 -0.0077373353 0.22491093
-0.0070015881 -0.01149173 0.22545494
-0.007194676 -0.015326806 0.22784971
-0.0080881966 -0.019003978 0.22991243
-0.0092694024 -0.02221976 0.23188072
-0.0022418099 0.028751276 0.19836614
-0.0024204589 0.025355158 0.19980589
-0.0014793534 0.022183483 0.2018064
-0.0022872249 0.019394292 0.20473847
-0.0024299761 0.016155293 0.20735428
-0.0024296453 0.01349455 0.20994708
-0.0024103522 0.010598501 0.21270433
-0.0030143352 0.0032156124 0.21836285
-0.003120458 -0.00042170548 0.22191681
-0.0031415916 -0.0041680988 0.22279783
-0.0032088181 -0.0078644175 0.22435075
-0.0038243155 -0.01146963 0.22532375
-0.0046630003 -0.014576167 0.22757491
0.0004525586 0.027878787 0.19918029
0.00065369025 0.025257099 0.20009609
0.0010249442 0.022312114 0.20167954
0.0013831704 0.01935076 0.20426646
0.0014527328 0.016133389 0.20706752
0.0013543131 0.013427786 0.20994537
0.0012981055 0.010802952 0.21263467
0.00080140174 0.0079234568 0.2152997
0.00086323399 0.0040573361 0.21729068
0.00015106806 -9.4234761e-05 0.22057214
-0.0004498224 -0.0037777084 0.22274944
0.0031549656 0.024914155 0.20030221
0.0043906909 0.022545727 0.20153014
0.0046024485 0.019339381 0.20403066
0.00439543 0.016359458 0.20666425
0.0042102803 0.013806672 0.20946005
0.0040086214 0.011948409 0.21175998
0 0 0 1 0 0 0 1 0 0 0 1 0 0 0 0 0 348 1 0 0
