ply
format ascii 1.0
comment PCL generated
element vertex 348
property float x
property float y
property float z
element camera 1
property float view_px
property float view_py
property float view_pz
property float x_axisx
property float x_axisy
property float x_axisz
property float y_axisx
property float y_axisy
property float y_axisz
property float z_axisx
property float z_axisy
property float z_axisz
property float focal
property float scalex
property float scaley
property float centerx
property float centery
property int viewportx
property int viewporty
property float k1
property float k2
end_header
-0.055706989 0.023600942 0.18645218
-0.056310508 0.021103151 0.18809511
-0.056939024 0.017700594 0.1900056
-0.057219084 0.014467101 0.19197245
-0.057352163 0.01140147 0.19398373
-0.057242859 0.0085781729 0.1959217
-0.056803953 0.0059543969 0.19771025
-0.052152295 0.02565317 0.18244991
-0.053060226 0.024305409 0.18360537
-0.053298656 0.021558782 0.18529461
-0.053730953 0.018145807 0.18724976
-0.054107469 0.014270212 0.18952113
-0.054494511 0.010902466 0.19182523
-0.05488088 0.0079141436 0.1946353
-0.054345872 0.0046529127 0.19696604
-0.051495917 0.00071557384 0.19842577
-0.051827583 -0.0020643238 0.20075467
-0.049067769 0.028537227 0.18010567
-0.049547084 0.026823638 0.18096142
-0.049749907 0.024615746 0.18190417
-0.050164897 0.022175137 0.18317811
-0.050700497 0.018489731 0.18570508
-0.050689701 0.013435695 0.18847412
-0.051019508 0.0098376023 0.19085667
-0.051199976 0.0068634814 0.19371065
-0.050289195 0.0030308701 0.19576915
-0.049236841 -0.0011510529 0.19840132
-0.050329268 -0.0035625196 0.20079203
-0.051428888 -0.004772034 0.20360456
-0.05149027 -0.0058094123 0.20574157
-0.051382277 -0.0071444563 0.20620666
-0.046649709 0.029940499 0.17944597
-0.046763122 0.027559485 0.18009634
-0.047037855 0.025176309 0.18112452
-0.047527365 0.022779167 0.18266065
-0.048214447 0.019534856 0.18474488
-0.047731288 0.011833115 0.18782419
-0.047977868 0.0082217753 0.19067316
-0.048028734 0.004798539 0.19326322
-0.047085464 -0.00060567295 0.19578692
-0.04769722 -0.0038196167 0.19782069
-0.047919739 -0.0058281915 0.19969167
-0.048372466 -0.0063458881 0.20201637
-0.0488238 -0.0063671735 0.2053781
-0.049543403 -0.0079275891 0.20729193
-0.05005211 -0.010300106 0.20954449
-0.049740441 -0.013554798 0.21299949
-0.04371547 0.033644021 0.17863126
-0.043881759 0.031247823 0.17940946
-0.044046614 0.028409392 0.18023805
-0.044412006 0.025793497 0.18128201
-0.045001008 0.023095721 0.1827735
-0.045610961 0.019813856 0.18433255
-0.04564495 0.012775692 0.1861894
-0.046057325 0.0065225312 0.19057786
-0.045520958 0.0019141147 0.19323578
-0.045956228 -0.0038988276 0.19597967
-0.047168348 -0.0079240212 0.19702388
-0.047027308 -0.0087322686 0.19861957
-0.045947336 -0.0070470558 0.20064807
-0.045556735 -0.007081721 0.20507351
-0.04595229 -0.008501498 0.20813878
-0.046922456 -0.011276058 0.21022791
-0.047870781 -0.014263882 0.21245004
-0.049111553 -0.016228722 0.21569493
-0.041226853 0.035597134 0.17803201
-0.041607283 0.032158278 0.17966558
-0.041185264 0.029433273 0.18062478
-0.041766334 0.026558705 0.18165646
-0.042180579 0.02382097 0.18268338
-0.042540867 0.020533169 0.1839404
-0.043207265 0.015078788 0.18518825
-0.044508941 0.0051315865 0.19037418
-0.043889493 -0.00043749571 0.19284523
-0.045002751 -0.0071097105 0.19459006
-0.045371149 -0.010341686 0.19618079
-0.044020232 -0.009646778 0.19867687
-0.042832706 -0.0077443826 0.20042333
-0.042479802 -0.0078124246 0.20470901
-0.042536803 -0.0094399126 0.20818414
-0.042951908 -0.012199575 0.21080786
-0.04451881 -0.014780049 0.21283445
-0.046782807 -0.016442172 0.21599796
-0.047327518 -0.018931957 0.21977493
-0.046938814 -0.021090563 0.22227047
-0.037551884 0.039454937 0.17614372
-0.038061019 0.037260696 0.17786019
-0.037039224 0.034494612 0.17969675
-0.038021218 0.031768363 0.18081866
-0.038438402 0.028501818 0.18168174
-0.038989697 0.02457932 0.18272215
-0.038924873 0.021129968 0.1835608
-0.040713012 0.014958205 0.18512504
-0.042684168 0.0045482549 0.18940128
-0.041642837 -0.00058776385 0.19114266
-0.043039653 -0.008990177 0.19305606
-0.041928768 -0.011105196 0.1959964
-0.040382113 -0.0096672941 0.19859047
-0.039945841 -0.0085625676 0.1994765
-0.039140929 -0.0092031043 0.20325789
-0.039554734 -0.011043342 0.20624456
-0.040789727 -0.013241945 0.20849511
-0.04230589 -0.014798106 0.21120834
-0.043060537 -0.016842632 0.21487708
-0.043463033 -0.019473463 0.21867993
-0.044459555 -0.021810461 0.22232898
-0.044049915 -0.02367516 0.22429222
-0.034982067 0.040352982 0.17628899
-0.034781616 0.038656529 0.1781358
-0.034583274 0.035644911 0.17981522
-0.035094168 0.03280009 0.18096583
-0.034824882 0.030123416 0.18205038
-0.034611773 0.026337178 0.18354675
-0.034303781 0.022841761 0.18404669
-0.038006604 0.015220749 0.1850175
-0.040889919 0.0060902596 0.18779656
-0.038764078 0.0005560962 0.18912277
-0.039571691 -0.010519801 0.19202873
-0.038500395 -0.012296694 0.19535635
-0.037502121 -0.010409415 0.19639204
-0.036666874 -0.0095071662 0.19842875
-0.036591481 -0.010599616 0.20143172
-0.036784757 -0.012185815 0.20405218
-0.037926923 -0.013679693 0.20766734
-0.03971355 -0.015664635 0.21096286
-0.039663903 -0.017324153 0.21453318
-0.039927099 -0.019509787 0.21811555
-0.04043578 -0.021801217 0.2216467
-0.04084887 -0.023921719 0.22427821
-0.031928092 0.04095874 0.17684206
-0.031855226 0.039330337 0.17836903
-0.031913765 0.036001217 0.18046422
-0.03208001 0.032770023 0.18178752
-0.031574208 0.030346949 0.18291548
-0.031091657 0.026998607 0.18419248
-0.030921202 0.02266548 0.18502143
-0.031866666 0.018728431 0.18509422
-0.038257089 0.0087862136 0.18616857
-0.035915669 0.0030820097 0.18770964
-0.033957537 -0.00019044128 0.18841156
-0.034452889 -0.0089016724 0.19046716
-0.033852331 -0.0093588922 0.19459604
-0.033410352 -0.0084028896 0.19782937
-0.033065312 -0.0099185547 0.20128417
-0.033344995 -0.011991123 0.20414785
-0.034718063 -0.013521915 0.20821562
-0.036373742 -0.015829276 0.21190976
-0.036725067 -0.017398747 0.21464872
-0.036816888 -0.019210279 0.21828602
-0.03758793 -0.021930583 0.2214489
-0.037335325 -0.023541139 0.22413547
-0.029072434 0.041399088 0.17728986
-0.028897732 0.039684363 0.17870498
-0.028823053 0.036492165 0.18075027
-0.028816363 0.033301551 0.18232101
-0.028327588 0.030627999 0.18347947
-0.028246101 0.027139338 0.18481451
-0.028110599 0.023432489 0.18593282
-0.0278202 0.02058647 0.18618859
-0.032405812 0.013734971 0.18573789
-0.032355402 0.0061457129 0.18744683
-0.029236803 0.0038956956 0.18953787
-0.028839549 0.00025561568 0.19154258
-0.029648423 -0.0048790155 0.19376118
-0.029889837 -0.0066493968 0.19597137
-0.030043611 -0.0094389347 0.20210615
-0.030176679 -0.011270924 0.20459703
-0.031536438 -0.013126915 0.20900129
-0.03309593 -0.015505952 0.21276733
-0.033218618 -0.017247891 0.2152833
-0.033379983 -0.018707503 0.21959178
-0.033462919 -0.020940376 0.22199041
-0.034015242 -0.023370257 0.22488995
-0.033795062 -0.024521705 0.22775213
-0.026109073 0.041805856 0.17775579
-0.025957501 0.040137328 0.1788974
-0.025415855 0.03754596 0.18033105
-0.025531096 0.034188893 0.18239208
-0.025327509 0.031123675 0.18396963
-0.025337886 0.027686475 0.18565355
-0.025389051 0.024165673 0.18680659
-0.025520552 0.021032434 0.18713839
-0.026717044 0.016423179 0.18765256
-0.028373497 0.0093846163 0.18833475
-0.024765713 0.005632848 0.19193964
-0.02433623 0.0022377521 0.19436505
-0.02379345 -0.001109506 0.19712706
-0.024341464 -0.0049897833 0.20102485
-0.025547173 -0.0077078054 0.2041373
-0.02686237 -0.010087014 0.20684551
-0.028047124 -0.012314036 0.21071911
-0.028759595 -0.014427607 0.21468619
-0.029697521 -0.016837575 0.21721728
-0.030258946 -0.018909318 0.22050238
-0.030527597 -0.02119877 0.22298652
-0.031036654 -0.023692509 0.22558759
-0.03106867 -0.024894405 0.22834556
-0.024062477 0.042518433 0.17783944
-0.022917302 0.040802889 0.17931737
-0.021986598 0.038692512 0.18057425
-0.02181524 0.035414975 0.18246526
-0.0221161 0.031701144 0.18487686
-0.022359231 0.028683957 0.18678196
-0.022823513 0.024975091 0.18791984
-0.023080541 0.021436896 0.18877381
-0.022973215 0.01775136 0.19030352
-0.022585427 0.013356009 0.19183096
-0.021674812 0.0081032235 0.19429444
-0.020972671 0.0038867549 0.19660448
-0.020938827 0.00023773196 0.19936997
-0.021721171 -0.0037574826 0.20320511
-0.022676593 -0.0066181663 0.20663859
-0.023366362 -0.0088814842 0.20994852
-0.0242266 -0.011229013 0.21357419
-0.025009103 -0.013859176 0.2177045
-0.026616065 -0.016945351 0.21990952
-0.028066281 -0.019412732 0.22220312
-0.027774258 -0.021541966 0.22347058
-0.027628727 -0.023756625 0.22571824
-0.027647458 -0.025539016 0.22886729
-0.019163497 0.041263584 0.18039174
-0.019169776 0.038410947 0.18208648
-0.018474868 0.035543371 0.18377623
-0.018819621 0.0325865 0.18578015
-0.019034121 0.029722823 0.18810084
-0.019510033 0.026545193 0.18991058
-0.020142736 0.021903481 0.19103345
-0.020155869 0.018264677 0.19221759
-0.020190177 0.01477312 0.19376971
-0.019698109 0.010796553 0.1954817
-0.018771751 0.0063249422 0.19794574
-0.018506153 0.0016961676 0.20206913
-0.018789528 -0.0026187447 0.20590714
-0.019282226 -0.0058513531 0.21014951
-0.019968508 -0.008491206 0.21316522
-0.02060334 -0.011162017 0.2170307
-0.02197762 -0.013883038 0.22051539
-0.023494186 -0.01693086 0.22260447
-0.02530458 -0.019545365 0.22436062
-0.024652371 -0.021785934 0.22388954
-0.024342809 -0.024169464 0.2253498
-0.024352076 -0.025964195 0.22901553
-0.016218998 0.038984243 0.18342403
-0.01543202 0.036177404 0.18506624
-0.015484395 0.03333563 0.18692413
-0.015627388 0.030632354 0.18891911
-0.015029729 0.027598178 0.191067
-0.014847819 0.023585631 0.1936733
-0.017293053 0.018966401 0.19428058
-0.017370714 0.015409481 0.19607298
-0.01667821 0.011498204 0.19771458
-0.015907386 0.007287675 0.20100588
-0.015954198 0.0034141068 0.20449434
-0.016036753 -0.0010262404 0.20860551
-0.016204167 -0.0052746367 0.2132176
-0.016330246 -0.0084790504 0.21679118
-0.01648399 -0.011416373 0.22017373
-0.018353583 -0.013726178 0.22245309
-0.020276522 -0.016430954 0.22447732
-0.021217048 -0.018766303 0.22543341
-0.021255227 -0.020965466 0.22522511
-0.020821836 -0.023548897 0.22665997
-0.021222334 -0.026271963 0.23078145
-0.012681702 0.036609378 0.18619399
-0.012227422 0.034084488 0.18781267
-0.011992621 0.031448685 0.1897441
-0.011515773 0.028376017 0.19142896
-0.01048269 0.024673445 0.19529681
-0.010924478 0.0195965 0.19841433
-0.013044788 0.015037578 0.19946647
-0.01290204 0.011055002 0.20113927
-0.013065263 0.0079288101 0.20347764
-0.013460251 0.0045976569 0.20604907
-0.013461767 0.00015880777 0.21069446
-0.012801376 -0.004870431 0.21562585
-0.012621826 -0.0078272801 0.21883564
-0.012606993 -0.010821565 0.22189194
-0.013123211 -0.013490588 0.2238794
-0.015775105 -0.015536126 0.22441453
-0.016773669 -0.018005097 0.22553228
-0.017089391 -0.020781605 0.22627844
-0.017695272 -0.023608757 0.22863381
-0.017625598 -0.026032647 0.2322692
-0.0096951155 0.03439426 0.18866268
-0.0087336507 0.032031696 0.19074248
-0.0077873399 0.028938565 0.19358638
-0.0070753773 0.024737472 0.19768851
-0.0072273812 0.019491768 0.20108832
-0.0089419475 0.015260274 0.20241985
-0.0098209437 0.011313262 0.20354769
-0.010134548 0.0083613005 0.20511071
-0.010531678 0.0055734697 0.2071481
-0.010849152 0.0017194853 0.21167098
-0.0092643136 -0.0039421618 0.21695186
-0.0091142375 -0.0070112539 0.22029485
-0.0090630567 -0.0099739917 0.22289239
-0.0093838228 -0.012490362 0.22476454
-0.010656346 -0.014699521 0.2251516
-0.012053476 -0.017477887 0.22724541
-0.012742681 -0.020474792 0.22843878
-0.013923096 -0.02462448 0.23244926
-0.0047264318 0.031052882 0.19524041
-0.0041202134 0.027623804 0.1980155
-0.0039875535 0.023000982 0.20073615
-0.0045913253 0.020191757 0.20219965
-0.0055422504 0.015054255 0.20398016
-0.0064509758 0.011564492 0.2049063
-0.0068796547 0.0088073192 0.20644258
-0.0069565256 0.0061942432 0.20933829
-0.0079643345 0.0031134067 0.21257591
-0.0057694828 -0.0029077667 0.21819356
-0.0057739606 -0.0062264982 0.22182132
-0.0056800349 -0.0094263712 0.22317669
-0.006253093 -0.012111172 0.22543621
-0.0068842438 -0.014615668 0.22667412
-0.0081263138 -0.017485818 0.22903372
-0.0097426949 -0.020677907 0.2302933
-0.011589004 -0.02348865 0.23201574
-0.00068945193 0.025331935 0.20008427
-0.00091876724 0.021931654 0.2013011
-0.00014797013 0.018549215 0.20226048
-0.0014211462 0.015547554 0.20407647
-0.0024255945 0.011700342 0.20605356
-0.0026299797 0.0089087598 0.20853427
-0.0028608879 0.0062284544 0.21145302
-0.0023991389 -0.0015810429 0.21881138
-0.0020616138 -0.0055756192 0.22224738
-0.0021995406 -0.0091772517 0.22368082
-0.0027547227 -0.011978762 0.22580113
-0.0038261816 -0.01461549 0.22732006
-0.0055199689 -0.016920958 0.22970773
0.0016063425 0.023521816 0.20011584
0.001650539 0.020991836 0.20063408
0.002036711 0.01814211 0.20152691
0.0021029669 0.015510011 0.20410267
0.0015573889 0.012192919 0.20725062
0.0011846743 0.0091359522 0.20990348
0.00092683476 0.0065943608 0.21243924
0.00015736867 0.0038298445 0.21502443
0.0009032198 -0.0001977154 0.21758303
0.00089618156 -0.0043594101 0.22134791
0.00040545614 -0.0085174209 0.22393399
0.003809707 0.019996051 0.20009111
0.0053509269 0.017898722 0.20127343
0.0052696997 0.015565793 0.20487808
0.0044968235 0.012647432 0.20780091
0.0040640798 0.0098232646 0.21024637
0.0036277105 0.007865455 0.21243198
0 0 0 1 0 0 0 1 0 0 0 1 0 0 0 0 0 348 1 0 0
