ply
format ascii 1.0
comment PCL generated
element vertex 348
property float x
property float y
property float z
element camera 1
property float view_px
property float view_py
property float view_pz
property float x_axisx
property float x_axisy
property float x_axisz
property float y_axisx
property float y_axisy
property float y_axisz
property float z_axisx
property float z_axisy
property float z_axisz
property float focal
property float scalex
property float scaley
property float centerx
property float centery
property int viewportx
property int viewporty
property float k1
property float k2
end_header
-0.05530123 0.02315093 0.18570127
-0.055979062 0.020772368 0.1875266
-0.056535501 0.017500132 0.18935266
-0.056780197 0.014313394 0.19127411
-0.056877628 0.01131941 0.19325829
-0.056786191 0.0085482532 0.19523795
-0.056378026 0.0059492718 0.19705337
-0.051975679 0.025188183 0.18200874
-0.052846856 0.023939511 0.18302956
-0.053029798 0.02125141 0.1845742
-0.053472739 0.01789077 0.18649469
-0.053765416 0.014092269 0.18860434
-0.054168191 0.010758344 0.19087395
-0.054569662 0.0078087747 0.19373561
-0.053959165 0.0045077321 0.19567673
-0.051647358 0.00050743372 0.19708082
-0.051970687 -0.0022580489 0.19937794
-0.0490296 0.028005827 0.17987165
-0.049498096 0.026297633 0.18064223
-0.049685184 0.024111656 0.18144132
-0.0500663 0.021718128 0.18257186
-0.050492462 0.018128598 0.18481423
-0.050454512 0.013277334 0.18729977
-0.050767373 0.0096726725 0.18957001
-0.05084724 0.0065274844 0.19180235
-0.050189476 0.002741622 0.19394617
-0.049403936 -0.001304792 0.19689736
-0.050473087 -0.0037547436 0.19939992
-0.051509462 -0.0049724905 0.20226987
-0.051503707 -0.0060007209 0.20446381
-0.051393006 -0.0071979188 0.20504294
-0.046640985 0.029321982 0.17906696
-0.046811186 0.027022498 0.1797092
-0.047082771 0.024678087 0.18060598
-0.047532197 0.02226123 0.18196774
-0.048081748 0.018999364 0.18378156
-0.047599375 0.011708832 0.18638641
-0.047817331 0.0079832003 0.18915054
-0.047753882 0.0044490797 0.19105484
-0.04738107 -0.00076061871 0.19400449
-0.047902908 -0.0040516183 0.19624175
-0.048060667 -0.0059969998 0.1981736
-0.048465986 -0.0065235239 0.20065896
-0.048773464 -0.0064763697 0.20408249
-0.049547505 -0.0079187378 0.20613351
-0.050160777 -0.010213487 0.20846681
-0.049978737 -0.01353375 0.21217029
-0.043629743 0.03289257 0.17792584
-0.043889564 0.030590875 0.1788058
-0.044080418 0.02784986 0.17969337
-0.044487212 0.025289791 0.18061681
-0.045031555 0.02258504 0.18189706
-0.045565058 0.019266145 0.18317883
-0.045548271 0.012583186 0.18466648
-0.045948111 0.0063903257 0.18832231
-0.045462761 0.0017723694 0.19085987
-0.046362996 -0.0039343485 0.19396822
-0.047503401 -0.0081344191 0.19539511
-0.047190893 -0.0088902414 0.1971136
-0.046076957 -0.0072071622 0.19922996
-0.045525517 -0.00712778 0.20372745
-0.045866542 -0.0084719528 0.20687225
-0.04709303 -0.011317478 0.2093194
-0.048142962 -0.014299479 0.2115822
-0.049419865 -0.016233359 0.21483569
-0.041207328 0.034819402 0.17721531
-0.041550923 0.031429596 0.17888103
-0.041153301 0.028818972 0.17984505
-0.041834582 0.026043002 0.180819
-0.042244736 0.023358086 0.1816328
-0.042554751 0.020033425 0.18258558
-0.043189481 0.014787333 0.18352512
-0.04440083 0.0050860383 0.18796398
-0.044150978 -0.00054795755 0.19026662
-0.045626078 -0.0073719095 0.19272144
-0.045675639 -0.010412899 0.19456232
-0.044149905 -0.0096893385 0.19704473
-0.042931277 -0.0077763577 0.19881047
-0.042470288 -0.0078625167 0.20327035
-0.042451479 -0.0094832955 0.2067889
-0.043088131 -0.012201354 0.20973459
-0.04485232 -0.014850404 0.21180712
-0.04711074 -0.016517695 0.21502057
-0.047514506 -0.019055689 0.21877988
-0.047028933 -0.02118068 0.22107163
-0.037590813 0.03902328 0.17555921
-0.038068168 0.036663406 0.17712316
-0.036989473 0.033889353 0.17876326
-0.038005162 0.031149693 0.17973186
-0.038417712 0.027996061 0.18050589
-0.039003652 0.024157872 0.18140808
-0.038938478 0.020750999 0.18194696
-0.040763866 0.014779071 0.18330097
-0.042816721 0.0049334606 0.18661669
-0.042017702 -0.00048527168 0.18790795
-0.043724306 -0.0091170883 0.19114861
-0.042261962 -0.011146924 0.19419739
-0.040591665 -0.0097134765 0.19670902
-0.040110625 -0.008612209 0.19762835
-0.039157152 -0.009328424 0.20145406
-0.039640468 -0.011165488 0.20453262
-0.041213401 -0.013203082 0.20720376
-0.042820022 -0.014706216 0.20991184
-0.043526135 -0.016975267 0.21365812
-0.043737374 -0.019631593 0.21748479
-0.04455258 -0.022040581 0.22108313
-0.043870151 -0.023965674 0.2228563
-0.035025034 0.040054955 0.17571305
-0.034780372 0.0382974 0.17747575
-0.034583252 0.035172027 0.17892084
-0.035110608 0.03230929 0.17978455
-0.034757145 0.029688882 0.18065564
-0.034455441 0.025928508 0.18190454
-0.034334797 0.022617185 0.1822674
-0.038165413 0.015335863 0.18302824
-0.041167054 0.0066448781 0.18484063
-0.039263479 0.0010642404 0.18524286
-0.040349811 -0.010943479 0.18962465
-0.039048243 -0.012582728 0.19293201
-0.037967604 -0.010728722 0.19366416
-0.036952794 -0.0097665424 0.19587971
-0.036794655 -0.010841615 0.19938321
-0.037028708 -0.012396229 0.2020354
-0.038523983 -0.013728183 0.2061976
-0.040521305 -0.015656687 0.20948628
-0.040300965 -0.017534951 0.21309036
-0.040293109 -0.019679755 0.21670614
-0.040606596 -0.02206484 0.22019731
-0.040814135 -0.024235399 0.22264376
-0.031948466 0.040702485 0.17623228
-0.03185128 0.039019395 0.17773353
-0.031954277 0.035497833 0.1796494
-0.032116722 0.032224294 0.18056987
-0.031498928 0.029898738 0.18145494
-0.031050539 0.026660541 0.18256526
-0.031211065 0.022498347 0.1831087
-0.032163229 0.018683406 0.1828395
-0.038597047 0.0095055103 0.18299533
-0.036337484 0.0035570373 0.18361434
-0.034404788 -2.2257254e-05 0.18378875
-0.035322029 -0.0098257316 0.18698987
-0.034468118 -0.010166909 0.19134043
-0.033654824 -0.0091354717 0.19481561
-0.033212494 -0.010496964 0.19890761
-0.03363651 -0.012428136 0.20196664
-0.035329651 -0.013724185 0.20672706
-0.037207227 -0.01606768 0.21037276
-0.037479647 -0.017721022 0.21298787
-0.037191525 -0.019424098 0.21665646
-0.037773773 -0.022057623 0.21985605
-0.037367444 -0.023826769 0.22221875
-0.029131116 0.041135635 0.17667264
-0.028913353 0.039372377 0.17804837
-0.028882522 0.03597343 0.18002953
-0.028821733 0.03275359 0.18120429
-0.028297301 0.030210165 0.18216656
-0.028314592 0.026777903 0.18333177
-0.028348105 0.023234822 0.18410659
-0.028090248 0.020450743 0.18409847
-0.032739155 0.013891444 0.18311983
-0.032786734 0.0061178869 0.18436174
-0.02929212 0.0037979106 0.18528676
-0.028681245 -0.00021326357 0.18697967
-0.02981342 -0.0059258328 0.18965732
-0.03014667 -0.0078528281 0.19249378
-0.030100266 -0.010135681 0.19974293
-0.030282661 -0.011803137 0.20229614
-0.032088861 -0.013452412 0.20749703
-0.033861663 -0.015962606 0.21117949
-0.033880476 -0.017631862 0.21337534
-0.033632766 -0.018862966 0.21769458
-0.033624213 -0.020964524 0.22017589
-0.034068026 -0.023485042 0.2229057
-0.033736683 -0.024640283 0.22567695
-0.026204083 0.041563794 0.1771635
-0.026013361 0.039872471 0.17824472
-0.02544092 0.037207447 0.17963861
-0.025531186 0.03374305 0.18141198
-0.0253399 0.030745875 0.18284348
-0.025443217 0.027305134 0.18433352
-0.025639409 0.023914229 0.18509412
-0.025850575 0.020853313 0.18512653
-0.027099216 0.016264524 0.18509224
-0.028714273 0.0092048021 0.18530245
-0.024898447 0.0051334742 0.18908302
-0.023900775 0.0013714657 0.19055738
-0.023063432 -0.002207631 0.19369547
-0.023863163 -0.006033306 0.19879493
-0.025430275 -0.008481591 0.20213164
-0.027137611 -0.010528651 0.20545357
-0.028409045 -0.012817633 0.20937024
-0.02920755 -0.014978639 0.21307983
-0.030142246 -0.017242962 0.21523069
-0.030540321 -0.019102316 0.21839108
-0.030694308 -0.021239873 0.22088805
-0.031105328 -0.023615679 0.22349074
-0.031001955 -0.024585074 0.22616126
-0.024187868 0.042339168 0.17731127
-0.022994988 0.040662479 0.17879495
-0.022027729 0.038538624 0.17998509
-0.021806091 0.035153426 0.18170984
-0.022135651 0.031366307 0.18391514
-0.022416264 0.028284766 0.18569784
-0.023080846 0.024672043 0.18631783
-0.023552706 0.021154691 0.18675835
-0.023439825 0.017360752 0.18793644
-0.022779532 0.012998276 0.18911533
-0.021576423 0.0075472794 0.1914487
-0.020737384 0.0031922946 0.19392878
-0.020637956 -0.00059393805 0.19704753
-0.02145163 -0.004633551 0.20161445
-0.022477601 -0.0073206094 0.20533878
-0.023322357 -0.0096657267 0.20868847
-0.02441459 -0.011988251 0.2123677
-0.025425276 -0.014475346 0.21585046
-0.027045568 -0.017468572 0.21787901
-0.028389536 -0.01967507 0.21995783
-0.02804172 -0.021595817 0.22113584
-0.027787389 -0.023431752 0.22338264
-0.02768575 -0.024979493 0.22659113
-0.019307496 0.04129982 0.18010201
-0.01927916 0.038389795 0.18162081
-0.018468285 0.035456974 0.18321213
-0.018752817 0.032453105 0.18499646
-0.018984221 0.029530209 0.18718675
-0.019427774 0.02626433 0.18872948
-0.020612067 0.021440983 0.18920533
-0.020671986 0.017853269 0.18991055
-0.020407341 0.014332997 0.19119219
-0.019654116 0.010280119 0.19256519
-0.018519262 0.0056641866 0.1951285
-0.01801529 0.00071642082 0.19987787
-0.018215245 -0.0037743554 0.20426817
-0.018757356 -0.0071702963 0.20898722
-0.019681958 -0.0097485445 0.21205667
-0.020745127 -0.012140648 0.2157886
-0.022456476 -0.014519395 0.21852854
-0.023884248 -0.017330267 0.22037308
-0.025623331 -0.019747201 0.22187644
-0.024970924 -0.021716265 0.22149183
-0.024612164 -0.023763958 0.22304329
-0.024570296 -0.025369376 0.22685339
-0.016369743 0.038949363 0.18318476
-0.015537086 0.036137667 0.18470474
-0.015565494 0.033337545 0.18642157
-0.0156554 0.030645924 0.18826175
-0.014950161 0.027559983 0.1901381
-0.014640878 0.023347056 0.19204029
-0.017697169 0.018564824 0.19199616
-0.01753502 0.014926171 0.19350745
-0.016489781 0.010880235 0.19488235
-0.015277277 0.0064549758 0.1983636
-0.015282196 0.0024212848 0.20241626
-0.015337382 -0.0023486463 0.20713146
-0.015666336 -0.0069161518 0.21222506
-0.016156243 -0.010085378 0.21563715
-0.016696224 -0.012827883 0.21892262
-0.018889945 -0.014527356 0.22038545
-0.020781869 -0.016715018 0.22218421
-0.021779466 -0.018809982 0.2229303
-0.021776186 -0.020761173 0.22272395
-0.02137463 -0.023076151 0.22429772
-0.021717703 -0.025647555 0.22856875
-0.01283589 0.036561627 0.18589889
-0.012360905 0.034109585 0.18737316
-0.012068613 0.031529758 0.18908374
-0.011478112 0.028430892 0.19050397
-0.010267315 0.02440705 0.19365601
-0.010544626 0.018820485 0.19602412
-0.012587941 0.014179991 0.19676723
-0.012178553 0.010134849 0.19833755
-0.012389807 0.0071616005 0.20101266
-0.012896924 0.0038418495 0.20393403
-0.012901771 -0.0010624791 0.20933297
-0.012417812 -0.0066961679 0.21474639
-0.012532025 -0.0096071558 0.2180028
-0.012710213 -0.012429567 0.22100168
-0.01342034 -0.014723347 0.2224514
-0.016253551 -0.016083708 0.2221413
-0.017548777 -0.01804585 0.22277316
-0.017970404 -0.020559464 0.22366484
-0.018567322 -0.023109373 0.22615892
-0.018510215 -0.025452036 0.22997512
-0.0098798871 0.034466691 0.18827827
-0.0088489568 0.032142546 0.19013251
-0.0078338487 0.028943716 0.19254947
-0.0068597123 0.024326805 0.19592053
-0.0068603833 0.018754942 0.19878395
-0.0083395429 0.014369547 0.1998786
-0.0090995645 0.010514489 0.20121525
-0.0095969569 0.0077521382 0.20307902
-0.010145306 0.0048922235 0.20523728
-0.010499264 0.00064973423 0.2101935
-0.0089157457 -0.0057648956 0.21650584
-0.0090179062 -0.0087667471 0.21991971
-0.009163144 -0.011573742 0.22244312
-0.0096161077 -0.013788268 0.22401977
-0.011042354 -0.015615584 0.22390668
-0.012758909 -0.017716 0.22512428
-0.013821193 -0.02045957 0.22621332
-0.015264658 -0.024297269 0.23026118
-0.0049103186 0.030976269 0.19421349
-0.0041594682 0.027346039 0.19656597
-0.0038816496 0.022481553 0.19891177
-0.0044667153 0.019600175 0.20022558
-0.0050914264 0.014542127 0.20178719
-0.0058939229 0.011009282 0.20315939
-0.0065139262 0.0083030621 0.20514639
-0.006837782 0.0056020329 0.20807242
-0.0079839164 0.0022361949 0.21107094
-0.0055132881 -0.0045785173 0.21817368
-0.005772837 -0.0078665456 0.22185321
-0.0058531146 -0.010925329 0.22321518
-0.0066013755 -0.013377982 0.22512628
-0.0072921109 -0.015587025 0.22619523
-0.0088701136 -0.018096246 0.22796544
-0.010824948 -0.020881739 0.22871317
-0.012942472 -0.023432171 0.23021303
-0.00076800946 0.025219928 0.19876556
-0.00085056515 0.021683434 0.19996287
7.8349003e-05 0.018385947 0.20117149
-0.0011937598 0.015361222 0.20267688
-0.0022541827 0.011487839 0.20501274
-0.00252151 0.0085481936 0.20768827
-0.0027829439 0.0056633842 0.21039894
-0.0022466546 -0.0029224853 0.21893212
-0.002187242 -0.0070938691 0.22274852
-0.0024028416 -0.010515394 0.22412968
-0.0032023042 -0.013204266 0.22598773
-0.0043243677 -0.015553488 0.22721897
-0.0062117185 -0.017707055 0.22927216
0.0016545723 0.023592956 0.19919965
0.001861745 0.021048402 0.19981304
0.0023819613 0.018202908 0.2008443
0.0022561827 0.0154374 0.20341213
0.001595243 0.012001857 0.20646486
0.0012922602 0.0087630702 0.20897312
0.0010487799 0.0060583251 0.21137293
0.00029537655 0.0031567963 0.2138932
0.0009948581 -0.0011611934 0.21719496
0.00081691716 -0.0056473068 0.22201063
0.00010443125 -0.0098032597 0.22468773
0.0041639269 0.020290015 0.19970886
0.0057116086 0.018223818 0.20115317
0.0053014928 0.015626419 0.20454188
0.0045092045 0.012511156 0.20712776
0.0041441708 0.0095179854 0.20938791
0.0037514423 0.0073785093 0.21142043
0 0 0 1 0 0 0 1 0 0 0 1 0 0 0 0 0 348 1 0 0
