ply
format ascii 1.0
comment PCL generated
element vertex 348
property float x
property float y
property float z
element camera 1
property float view_px
property float view_py
property float view_pz
property float x_axisx
property float x_axisy
property float x_axisz
property float y_axisx
property float y_axisy
property float y_axisz
property float z_axisx
property float z_axisy
property float z_axisz
property float focal
property float scalex
property float scaley
property float centerx
property float centery
property int viewportx
property int viewporty
property float k1
property float k2
end_header
-0.055402685 0.023341592 0.18651526
-0.056328196 0.021113006 0.18873163
-0.05686599 0.017902154 0.19054835
-0.057138186 0.014751808 0.19244774
-0.057260729 0.011745993 0.19437718
-0.057166446 0.0089642601 0.19624519
-0.05675533 0.0063302009 0.19799213
-0.052499246 0.025482114 0.18357915
-0.053272922 0.024246259 0.18443224
-0.053383127 0.021604959 0.18591557
-0.053777806 0.018285843 0.18776537
-0.054075304 0.014564707 0.18978749
-0.054540794 0.011217356 0.1919353
-0.055015121 0.0082105603 0.19467531
-0.054204728 0.0047774231 0.19637629
-0.052102875 0.00081647892 0.19759414
-0.052494757 -0.0020432838 0.19973591
-0.049805004 0.028241901 0.18166842
-0.050261639 0.02652199 0.18240704
-0.050391752 0.024395673 0.18317302
-0.050709136 0.022062244 0.18425454
-0.05090867 0.018501002 0.1862019
-0.050776225 0.013825981 0.18853393
-0.051102173 0.010184217 0.1906182
-0.051028587 0.0068854764 0.19256018
-0.050510753 0.0029827652 0.19454002
-0.049905442 -0.0010669578 0.19731872
-0.05102231 -0.0035636353 0.19970997
-0.052102778 -0.0049105617 0.20249984
-0.052133746 -0.0060613784 0.2046341
-0.052050721 -0.0073040524 0.20512941
-0.047427882 0.029406188 0.18071792
-0.047638014 0.02719043 0.18140297
-0.04792691 0.024884196 0.18232983
-0.048362534 0.022546412 0.18364699
-0.048809424 0.019309001 0.18534642
-0.047916532 0.012373483 0.18764687
-0.048184514 0.0085009784 0.19019432
-0.047991727 0.0047390056 0.19171181
-0.0478562 -0.00046115392 0.19434473
-0.048499964 -0.0038119815 0.19661263
-0.048661027 -0.0057821879 0.19839872
-0.049078975 -0.0064315572 0.20084105
-0.04946024 -0.0065239682 0.20419414
-0.050239202 -0.0080470508 0.20619272
-0.050826985 -0.010448468 0.20844589
-0.050691865 -0.013511331 0.21225099
-0.044286866 0.032806523 0.17929165
-0.044642746 0.030646553 0.18026289
-0.044922113 0.027951188 0.18123001
-0.045366153 0.025478009 0.18218493
-0.045915913 0.022843871 0.18344609
-0.046464786 0.019544272 0.18468724
-0.046121024 0.01316144 0.18612236
-0.046209253 0.0066648289 0.18924436
-0.045895405 0.0019091208 0.19144686
-0.046933182 -0.003688175 0.1942794
-0.048082046 -0.0079315519 0.19565441
-0.0477475 -0.0087081259 0.19732784
-0.046678681 -0.0070632221 0.19944391
-0.046224747 -0.0071294331 0.20389016
-0.046624001 -0.0085940445 0.20694913
-0.047873445 -0.011203787 0.20939294
-0.048844162 -0.014238712 0.21165282
-0.05005151 -0.016330233 0.21496549
-0.041824903 0.034604508 0.17838141
-0.042225912 0.031390451 0.18019685
-0.041938584 0.028893985 0.18116528
-0.042718269 0.026176505 0.182236
-0.043146923 0.023581104 0.18305095
-0.043485764 0.02029462 0.18397988
-0.044025123 0.015108017 0.18500604
-0.044788111 0.0053121238 0.18894847
-0.044694256 -0.00049193378 0.19088003
-0.046174556 -0.0072272914 0.19304192
-0.046133485 -0.010150932 0.19477428
-0.044678692 -0.0094517935 0.19730166
-0.043583002 -0.0075612948 0.19912422
-0.043179002 -0.0078033456 0.20347108
-0.043216962 -0.0095471116 0.20689662
-0.044003297 -0.011958911 0.20968287
-0.04563288 -0.014688401 0.21184118
-0.047726974 -0.016575491 0.2151961
-0.048053145 -0.019360323 0.21882896
-0.047509883 -0.02161498 0.22095042
-0.038146634 0.039008643 0.17628494
-0.038647573 0.036516748 0.17802244
-0.037591472 0.033783648 0.17976356
-0.038690411 0.031144828 0.18077545
-0.039216809 0.028110603 0.18161725
-0.039899047 0.024357794 0.1826707
-0.039872799 0.020999642 0.18325092
-0.041618779 0.015122182 0.18472107
-0.043325931 0.0051687923 0.18780169
-0.042566508 -0.00057964114 0.18886355
-0.044157926 -0.0087723555 0.19148758
-0.042624712 -0.010671116 0.19446237
-0.041143022 -0.0092764432 0.1970755
-0.040776048 -0.0082019353 0.19801752
-0.039971091 -0.0090244832 0.20175011
-0.040483005 -0.011045332 0.20460984
-0.042278249 -0.012720242 0.20708402
-0.043924414 -0.014312432 0.20971414
-0.044237815 -0.016816795 0.2138129
-0.044255838 -0.019698074 0.21758589
-0.045005701 -0.022424316 0.22095403
-0.044229198 -0.024478395 0.222555
-0.035569411 0.040210001 0.17638347
-0.035334587 0.038436413 0.1781729
-0.035191715 0.035105512 0.17976359
-0.03577498 0.032292005 0.18060987
-0.035441685 0.029753195 0.18143575
-0.035197649 0.026043575 0.1827181
-0.035266183 0.02286298 0.18322979
-0.039027654 0.015827559 0.18435721
-0.041745998 0.0067384033 0.18630645
-0.039813638 0.0010427613 0.18655419
-0.040537644 -0.010085592 0.19005661
-0.039231326 -0.011741033 0.19330445
-0.038403209 -0.0098485285 0.1942365
-0.037649635 -0.0089851553 0.19647653
-0.037578266 -0.010298436 0.19975309
-0.037922885 -0.012041309 0.20221987
-0.039798848 -0.013066496 0.20611873
-0.041837744 -0.015082569 0.20925531
-0.041111302 -0.017165419 0.21318851
-0.040788289 -0.019607514 0.21685798
-0.041081026 -0.022320192 0.22017314
-0.041197989 -0.024669701 0.22234575
-0.032480218 0.040931646 0.17695767
-0.032406032 0.039223388 0.17848463
-0.032563541 0.0354372 0.18041983
-0.03271015 0.03213913 0.18123887
-0.032093238 0.029899377 0.18203683
-0.031726517 0.026747912 0.18318388
-0.032227613 0.022785956 0.18397875
-0.033280533 0.01905806 0.18399468
-0.039402228 0.0094548883 0.18459105
-0.03723428 0.0034176756 0.18514903
-0.035411399 -8.216274e-05 0.18533453
-0.035588142 -0.008465454 0.18798731
-0.034933995 -0.0087229852 0.19226737
-0.034471452 -0.0079442123 0.19578515
-0.034167405 -0.0095946966 0.19966653
-0.034625299 -0.011801587 0.20241711
-0.036759309 -0.012969499 0.20687236
-0.038537171 -0.015385949 0.21035597
-0.038268074 -0.017258573 0.21326503
-0.037603851 -0.019342873 0.21692452
-0.038170263 -0.022254689 0.21981411
-0.037755575 -0.024164965 0.22194184
-0.029690428 0.041373167 0.17744574
-0.029443262 0.039593771 0.17885509
-0.029483907 0.035937194 0.1807528
-0.029363012 0.032706339 0.18177561
-0.028809158 0.030313952 0.18269514
-0.028963991 0.02697375 0.18397897
-0.029282482 0.023531644 0.18495433
-0.029176082 0.020802848 0.18515883
-0.033929221 0.014183668 0.18451665
-0.034177661 0.0062526758 0.18566447
-0.030636579 0.003557985 0.18644981
-0.030139973 -0.00013379763 0.18851598
-0.030893344 -0.0046819933 0.19124623
-0.031048076 -0.0061795055 0.1939
-0.03123869 -0.0089493552 0.20089607
-0.031483404 -0.010829299 0.20323169
-0.033627503 -0.012611068 0.20799582
-0.035110436 -0.01532183 0.21151434
-0.034496114 -0.017131355 0.2139461
-0.034073304 -0.018769933 0.21819928
-0.034056548 -0.021008709 0.22044475
-0.034528669 -0.023748441 0.22288033
-0.034243736 -0.02505607 0.22555351
-0.026687117 0.041814189 0.17795436
-0.026458478 0.040114157 0.17904197
-0.025883492 0.037403669 0.1804157
-0.026050197 0.033796124 0.18200524
-0.025882328 0.030869292 0.18348023
-0.02610711 0.027483692 0.1850335
-0.026523726 0.024189536 0.18591827
-0.026935641 0.021150827 0.18615565
-0.02847743 0.016617604 0.186322
-0.030144308 0.0093149655 0.18646924
-0.026429567 0.0055512991 0.19018856
-0.025445638 0.0018862345 0.19202313
-0.0247765 -0.001369348 0.1955353
-0.025488244 -0.0048012831 0.20078601
-0.026959525 -0.0072869817 0.20387284
-0.028855186 -0.0093931165 0.20687422
-0.030138798 -0.012130414 0.21048456
-0.030447003 -0.014667308 0.21420647
-0.030770998 -0.016990069 0.21641485
-0.031140523 -0.018967101 0.2191713
-0.031218311 -0.021216521 0.22143351
-0.031590573 -0.023691485 0.22371984
-0.031470317 -0.024764584 0.22626965
-0.024617642 0.042587474 0.17808771
-0.023294797 0.04091436 0.17955913
-0.022325663 0.038773958 0.18072586
-0.022138039 0.035351735 0.1824957
-0.02255548 0.031522069 0.18469217
-0.022928683 0.028479131 0.1864907
-0.023864724 0.024870574 0.1870946
-0.024687968 0.02135112 0.18771461
-0.024807043 0.017632185 0.18901132
-0.024170717 0.013495671 0.19022875
-0.022909727 0.0081043206 0.19258909
-0.022171104 0.0038699636 0.19528927
-0.022122737 0.00033396794 0.19872786
-0.023029722 -0.0035708281 0.20351605
-0.024090614 -0.0063332734 0.20719069
-0.024999836 -0.0089032538 0.21048442
-0.02599911 -0.011592502 0.21418391
-0.026617525 -0.014400234 0.21749027
-0.027864784 -0.017513687 0.21933867
-0.029075593 -0.019641036 0.22091278
-0.028652834 -0.021480832 0.22188757
-0.028287414 -0.023260491 0.22383629
-0.028176868 -0.024982674 0.22682451
-0.01947164 0.041561227 0.18080896
-0.019482795 0.03873447 0.18234839
-0.018485097 0.035748608 0.18415026
-0.01887406 0.032651331 0.18601702
-0.019287324 0.029757818 0.18817885
-0.019847544 0.026483247 0.18969597
-0.021700231 0.021544497 0.19013594
-0.022052877 0.018184977 0.19092186
-0.02175447 0.014887845 0.19226803
-0.0209508 0.010903025 0.19362849
-0.019799512 0.0063043158 0.19626842
-0.019327478 0.0015105449 0.20142928
-0.019724125 -0.0029835268 0.20610428
-0.020231642 -0.0067574126 0.21091066
-0.021123938 -0.0094389403 0.21404634
-0.022113377 -0.01196853 0.21781199
-0.023613876 -0.01448319 0.22020087
-0.024754327 -0.017308353 0.22184984
-0.026365388 -0.019708337 0.2229095
-0.025614079 -0.021492233 0.22243081
-0.025166474 -0.023503963 0.2236748
-0.025102073 -0.025354384 0.22718409
-0.016353698 0.039234187 0.18394507
-0.01557293 0.0364541 0.18562022
-0.015736457 0.033669613 0.18746914
-0.01592781 0.03099809 0.18936351
-0.015280704 0.02802957 0.19130567
-0.015103687 0.023987586 0.19325987
-0.019011401 0.019062145 0.19296773
-0.018843813 0.015557596 0.19454722
-0.017718285 0.011555392 0.19595119
-0.016398616 0.0071436819 0.19954941
-0.0164694 0.0030732576 0.2038386
-0.01667545 -0.0018763394 0.20879196
-0.016990108 -0.0068190149 0.21405038
-0.017465239 -0.010098332 0.21752787
-0.017913507 -0.012938038 0.22091106
-0.020068703 -0.014563033 0.22206195
-0.021764116 -0.016724549 0.22374116
-0.02268591 -0.018712692 0.22416213
-0.022605758 -0.020566983 0.22373204
-0.022073308 -0.022934547 0.22501658
-0.022348385 -0.025722818 0.22892904
-0.012849557 0.036888517 0.18678392
-0.012496298 0.034459565 0.18836303
-0.012290341 0.031937696 0.19010583
-0.011771518 0.028890168 0.1916171
-0.010622608 0.024963779 0.19474064
-0.011775088 0.019124256 0.19712605
-0.013961321 0.014699962 0.19795425
-0.013327644 0.010810414 0.19954614
-0.013526896 0.0078472607 0.20230851
-0.014023367 0.0045065209 0.20527074
-0.014109114 -0.00070187059 0.21087626
-0.013631856 -0.0067826486 0.2165516
-0.013576158 -0.0097649945 0.21980819
-0.013602484 -0.012562118 0.22268991
-0.01429722 -0.014807524 0.22393177
-0.017265413 -0.016055247 0.22349341
-0.018631859 -0.017938236 0.22386824
-0.019012667 -0.020376185 0.22451901
-0.019433679 -0.023051679 0.2267641
-0.019315336 -0.025585247 0.23040456
-0.010010229 0.03477674 0.18921171
-0.0089722285 0.032461949 0.19104822
-0.0079706442 0.029281164 0.19341941
-0.0072946856 0.024687795 0.19667117
-0.0080690263 0.018945221 0.19953601
-0.0097147329 0.014690975 0.20106883
-0.010261436 0.011171164 0.20266631
-0.010715021 0.0084703919 0.20447108
-0.011277975 0.0055099758 0.20659162
-0.011649537 0.00096434267 0.21157202
-0.0099010253 -0.0058464245 0.21816844
-0.0097690709 -0.0089171436 0.2213981
-0.0098518664 -0.011769855 0.22376338
-0.010314119 -0.013955572 0.22526656
-0.011971719 -0.01565801 0.2251759
-0.01379679 -0.017615573 0.22614479
-0.014905592 -0.020390842 0.22707732
-0.016259721 -0.024449132 0.23079835
-0.0049738111 0.031074805 0.19460149
-0.0045216149 0.027499828 0.19688445
-0.0047445116 0.02262244 0.1992745
-0.0054996931 0.019770889 0.2007222
-0.0063603832 0.015023245 0.20273525
-0.007004282 0.011683861 0.20463845
-0.0075025023 0.0089686234 0.20666359
-0.0078514246 0.0061534126 0.209527
-0.0091304807 0.0025839102 0.21231495
-0.0063099638 -0.0046734605 0.21959874
-0.0063089002 -0.0081198998 0.22301784
-0.0064104232 -0.011192356 0.22432236
-0.0072237495 -0.0136335 0.22618037
-0.0079579698 -0.015777104 0.22729219
-0.0096338745 -0.018182499 0.22901434
-0.01182774 -0.020883311 0.22971822
-0.013975182 -0.023537299 0.23100609
-0.0014937154 0.025314437 0.19878362
-0.0017110604 0.021767113 0.20017104
-0.00088300544 0.018568015 0.20149946
-0.0022758243 0.015760278 0.20324363
-0.0031021168 0.011898372 0.20615561
-0.0031552764 0.0089895837 0.20907129
-0.0032685015 0.0061830278 0.21182741
-0.0027661691 -0.0029630936 0.22010803
-0.0026751175 -0.0074299332 0.22372147
-0.0029514995 -0.010881878 0.22506683
-0.0038263763 -0.013583805 0.22690722
-0.0049713724 -0.015838439 0.22817856
-0.0068000341 -0.017931785 0.23024605
0.00081296661 0.023664592 0.19926429
0.00094195269 0.021168508 0.20001888
0.0014173096 0.018470161 0.20114107
0.0014373236 0.015717618 0.2038466
0.0010296584 0.012161472 0.20715526
0.00085711363 0.0090641743 0.20992295
0.00074708939 0.0064749983 0.2124605
0.00013723712 0.0036921899 0.2151652
0.00068947562 -0.00079776533 0.21855202
0.00038543524 -0.0059287837 0.22280365
-0.00041575968 -0.010251618 0.22553451
0.0032094179 0.020469505 0.19989589
0.0047631124 0.018568052 0.20138142
0.0045213816 0.015776876 0.20478769
0.0039880369 0.012582428 0.20754766
0.0037674606 0.0097328825 0.21003483
0.0035088919 0.0076805074 0.21220818
0 0 0 1 0 0 0 1 0 0 0 1 0 0 0 0 0 348 1 0 0
