ply
format ascii 1.0
comment PCL generated
element vertex 348
property float x
property float y
property float z
element camera 1
property float view_px
property float view_py
property float view_pz
property float x_axisx
property float x_axisy
property float x_axisz
property float y_axisx
property float y_axisy
property float y_axisz
property float z_axisx
property float z_axisy
property float z_axisz
property float focal
property float scalex
property float scaley
property float centerx
property float centery
property int viewportx
property int viewporty
property float k1
property float k2
end_header
-0.055735253 0.023590133 0.18729259
-0.056512672 0.021233445 0.189184
-0.057048917 0.018045519 0.19100198
-0.057330225 0.014916203 0.19289637
-0.057463422 0.011920093 0.19480796
-0.057376035 0.0091435751 0.19663343
-0.056971628 0.0064985771 0.19834596
-0.052712452 0.025553759 0.18399483
-0.053481281 0.024336316 0.18486945
-0.053580426 0.021711785 0.18636701
-0.05395887 0.018415546 0.18823425
-0.054258771 0.014727364 0.19024798
-0.054738726 0.011399223 0.19236258
-0.055231787 0.0083895354 0.1950548
-0.054496031 0.0050068102 0.19692771
-0.052395374 0.0011434534 0.19805495
-0.052824859 -0.0017944416 0.20008251
-0.050021466 0.02825615 0.1820372
-0.050491832 0.02654657 0.18278657
-0.050636061 0.024446951 0.18358633
-0.050958086 0.022151571 0.18470812
-0.05111726 0.018622726 0.18666349
-0.050956927 0.014010585 0.18900727
-0.051287174 0.010381173 0.19104835
-0.051293816 0.0071106292 0.19320412
-0.050763369 0.0032594034 0.19510527
-0.050209261 -0.00074577623 0.19770829
-0.051360719 -0.0033208982 0.20001391
-0.052464962 -0.0047609145 0.20274732
-0.052512132 -0.0059727826 0.20484672
-0.052434538 -0.007191583 0.20533483
-0.047627017 0.029383091 0.18104413
-0.047868952 0.02718392 0.18174472
-0.048183177 0.024900462 0.18270963
-0.048633415 0.02260175 0.18405993
-0.049079273 0.019397974 0.18580784
-0.048095025 0.012591838 0.18811432
-0.04837269 0.0087121781 0.19060996
-0.048216976 0.005012692 0.19237757
-0.048116148 -6.4642525e-05 0.19469669
-0.04882801 -0.0034741755 0.19690843
-0.049013574 -0.0054973513 0.19863297
-0.049449284 -0.0062363036 0.20104824
-0.049862247 -0.0063952436 0.20438278
-0.050624449 -0.0079067461 0.20639804
-0.051178388 -0.010290965 0.20868947
-0.050915759 -0.013266762 0.21250592
-0.044446148 0.032745801 0.17959209
-0.044825066 0.030613188 0.18055877
-0.045153152 0.027924808 0.18153304
-0.045630045 0.025481233 0.18252622
-0.046199042 0.022883642 0.18382736
-0.046769243 0.019617379 0.18512787
-0.046355732 0.013346373 0.18664223
-0.046474822 0.0069409283 0.19002578
-0.046161972 0.0021947625 0.19203396
-0.047232289 -0.0033745531 0.19453605
-0.048435997 -0.0076336158 0.19583845
-0.048101585 -0.0084273219 0.19751413
-0.047048721 -0.0068179639 0.19964679
-0.046633657 -0.006966047 0.20408174
-0.0470367 -0.008455894 0.20711812
-0.04813838 -0.010976498 0.209582
-0.049067166 -0.013991058 0.21190852
-0.050241217 -0.016107183 0.215316
-0.04196851 0.034540486 0.17868812
-0.042393073 0.031343844 0.18047675
-0.042145308 0.028866611 0.1814262
-0.042983107 0.026163517 0.18254247
-0.043431297 0.023606043 0.18340397
-0.043789104 0.020355189 0.18439382
-0.044307042 0.015235619 0.18552266
-0.045118157 0.0056138104 0.18974279
-0.045000818 -0.00021990995 0.19138715
-0.046493378 -0.0069240229 0.19325325
-0.046462227 -0.0098479493 0.19495179
-0.045036461 -0.0091524869 0.19750087
-0.043992452 -0.0072731227 0.19934411
-0.043598652 -0.007595073 0.20366664
-0.043639991 -0.0093598003 0.20706508
-0.044308569 -0.011665312 0.20983201
-0.045880098 -0.014399419 0.21209686
-0.047915224 -0.016362898 0.2155688
-0.04823406 -0.019215222 0.21918295
-0.047691803 -0.021513982 0.22126213
-0.038290795 0.03910229 0.17659256
-0.038800701 0.036524907 0.17835362
-0.037756488 0.033770211 0.18008877
-0.038876105 0.031140625 0.18107694
-0.039442699 0.028134435 0.18193188
-0.040176172 0.024387306 0.18301724
-0.040175684 0.021046389 0.18367621
-0.041905481 0.015255565 0.18523186
-0.043711867 0.0054575377 0.18866606
-0.042932186 -0.00031264473 0.18951835
-0.044451881 -0.0084269643 0.19170928
-0.04292487 -0.010281247 0.19467388
-0.04152292 -0.0088736769 0.1973215
-0.041211486 -0.0078032766 0.19827102
-0.040474772 -0.0086433459 0.20197804
-0.040991019 -0.010700412 0.20478317
-0.042635899 -0.012371822 0.20724897
-0.044273321 -0.01395299 0.20989594
-0.044464823 -0.016563879 0.21418859
-0.044434763 -0.019514449 0.21795711
-0.045190077 -0.022328539 0.22125942
-0.04441325 -0.024427064 0.22281112
-0.035702646 0.040339921 0.17662995
-0.035472255 0.03857122 0.17843825
-0.035366777 0.0351215 0.18005852
-0.035965011 0.032322485 0.18093982
-0.035647664 0.029814344 0.18179849
-0.035426091 0.026120072 0.18312594
-0.035542622 0.02295104 0.18365367
-0.039296482 0.016002022 0.18485427
-0.042192165 0.0069664465 0.18729733
-0.04024497 0.00129821 0.18742494
-0.040750187 -0.0095649203 0.19035698
-0.039454196 -0.011191146 0.19361177
-0.038748268 -0.0092658726 0.19461347
-0.038131911 -0.0083943289 0.19685589
-0.038107794 -0.0097442744 0.2000334
-0.038523853 -0.011512756 0.20244713
-0.040247455 -0.0126634 0.20629878
-0.042253923 -0.01465716 0.20945041
-0.041358337 -0.016854813 0.21353696
-0.040955435 -0.019423643 0.21723463
-0.041269567 -0.022221245 0.22049581
-0.041390054 -0.024624461 0.22260246
-0.032600876 0.041061006 0.17717338
-0.032537408 0.039360132 0.17872758
-0.03274639 0.035473574 0.18071811
-0.032900386 0.032176383 0.18160217
-0.032303534 0.029979479 0.18243624
-0.031973027 0.026848834 0.18360792
-0.032522567 0.022886762 0.18437651
-0.033592861 0.019183891 0.18445086
-0.039943445 0.0095801186 0.18568924
-0.037810989 0.0036300963 0.18626961
-0.036034148 0.0002083165 0.18642363
-0.035852753 -0.0077018673 0.18859816
-0.035311453 -0.007894122 0.19281563
-0.035045475 -0.0071421261 0.19634023
-0.034807302 -0.008852561 0.20012842
-0.035306342 -0.011132411 0.20279732
-0.037249371 -0.012544691 0.20709513
-0.038964938 -0.01494368 0.21059953
-0.038485587 -0.016952654 0.21366382
-0.037749492 -0.019195188 0.21734494
-0.038345378 -0.022183992 0.22013099
-0.037939277 -0.024143873 0.22218713
-0.029810611 0.041486632 0.17766799
-0.029567398 0.039715815 0.17911562
-0.029668028 0.035986248 0.18106474
-0.029561609 0.032771736 0.18214045
-0.029014403 0.030430553 0.18308073
-0.029214144 0.027111458 0.18439418
-0.029572096 0.023651619 0.18534186
-0.029485939 0.020934472 0.18558158
-0.034252364 0.014326177 0.18501927
-0.034586888 0.0063872756 0.18609288
-0.031404924 0.0037599285 0.18758641
-0.030936847 0.00017078423 0.18964648
-0.031526636 -0.0039604632 0.19215299
-0.031689372 -0.0051970184 0.19463344
-0.031939354 -0.0081556076 0.20154628
-0.032242935 -0.010086967 0.20385475
-0.034159932 -0.012201982 0.20828994
-0.035510901 -0.014937047 0.21183878
-0.034663931 -0.016864536 0.21444459
-0.034239471 -0.018650232 0.2187185
-0.034238659 -0.020940552 0.22086735
-0.034724135 -0.023764513 0.22318305
-0.034456674 -0.025144707 0.22582318
-0.026780654 0.041916657 0.17819986
-0.026553992 0.040225413 0.17932472
-0.026003676 0.037508681 0.18075125
-0.026234362 0.033866271 0.18233317
-0.026073946 0.030960409 0.18382412
-0.026337931 0.027599832 0.18541303
-0.026806388 0.024317946 0.18631135
-0.027248263 0.021278476 0.18657188
-0.028829129 0.016748978 0.18677434
-0.030538253 0.0094390241 0.18691738
-0.026853712 0.005742996 0.19064181
-0.026156882 0.0022192285 0.19307721
-0.025473552 -0.00086107757 0.19664355
-0.026149975 -0.0041742134 0.20177145
-0.027706355 -0.0066168266 0.20477864
-0.029434772 -0.0089964923 0.20740806
-0.030746102 -0.011840575 0.21094152
-0.030867843 -0.014507086 0.21479002
-0.031001491 -0.016865058 0.21713832
-0.031372473 -0.018874628 0.21980734
-0.031438269 -0.021164197 0.22196783
-0.031797674 -0.02368127 0.22413246
-0.031682793 -0.024793353 0.22665638
-0.024692837 0.042674195 0.17833689
-0.023350019 0.041004334 0.17984973
-0.022388065 0.038863607 0.18104506
-0.02223702 0.035425883 0.18281962
-0.022682859 0.031584643 0.1849947
-0.023079341 0.028570259 0.18682438
-0.024111962 0.024977881 0.18745674
-0.02500445 0.021456432 0.18810552
-0.025159111 0.017764097 0.18941811
-0.024518222 0.013708903 0.19065362
-0.023268247 0.0083466079 0.19306113
-0.022610784 0.0041766018 0.19586864
-0.022603901 0.00072985026 0.19940528
-0.023534192 -0.0031896145 0.20421854
-0.024639105 -0.0059829457 0.20788103
-0.025588961 -0.0086114248 0.21118505
-0.026557336 -0.011428256 0.21493319
-0.027047662 -0.014362632 0.21830679
-0.028191959 -0.017502183 0.22017066
-0.029346129 -0.019590277 0.22159836
-0.028901456 -0.021416226 0.22250764
-0.028507786 -0.023199223 0.22437312
-0.028400486 -0.024962153 0.2272909
-0.019478779 0.041625585 0.18107721
-0.019502196 0.03882134 0.18264112
-0.018464746 0.035814464 0.18446591
-0.018890893 0.032686938 0.18635511
-0.019351799 0.029809402 0.18851925
-0.019962924 0.026549514 0.19006065
-0.022015166 0.021641491 0.19051285
-0.022418575 0.018354734 0.19132574
-0.022115355 0.015144943 0.19269736
-0.021306703 0.011184406 0.19408518
-0.020208022 0.0066171368 0.19680022
-0.019816943 0.0019021094 0.20212011
-0.020249579 -0.0026572319 0.20683371
-0.020782758 -0.006533897 0.21168248
-0.021671304 -0.0092473384 0.21486242
-0.02260166 -0.011878064 0.21864702
-0.024012877 -0.014477266 0.22102146
-0.025094775 -0.017298114 0.22267389
-0.026665969 -0.019675113 0.22363168
-0.025890606 -0.021424806 0.22311737
-0.025410671 -0.023427118 0.22426407
-0.025325119 -0.02532449 0.22766402
-0.016303813 0.039298244 0.18418387
-0.015526365 0.036519833 0.18589382
-0.015721956 0.033722781 0.18778238
-0.015939057 0.031052927 0.18970381
-0.015299994 0.028118938 0.19169392
-0.015145595 0.024151236 0.19373707
-0.019379128 0.019302059 0.19337961
-0.019223023 0.015855221 0.19499479
-0.018091446 0.011878646 0.19644244
-0.01681993 0.0075284792 0.20014913
-0.016953828 0.0034443347 0.20452999
-0.017159743 -0.0016475536 0.20946534
-0.017509896 -0.0066706152 0.21480925
-0.017958002 -0.0099983281 0.2183139
-0.018306877 -0.012931151 0.22169566
-0.020440573 -0.014585223 0.222858
-0.022107465 -0.016737215 0.22457883
-0.023009982 -0.018692812 0.22492714
-0.022911461 -0.020520749 0.22443351
-0.022334207 -0.022902809 0.22560501
-0.022573482 -0.025726067 0.22938316
-0.012789872 0.036967579 0.18704209
-0.012456906 0.034521472 0.18866383
-0.012272741 0.032004584 0.1904394
-0.011761072 0.028973429 0.19202234
-0.010611304 0.025122626 0.19528429
-0.011992024 0.019336764 0.19772193
-0.01433518 0.01499241 0.19846983
-0.013703857 0.01115398 0.20011966
-0.013932894 0.0082191965 0.20292696
-0.014454365 0.0048716371 0.20590797
-0.014538517 -0.00052862236 0.2114941
-0.014108975 -0.0067017223 0.21725874
-0.01395955 -0.009733621 0.22046047
-0.013899332 -0.012557403 0.22328863
-0.014575394 -0.014809374 0.22452381
-0.017592141 -0.016055835 0.22418706
-0.018974395 -0.017936654 0.22455865
-0.019339507 -0.020356266 0.22513804
-0.019699717 -0.023057284 0.22728871
-0.019537589 -0.025631011 0.23084924
-0.0099668177 0.03483301 0.18950477
-0.0089219548 0.032510914 0.19138525
-0.0079013305 0.029355634 0.19384989
-0.0072863554 0.024853945 0.19724096
-0.0082441326 0.019140868 0.20015652
-0.010005632 0.014904855 0.20167112
-0.010577549 0.011479586 0.20329246
-0.011059293 0.0087951906 0.20507233
-0.011651135 0.0058170492 0.20718756
-0.012047327 0.0011390778 0.21212694
-0.010296526 -0.0057964935 0.21871671
-0.010052117 -0.0089021409 0.2218316
-0.010093134 -0.011787678 0.22414979
-0.010533543 -0.013990647 0.22565675
-0.012247387 -0.015674727 0.22564578
-0.014076997 -0.017628102 0.22664048
-0.015190026 -0.020431954 0.22757037
-0.016480623 -0.024537355 0.23121193
-0.0048782309 0.031128589 0.19495705
-0.0044871289 0.027617533 0.19733621
-0.0048317187 0.022823857 0.19987251
-0.0056433012 0.019981511 0.20134388
-0.0066272658 0.015247942 0.20335571
-0.0072776955 0.011936797 0.20528206
-0.0077679339 0.0092029069 0.20725277
-0.0081456127 0.006352345 0.21007966
-0.0094937356 0.0027540014 0.21280757
-0.0066221482 -0.0046556774 0.21996401
-0.0065090349 -0.008155915 0.22326657
-0.0066086589 -0.011248928 0.22455443
-0.0074069309 -0.013708839 0.22642745
-0.0081352144 -0.015855147 0.2275693
-0.0097984187 -0.01825837 0.22933146
-0.012037351 -0.020957917 0.23011616
-0.014184336 -0.023634693 0.23141187
-0.0015314381 0.025465576 0.19923766
-0.0017935919 0.02196355 0.20074387
-0.00099646836 0.01880517 0.20211317
-0.0024551393 0.016009443 0.20385695
-0.0032679236 0.012042499 0.20672803
-0.0032799237 0.0091020195 0.20963548
-0.0033813159 0.0062917401 0.21236819
-0.0029751679 -0.0029822385 0.22033626
-0.0028505684 -0.0075140386 0.22383951
-0.0031441699 -0.010998566 0.22517441
-0.003995263 -0.013708788 0.227025
-0.0051325946 -0.015961502 0.22833809
-0.0069002486 -0.018050274 0.23043756
0.00075161771 0.023829533 0.19975477
0.00085692009 0.021366796 0.20057687
0.001308419 0.018705623 0.20171571
0.0013544495 0.015883761 0.2043535
0.00096781738 0.012230458 0.20762779
0.00079144479 0.0091370437 0.21042408
0.00068607862 0.0065464252 0.21295927
8.5765641e-05 0.0037608407 0.21566053
0.00057265646 -0.00080436782 0.21890853
0.00021382932 -0.0060265786 0.22283585
-0.00058416079 -0.0104001 0.22555844
0.0031155427 0.020663854 0.2004323
0.0046680109 0.018750032 0.20187001
0.0044583273 0.015837947 0.20519033
0.0039399229 0.01261058 0.20795745
0.003721273 0.0097753713 0.21047743
0.0034674068 0.0077246209 0.21267323
0 0 0 1 0 0 0 1 0 0 0 1 0 0 0 0 0 348 1 0 0
