ply
format ascii 1.0
comment PCL generated
element vertex 348
property float x
property float y
property float z
element camera 1
property float view_px
property float view_py
property float view_pz
property float x_axisx
property float x_axisy
property float x_axisz
property float y_axisx
property float y_axisy
property float y_axisz
property float z_axisx
property float z_axisy
property float z_axisz
property float focal
property float scalex
property float scaley
property float centerx
property float centery
property int viewportx
property int viewporty
property float k1
property float k2
end_header
-0.056814469 0.023782047 0.18863018
-0.057268776 0.021264339 0.19007728
-0.057701591 0.018148694 0.19180356
-0.057977658 0.015163466 0.19359013
-0.058162548 0.012315344 0.19539946
-0.058163043 0.0096576875 0.19708909
-0.057834275 0.0070168101 0.19867805
-0.05356551 0.02549676 0.1846852
-0.054409523 0.02439444 0.18565191
-0.054416914 0.021772005 0.18713745
-0.05469685 0.018538684 0.18897174
-0.05496937 0.015036767 0.19087271
-0.055496164 0.01185665 0.19283706
-0.056092676 0.0089391721 0.1953724
-0.056080636 0.0057286746 0.19730683
-0.054837059 0.0017260798 0.19789924
-0.054818224 -0.0010756582 0.20013475
-0.050758157 0.027908649 0.18236113
-0.051266659 0.026271606 0.18322119
-0.05141063 0.024293005 0.18412019
-0.051740032 0.022146393 0.18536408
-0.051847897 0.018729663 0.1872454
-0.051708084 0.01446819 0.18946673
-0.05210593 0.011008067 0.19130777
-0.052611329 0.0078802453 0.19372606
-0.053031214 0.0038088895 0.19498493
-0.052770086 -9.9233621e-05 0.19731963
-0.053264696 -0.0025076929 0.19999529
-0.053988218 -0.0038605169 0.20289662
-0.053789679 -0.0049448288 0.20508954
-0.053529713 -0.0055776364 0.2062373
-0.048301674 0.028948158 0.18127413
-0.048633941 0.026848536 0.18199353
-0.048968416 0.024673197 0.18305461
-0.04936187 0.022455348 0.18446346
-0.049656078 0.019260962 0.18633839
-0.048906684 0.01324315 0.18831667
-0.049290206 0.0094756307 0.19057922
-0.049935542 0.0059845396 0.19230802
-0.051611513 0.00043921446 0.19381951
-0.051394936 -0.0027900778 0.1964325
-0.051014006 -0.0046357242 0.19842398
-0.051036324 -0.0052361563 0.20099486
-0.051169775 -0.0051142969 0.2044469
-0.051564049 -0.0057832329 0.20739771
-0.051753514 -0.0073381672 0.21059684
-0.050855402 -0.0099150324 0.21449868
-0.045097388 0.03221269 0.1799029
-0.045482311 0.030144412 0.18071941
-0.045935433 0.027558893 0.18164489
-0.046449553 0.025262682 0.18269105
-0.046957508 0.02272276 0.18403336
-0.047383886 0.019492175 0.18541716
-0.047006175 0.013893383 0.1869356
-0.047836501 0.0082227699 0.18997523
-0.048869316 0.0035366286 0.19109198
-0.050657872 -0.0027674879 0.19353832
-0.050649311 -0.0069107176 0.19534574
-0.049999058 -0.0075769499 0.19704938
-0.048757158 -0.0057579479 0.19933875
-0.047945805 -0.0054202778 0.20404591
-0.048020583 -0.006217049 0.20751823
-0.048443928 -0.0083362302 0.21077271
-0.049133465 -0.010880219 0.21385941
-0.050092287 -0.01333937 0.21775797
-0.042605508 0.034123313 0.17920686
-0.0430503 0.030928167 0.18073983
-0.042884186 0.028494108 0.18150952
-0.04383133 0.025928566 0.18254183
-0.044219267 0.023471616 0.18342409
-0.04447775 0.020321961 0.18443297
-0.044843998 0.015659345 0.18565418
-0.046776567 0.0074122059 0.18916975
-0.048581224 0.001152923 0.18984626
-0.049254645 -0.0060722702 0.1924053
-0.048439924 -0.0088190949 0.19427879
-0.046925575 -0.0079993811 0.19676772
-0.045814805 -0.0059582852 0.19874389
-0.044956777 -0.0058805845 0.20351115
-0.044638898 -0.0069678617 0.207366
-0.044571128 -0.008729835 0.21073297
-0.045901176 -0.011247459 0.21362858
-0.047907706 -0.014242242 0.21773873
-0.048267715 -0.017749202 0.22082807
-0.047820941 -0.020449538 0.22246693
-0.038962241 0.03929574 0.17731568
-0.039472677 0.036419164 0.17910919
-0.038338978 0.033491109 0.18063828
-0.039486784 0.030868143 0.18147384
-0.040071461 0.028009512 0.18214601
-0.040911306 0.024358831 0.18296462
-0.040929895 0.021055371 0.18356402
-0.042502716 0.015868435 0.18517409
-0.045544215 0.0073217331 0.18781416
-0.046638437 0.0018429459 0.18730223
-0.046978924 -0.0072637061 0.19077766
-0.044877838 -0.0089479554 0.19384794
-0.043421559 -0.0074403235 0.19660866
-0.043072402 -0.0063164807 0.19770588
-0.042196784 -0.0067796176 0.20173509
-0.04253187 -0.0083682556 0.20520106
-0.043445509 -0.009646792 0.2082271
-0.04480619 -0.010734668 0.21127348
-0.044762574 -0.014617824 0.21594572
-0.04467117 -0.018198946 0.21931165
-0.045443866 -0.021522539 0.22214535
-0.044718754 -0.023880104 0.22333121
-0.036325168 0.040694125 0.17701286
-0.035981338 0.038922325 0.17881718
-0.035938762 0.034839381 0.18040755
-0.036588024 0.032186288 0.18144868
-0.036214206 0.029832093 0.18233249
-0.035932381 0.026211875 0.18357724
-0.036168694 0.023131404 0.18388082
-0.039914012 0.016714852 0.1848186
-0.043757465 0.0087363226 0.18647508
-0.043613251 0.0035193374 0.18479146
-0.042889621 -0.0083949072 0.18950479
-0.041370932 -0.0097980965 0.192911
-0.040782232 -0.0078128232 0.19385983
-0.040071849 -0.006716738 0.19640626
-0.040061522 -0.0078015397 0.20001231
-0.040740825 -0.0092399502 0.20269021
-0.041683178 -0.010204237 0.20690943
-0.043198269 -0.011590457 0.21064705
-0.041885514 -0.015160044 0.21464373
-0.041276023 -0.018584311 0.21800433
-0.041606046 -0.021678871 0.22102246
-0.04170068 -0.024267484 0.22285749
-0.033162743 0.041471206 0.17734726
-0.033020362 0.039770983 0.17896552
-0.033365894 0.035276216 0.18112783
-0.033554818 0.032077946 0.18237516
-0.032965086 0.030119164 0.18332101
-0.032647688 0.027149655 0.18431561
-0.033286612 0.023099756 0.18455289
-0.034263473 0.019533882 0.18443003
-0.04105879 0.011276514 0.18524125
-0.039998639 0.0052322964 0.184222
-0.03865419 0.0015404198 0.18388772
-0.038017087 -0.0066518472 0.18751104
-0.037389074 -0.0064761764 0.19209577
-0.03702414 -0.005498935 0.19593605
-0.036840439 -0.0070279925 0.20015928
-0.037616879 -0.0091492319 0.2031803
-0.038798425 -0.01071372 0.20722996
-0.040113032 -0.012834474 0.21122795
-0.039067436 -0.01591436 0.21429357
-0.037968092 -0.019019235 0.21781762
-0.038598962 -0.022087811 0.22038195
-0.038192492 -0.024046829 0.22223182
-0.030315412 0.041838512 0.17785469
-0.03002697 0.040068228 0.1794555
-0.030293407 0.035892796 0.18165393
-0.030327374 0.032806244 0.18308316
-0.029764529 0.030683987 0.18409333
-0.03005222 0.027511019 0.18524522
-0.030386409 0.024012145 0.18559915
-0.030224223 0.021334851 0.18569416
-0.034785118 0.015039684 0.18460932
-0.035760634 0.0072104842 0.18435699
-0.032709796 0.0046568182 0.18646178
-0.032448962 0.0010859399 0.18875746
-0.03336722 -0.0026652981 0.1914058
-0.033730216 -0.0036751244 0.19404988
-0.033848453 -0.0068957801 0.20192404
-0.034398455 -0.0087819286 0.20439
-0.035765909 -0.011277125 0.20805693
-0.036671802 -0.013992305 0.21179955
-0.035038166 -0.016482098 0.21493615
-0.034416184 -0.018678589 0.21919459
-0.034403544 -0.021037547 0.22107835
-0.0349291 -0.0238984 0.22322437
-0.034602411 -0.025260957 0.22580655
-0.027173162 0.04217606 0.17851476
-0.026891541 0.040476508 0.17981888
-0.026390839 0.037639994 0.18151517
-0.026972514 0.03394622 0.18314356
-0.026817666 0.031158632 0.18462546
-0.027136657 0.027902776 0.18618983
-0.027678622 0.024738114 0.18676445
-0.028056551 0.02170375 0.1867635
-0.02943203 0.017100025 0.18655659
-0.031188779 0.010038973 0.18580432
-0.027364438 0.0061198231 0.1896829
-0.027033109 0.0030491329 0.19339491
-0.026441932 0.00026492283 0.19767809
-0.027357733 -0.0032366519 0.20303671
-0.029292399 -0.0059352145 0.20587225
-0.030806314 -0.0087794187 0.20764221
-0.032379288 -0.011813275 0.2109886
-0.031930577 -0.014607523 0.21534951
-0.031478442 -0.016964978 0.21801914
-0.031718247 -0.019101812 0.22047982
-0.031706229 -0.021384634 0.22231928
-0.031973932 -0.023762198 0.22429208
-0.031755388 -0.024701485 0.22675376
-0.024992475 0.042826455 0.17866947
-0.023509353 0.041072439 0.18034138
-0.022519458 0.038861983 0.18165384
-0.022636194 0.035455834 0.18346871
-0.023217849 0.031794835 0.18558183
-0.023626003 0.028835602 0.18745312
-0.024920519 0.025334595 0.18790779
-0.025869543 0.021805765 0.18825112
-0.02580139 0.018141668 0.18923196
-0.024765344 0.01443123 0.19027534
-0.023404157 0.0089851413 0.19269802
-0.023036212 0.0048287935 0.19579993
-0.023271952 0.0014566028 0.1997014
-0.024342159 -0.002734194 0.20489833
-0.025686324 -0.0057356525 0.20864339
-0.026821455 -0.0087056188 0.21197589
-0.027764169 -0.011916489 0.21589066
-0.028042069 -0.014966971 0.21949109
-0.028866341 -0.018039512 0.22121915
-0.029769169 -0.019896487 0.22217177
-0.029231627 -0.02159957 0.22291061
-0.028711118 -0.023164771 0.22463652
-0.028577572 -0.024788942 0.22744437
-0.019412996 0.041569944 0.18162182
-0.019476878 0.038859803 0.18326208
-0.018359046 0.035973761 0.18518382
-0.018951086 0.032841485 0.18700291
-0.019551443 0.029959492 0.18904281
-0.020322792 0.02673788 0.19056693
-0.022953155 0.021991093 0.1907068
-0.02312441 0.018905343 0.19127624
-0.022609742 0.016019609 0.19255117
-0.021683957 0.012089894 0.19391868
-0.020717386 0.0074473121 0.19681975
-0.020538561 0.0025829223 0.20262255
-0.021128889 -0.0023043244 0.20770794
-0.021979976 -0.0064200987 0.21319073
-0.022894183 -0.0093754651 0.2163917
-0.023680488 -0.012393702 0.21998559
-0.024843177 -0.015209655 0.22195186
-0.025691543 -0.017890263 0.22342971
-0.027046766 -0.0200043 0.22411492
-0.02630485 -0.02164006 0.22351672
-0.025741084 -0.023401618 0.22458555
-0.025621962 -0.025078522 0.22781822
-0.016038578 0.039360091 0.18477274
-0.015209261 0.03657943 0.18643971
-0.015467706 0.033726241 0.18822558
-0.015720382 0.031047137 0.19007553
-0.015000483 0.028150195 0.19208997
-0.014835326 0.024413986 0.19437821
-0.020130567 0.020112498 0.1935107
-0.019908054 0.016825741 0.19511436
-0.018682992 0.012921547 0.1966403
-0.017580193 0.0086932229 0.20080519
-0.017649047 0.0041394932 0.2052118
-0.017970635 -0.001479952 0.21034411
-0.018730104 -0.0066306465 0.21650752
-0.019139575 -0.010142014 0.2198371
-0.019231971 -0.013346387 0.222986
-0.021210531 -0.015337146 0.2237563
-0.022662548 -0.017395776 0.22527061
-0.02353511 -0.019096131 0.22535411
-0.023429805 -0.020744758 0.22473504
-0.022795638 -0.02289068 0.22577387
-0.023000596 -0.025511563 0.22942823
-0.012336255 0.037025053 0.18751425
-0.011981118 0.034435641 0.1889814
-0.011795204 0.031869046 0.1906686
-0.011207795 0.028833644 0.19240151
-0.0099061998 0.025075477 0.19621976
-0.011910399 0.019834645 0.19884023
-0.01512131 0.016044214 0.19917659
-0.014597653 0.012426335 0.20113143
-0.014864037 0.0093998471 0.20393907
-0.015210247 0.0057548969 0.20669813
-0.015238409 -0.00045574369 0.21230012
-0.015235602 -0.0068258848 0.21869388
-0.014827247 -0.0099588688 0.22152521
-0.014570195 -0.012832916 0.22418469
-0.015276451 -0.015166568 0.22535525
-0.018411942 -0.0165476 0.22502039
-0.019780643 -0.018402316 0.22512214
-0.020149697 -0.02061622 0.2255121
-0.020334762 -0.023106819 0.22747877
-0.020095881 -0.02553292 0.23093256
-0.0094096838 0.034663238 0.18973285
-0.0081975367 0.032179784 0.19155455
-0.0070039877 0.028950118 0.19438487
-0.006488035 0.024768379 0.19827203
-0.0079655666 0.019641481 0.20163903
-0.010512817 0.015760185 0.20315018
-0.011415729 0.012703092 0.20490023
-0.011938618 0.0099622114 0.20644468
-0.012449574 0.0067168153 0.20824493
-0.012767847 0.0013370283 0.21274367
-0.011190642 -0.0060071419 0.21961294
-0.010645835 -0.0091368528 0.22236164
-0.010623625 -0.012087383 0.22459069
-0.011060115 -0.014366287 0.22609441
-0.012938359 -0.016043287 0.22624965
-0.014926988 -0.018029807 0.22714649
-0.01620893 -0.02090162 0.2280845
-0.017326811 -0.024731103 0.23139702
-0.0037835434 0.030630579 0.19518225
-0.0034878361 0.027338145 0.19792451
-0.0042090835 0.023116309 0.2009887
-0.0053218184 0.020523299 0.2027569
-0.007011699 0.016051775 0.20506009
-0.0079523083 0.012924786 0.20708516
-0.0084285326 0.010005658 0.20875078
-0.008803172 0.0068247444 0.21125333
-0.010240595 0.0029908947 0.21335125
-0.007269633 -0.0049516433 0.22029896
-0.006859594 -0.0085152918 0.22336882
-0.0070358245 -0.011668351 0.22468214
-0.0078287832 -0.014191639 0.22658587
-0.0085896021 -0.016352622 0.2278319
-0.010324829 -0.018743303 0.22959565
-0.012872334 -0.021466311 0.2305079
-0.015079388 -0.024021365 0.23169936
-0.00065419573 0.025474373 0.19977123
-0.0011867344 0.022241333 0.20186685
-0.00066058245 0.019332225 0.20363468
-0.0024894327 0.016740661 0.20558698
-0.0035105071 0.012427894 0.20814408
-0.0034392767 0.0091818301 0.21079533
-0.0035315563 0.0062647802 0.21328191
-0.0033365486 -0.0033584472 0.22035368
-0.0031672528 -0.0080410363 0.22366102
-0.0035767746 -0.011656832 0.22506841
-0.0043805116 -0.014343183 0.22693735
-0.0055288915 -0.016571254 0.22837023
-0.0071893455 -0.018634537 0.23047572
0.0015023608 0.023843428 0.20045415
0.0013988032 0.021538867 0.20168465
0.0015743792 0.01907507 0.20312688
0.0015402091 0.01618935 0.20573302
0.0010974082 0.012178623 0.20874348
0.00080982258 0.0089483587 0.21143726
0.00069628807 0.0062924502 0.21379933
7.1534749e-05 0.00344229 0.21637675
0.00038797336 -0.0012547757 0.21933147
-0.00010387964 -0.0065861321 0.22252128
-0.00092229311 -0.011119374 0.22524574
0.0035465679 0.02070584 0.20152393
0.0049269064 0.018786119 0.20297429
0.0046944162 0.015717307 0.20624176
0.0041062641 0.01236844 0.20895526
0.0038253514 0.0094554955 0.21138011
0.0035573761 0.0073371138 0.21354184
0 0 0 1 0 0 0 1 0 0 0 1 0 0 0 0 0 348 1 0 0
