ply
format ascii 1.0
comment PCL generated
element vertex 348
property float x
property float y
property float z
element camera 1
property float view_px
property float view_py
property float view_pz
property float x_axisx
property float x_axisy
property float x_axisz
property float y_axisx
property float y_axisy
property float y_axisz
property float z_axisx
property float z_axisy
property float z_axisz
property float focal
property float scalex
property float scaley
property float centerx
property float centery
property int viewportx
property int viewporty
property float k1
property float k2
end_header
-0.056861065 0.02352293 0.18822272
-0.057264574 0.021115577 0.19018582
-0.057632104 0.017985953 0.19178511
-0.057899259 0.015026856 0.19340873
-0.058112048 0.012237755 0.19508651
-0.058163241 0.0096586049 0.19669865
-0.05787443 0.0070756921 0.19826546
-0.053737409 0.025392096 0.18465148
-0.054652117 0.024360636 0.18566379
-0.054545358 0.021701157 0.18709008
-0.054767363 0.018420665 0.18887191
-0.054991078 0.014974901 0.19060396
-0.055538092 0.011816701 0.19244279
-0.056145966 0.0089606838 0.19488816
-0.056095362 0.0056669042 0.19656476
-0.055168293 0.0017133654 0.19708778
-0.054992117 -0.00093545165 0.19954322
-0.05083238 0.027614731 0.18197425
-0.051355209 0.026029317 0.1829585
-0.051500864 0.024107372 0.18393515
-0.051794417 0.022022523 0.18523468
-0.051897552 0.018670622 0.18700457
-0.051829711 0.014484912 0.18895383
-0.052297156 0.011062331 0.19060899
-0.052646481 0.0077897334 0.19277005
-0.053320955 0.0037039779 0.19396393
-0.053045224 -2.525428e-05 0.1965694
-0.053356629 -0.0022792048 0.19948615
-0.053966355 -0.0034692045 0.20253737
-0.053661615 -0.0043733134 0.20486197
-0.053358115 -0.0047050468 0.20625767
-0.048347589 0.028590558 0.18080157
-0.048721217 0.02656346 0.18158551
-0.049040686 0.024465738 0.1827374
-0.049370043 0.022270704 0.1842009
-0.049473334 0.019096009 0.186068
-0.049164597 0.013309788 0.18739699
-0.049637731 0.0095754946 0.18946368
-0.050189164 0.0059180069 0.1909648
-0.052068003 0.00035490314 0.19291504
-0.051552411 -0.002679182 0.19582368
-0.051009137 -0.0043645236 0.1979991
-0.050969329 -0.0047598975 0.20071694
-0.051036529 -0.0042985822 0.20432355
-0.051347055 -0.0045855013 0.20755877
-0.05148413 -0.0060011037 0.21084547
-0.050951291 -0.0087974062 0.21481797
-0.045094866 0.03176333 0.17939568
-0.045499578 0.029741127 0.18014337
-0.046031214 0.027240645 0.18111449
-0.046519507 0.025046993 0.18223944
-0.046967786 0.022568505 0.18360277
-0.047203459 0.019352226 0.18500003
-0.047049627 0.013955907 0.18602154
-0.047974523 0.0083249221 0.18843399
-0.049368892 0.0035164519 0.18960313
-0.051004898 -0.0027896434 0.19281338
-0.050709125 -0.0067499694 0.19497505
-0.04998672 -0.0072419778 0.19676164
-0.0487279 -0.0052176113 0.19903399
-0.047814101 -0.0043539945 0.20395364
-0.047748275 -0.0048411405 0.20760915
-0.048541948 -0.0072847316 0.2109219
-0.049231801 -0.0098251151 0.21421923
-0.050070938 -0.012875406 0.21804319
-0.042620804 0.03367332 0.17879361
-0.043058831 0.030493021 0.18017122
-0.042947296 0.028132254 0.18090954
-0.043950722 0.025701281 0.18194771
-0.044276912 0.023327027 0.18281406
-0.044386234 0.020243447 0.18375701
-0.044714857 0.015728611 0.18474427
-0.047001835 0.0077305259 0.18736412
-0.049250871 0.0011494796 0.18841711
-0.04947608 -0.0060508973 0.19189657
-0.048475955 -0.0085989814 0.19400302
-0.04693044 -0.0075149206 0.19639494
-0.045847863 -0.0052298908 0.19832294
-0.04483071 -0.0046338434 0.20339718
-0.044314325 -0.0054288628 0.20741114
-0.044394005 -0.0073647345 0.21090196
-0.045901023 -0.010306265 0.21406728
-0.047866177 -0.014073364 0.21790698
-0.048043247 -0.017923854 0.22060324
-0.047487341 -0.020755416 0.22199829
-0.039140146 0.039161228 0.17726988
-0.039503235 0.036045704 0.17886819
-0.038250644 0.033045158 0.18017149
-0.039385285 0.030456219 0.18089899
-0.039960906 0.027754299 0.18153462
-0.040920783 0.024272727 0.18221752
-0.040945254 0.02102063 0.18261252
-0.042482343 0.016028395 0.18400857
-0.045844775 0.0077457204 0.18576822
-0.047585461 0.0022468816 0.18522701
-0.047213811 -0.0072515183 0.19029032
-0.0449447 -0.0086112525 0.19346228
-0.043460388 -0.0067623868 0.19613023
-0.043143492 -0.0054502515 0.19726814
-0.042172018 -0.0053307153 0.20153971
-0.042257454 -0.0065770587 0.20529237
-0.04332304 -0.0081768269 0.2083853
-0.044758521 -0.0095249265 0.21174638
-0.044741027 -0.014277524 0.21588282
-0.044570174 -0.018321067 0.21895531
-0.045118134 -0.021822853 0.22150597
-0.044375513 -0.024219794 0.22250813
-0.036612872 0.040745515 0.1769039
-0.036150083 0.038915422 0.17864777
-0.035899185 0.034455638 0.18004684
-0.036458995 0.031803221 0.18094584
-0.036014374 0.029497541 0.18180038
-0.035787728 0.025935275 0.1830091
-0.036130521 0.022923863 0.18306369
-0.039912295 0.016855486 0.18353553
-0.044021159 0.0092280703 0.18428795
-0.044709109 0.0042259796 0.18203977
-0.04312681 -0.0084636156 0.18883601
-0.041457053 -0.0094363755 0.19231655
-0.040930193 -0.007342285 0.19296269
-0.040255539 -0.0058015212 0.19567783
-0.040167477 -0.0063325851 0.19978769
-0.04072585 -0.0073656626 0.20268257
-0.041758429 -0.0086990921 0.20700642
-0.043101434 -0.010276335 0.21081163
-0.041827455 -0.014856431 0.21426679
-0.041101933 -0.018779607 0.21733396
-0.041311037 -0.021956474 0.22018817
-0.041310009 -0.024603039 0.22184473
-0.033470336 0.041641716 0.17716128
-0.033213649 0.039897803 0.17876443
-0.033387188 0.034925852 0.18083571
-0.033441823 0.031694319 0.18197332
-0.032803796 0.029777342 0.18286531
-0.032545093 0.026909577 0.18374656
-0.033325206 0.022843165 0.18358995
-0.034195829 0.019405158 0.18304776
-0.041049652 0.011845297 0.18297446
-0.040621586 0.0058244006 0.18092278
-0.039459705 0.0019517083 0.18029729
-0.038451523 -0.0067660934 0.18599513
-0.037714038 -0.0061819563 0.19085839
-0.037270594 -0.0048732748 0.19473533
-0.036974244 -0.0058916649 0.19942316
-0.037712477 -0.0076329941 0.20280881
-0.03897351 -0.0095675485 0.20694214
-0.040155124 -0.012057933 0.21080808
-0.039034512 -0.015990714 0.21362776
-0.037682686 -0.019516045 0.21693227
-0.038213488 -0.022542331 0.21945348
-0.037745591 -0.024329897 0.22126621
-0.030587345 0.042050734 0.17772268
-0.03020327 0.040222894 0.17935653
-0.030378433 0.035640981 0.1814971
-0.030390063 0.032455601 0.18281884
-0.029827589 0.030380102 0.18374223
-0.030092467 0.027200187 0.18464774
-0.030404711 0.023726972 0.18458681
-0.030132702 0.021066356 0.18429701
-0.034732744 0.015151316 0.18255238
-0.036130276 0.007482273 0.1810711
-0.032503836 0.0048087756 0.18257178
-0.032317601 0.0013108391 0.18526401
-0.03357162 -0.0024253256 0.18901224
-0.034000099 -0.0033854488 0.19229591
-0.033897754 -0.0063521629 0.20084524
-0.034471679 -0.008362744 0.20326701
-0.036044814 -0.010973456 0.20720419
-0.036867414 -0.013958568 0.21084417
-0.034912959 -0.016931111 0.21395156
-0.034029495 -0.019279653 0.21804048
-0.03392956 -0.02151061 0.21993437
-0.034438748 -0.024087973 0.22230081
-0.034001298 -0.025104938 0.2249846
-0.027406266 0.042386491 0.17850612
-0.027060963 0.040619168 0.17988274
-0.026526602 0.037595518 0.18161982
-0.027228002 0.033747416 0.18300463
-0.026986135 0.030901391 0.18434295
-0.027212691 0.027534932 0.18562637
-0.027686702 0.024395246 0.18578465
-0.027950188 0.02139193 0.1853825
-0.029190136 0.016800268 0.18454362
-0.031005403 0.010030355 0.18271051
-0.026967527 0.0060610184 0.18702783
-0.026287287 0.0030784695 0.19014139
-0.025783801 0.00014495441 0.19483605
-0.026761146 -0.0041858326 0.20097335
-0.02886028 -0.0070480062 0.20400916
-0.030969273 -0.0093378443 0.20667578
-0.032689434 -0.012454132 0.20989615
-0.03203126 -0.015243364 0.21421146
-0.031222116 -0.017568665 0.21677603
-0.031320464 -0.019719698 0.21924183
-0.031260505 -0.021805717 0.22110206
-0.031434927 -0.023871804 0.2232559
-0.031130396 -0.02452359 0.22570251
-0.02520393 0.043019474 0.17873864
-0.02359852 0.041118998 0.18050128
-0.022580655 0.038816229 0.18178532
-0.022823226 0.035335995 0.18348691
-0.023355346 0.031601418 0.18532546
-0.023666913 0.028514629 0.1869221
-0.024939984 0.0249376 0.18700382
-0.025828892 0.021340085 0.1868109
-0.025580775 0.017786032 0.18727855
-0.02421364 0.014429961 0.18796635
-0.022526383 0.0089909751 0.19023137
-0.022447307 0.0047043534 0.19361843
-0.022911442 0.0012561029 0.19789812
-0.024153838 -0.0033950061 0.20373361
-0.025700623 -0.0066206711 0.20765264
-0.026898844 -0.0097481767 0.21087989
-0.027742036 -0.012996414 0.21465251
-0.027832337 -0.015797101 0.21811154
-0.028545164 -0.018660236 0.21979482
-0.029395293 -0.020392133 0.22076623
-0.028797448 -0.021958882 0.22159
-0.028260432 -0.023302149 0.22342308
-0.028038748 -0.0246701 0.22622624
-0.019372607 0.041462954 0.18187861
-0.019405123 0.038734965 0.18340187
-0.018171169 0.035882629 0.18521814
-0.018813167 0.032752067 0.18674882
-0.019451359 0.02974174 0.18847595
-0.020199487 0.026401669 0.18970218
-0.022974938 0.021478742 0.18916403
-0.022917492 0.018742733 0.18934253
-0.02214901 0.016095018 0.19033647
-0.020914972 0.012255164 0.19146353
-0.019928442 0.0073635918 0.19447085
-0.020000225 0.0021694107 0.20083706
-0.02085151 -0.0030033735 0.20650408
-0.021982839 -0.0073498846 0.21230683
-0.02288161 -0.010372773 0.21531922
-0.023563128 -0.013279678 0.21873535
-0.02461135 -0.01589305 0.22041583
-0.025385628 -0.01837603 0.22180563
-0.026563214 -0.020332552 0.2225624
-0.025915949 -0.021981101 0.22207785
-0.025338281 -0.023585958 0.22334653
-0.025187628 -0.024975002 0.22662772
-0.015760215 0.039079942 0.18495592
-0.014854791 0.036310494 0.18647255
-0.015108232 0.03353611 0.18804018
-0.015344213 0.030884217 0.18965942
-0.014537699 0.027990999 0.19151954
-0.014248607 0.024270823 0.19366363
-0.019895175 0.020179629 0.19164655
-0.019486433 0.016994886 0.19297865
-0.01801054 0.013102594 0.19436102
-0.016862653 0.0085419724 0.19876035
-0.016991237 0.0036702526 0.203428
-0.017607667 -0.0021033124 0.20912418
-0.018633608 -0.007532652 0.21564598
-0.019073509 -0.01096679 0.21879415
-0.019130459 -0.013970918 0.22181742
-0.020977903 -0.015879447 0.22227874
-0.022373958 -0.017738853 0.22359985
-0.023161534 -0.019315593 0.22366694
-0.023094524 -0.020946227 0.22313513
-0.022497259 -0.022853928 0.22434773
-0.022733415 -0.025247669 0.22822571
-0.011847903 0.036686838 0.18749529
-0.011499696 0.034185521 0.18882039
-0.01127223 0.031702362 0.19034162
-0.010606842 0.028715514 0.19203517
-0.0091536371 0.024767704 0.19584346
-0.011332547 0.019599127 0.19754009
-0.014633589 0.01603118 0.19743904
-0.0139767 0.012299384 0.19937007
-0.014266505 0.0091649052 0.20213108
-0.014647926 0.0053951913 0.20494884
-0.014858424 -0.0010318395 0.2110768
-0.015020864 -0.0076790522 0.21785018
-0.01459458 -0.010628765 0.22068711
-0.014370992 -0.013306768 0.223315
-0.015119892 -0.015553401 0.22435662
-0.018196678 -0.016855678 0.22370738
-0.019579172 -0.018573286 0.223655
-0.020016985 -0.020667274 0.22411402
-0.020219309 -0.022919947 0.22624893
-0.020054933 -0.025134059 0.22984603
-0.0088823754 0.03438849 0.18956821
-0.0075794444 0.03200794 0.19139454
-0.0063432748 0.028789174 0.19442695
-0.0057560634 0.024362562 0.19775556
-0.0072979727 0.019159412 0.20044717
-0.010039206 0.015405464 0.20193705
-0.010959818 0.012443804 0.2035968
-0.011520608 0.0097603071 0.2050676
-0.012099504 0.006461896 0.20681699
-0.012459313 0.00081569294 0.21146277
-0.010865717 -0.0067637069 0.21899061
-0.010347366 -0.0096738972 0.2218945
-0.010423583 -0.012506565 0.22420137
-0.01091605 -0.014748648 0.22564909
-0.012788157 -0.016383184 0.2255488
-0.014944191 -0.018171363 0.22607183
-0.016421704 -0.020859698 0.22709939
-0.01766501 -0.024386009 0.23049222
-0.0030845264 0.030455036 0.19508751
-0.0027431224 0.026975472 0.1975031
-0.0035194776 0.022641668 0.19994381
-0.0047245664 0.020002786 0.20155206
-0.0065215151 0.015602875 0.20389822
-0.0075924206 0.012586317 0.20605542
-0.0082390476 0.0098048793 0.20781755
-0.0087542105 0.0065984293 0.21029261
-0.010149553 0.0026482649 0.21212149
-0.0068910667 -0.0055981874 0.21990804
-0.0065756338 -0.0089722108 0.22322284
-0.0068473485 -0.012093852 0.22468351
-0.0077183354 -0.014596319 0.22655304
-0.0085775349 -0.016704677 0.22780213
-0.010459778 -0.018945318 0.22934057
-0.013212403 -0.021426344 0.22994041
-0.015508114 -0.02372564 0.23095658
0.00011386954 0.025137283 0.19907527
-0.00058323052 0.02187882 0.20110504
-0.00022628911 0.019024765 0.2030675
-0.0020927296 0.016342239 0.20476882
-0.0032757937 0.012069749 0.2073496
-0.0033317425 0.0087792249 0.21002425
-0.003450952 0.0058132964 0.21238585
-0.0029968088 -0.0038850543 0.22014917
-0.0029060314 -0.0085137049 0.22379762
-0.0034014001 -0.012138453 0.22536729
-0.0043087518 -0.014777162 0.22725242
-0.0055596726 -0.016938303 0.22870904
-0.0073648053 -0.018915812 0.23072857
0.002181574 0.023520803 0.19993171
0.0019498353 0.021270076 0.20127371
0.0019592417 0.018875536 0.20287588
0.0018381593 0.015964938 0.20545974
0.0013117347 0.011727229 0.20818143
0.00096355978 0.0084133642 0.21076415
0.00083967752 0.0057843952 0.21306559
0.00014141224 0.0029715821 0.21561226
0.00056785962 -0.0016343243 0.21899001
0.00014971072 -0.0070153293 0.22279082
-0.0007546749 -0.011593261 0.22573788
0.0040408815 0.0205233 0.20136723
0.0052701104 0.018733203 0.20304091
0.004954013 0.015483658 0.20613609
0.0043352973 0.011887851 0.20852312
0.0040146536 0.0089199413 0.2108272
0.0037197308 0.0068364423 0.21299337
0 0 0 1 0 0 0 1 0 0 0 1 0 0 0 0 0 348 1 0 0
