ply
format ascii 1.0
comment PCL generated
element vertex 348
property float x
property float y
property float z
element camera 1
property float view_px
property float view_py
property float view_pz
property float x_axisx
property float x_axisy
property float x_axisz
property float y_axisx
property float y_axisy
property float y_axisz
property float z_axisx
property float z_axisy
property float z_axisz
property float focal
property float scalex
property float scaley
property float centerx
property float centery
property int viewportx
property int viewporty
property float k1
property float k2
end_header
-0.05677795 0.023567243 0.18855265
-0.057358943 0.021036832 0.19048694
-0.057727329 0.017903872 0.1919765
-0.057992682 0.014969516 0.19350855
-0.058219206 0.012209715 0.19510928
-0.058283083 0.0096628284 0.19668041
-0.058001943 0.0071004126 0.19823577
-0.053932708 0.025304308 0.18494807
-0.054861441 0.024315026 0.18598741
-0.054697987 0.021644371 0.18734246
-0.054909501 0.018369457 0.18905926
-0.055114996 0.014955564 0.19069001
-0.055664614 0.011837056 0.19244833
-0.056269523 0.0090047102 0.19485016
-0.056201674 0.0056777797 0.19627954
-0.05537346 0.0017023849 0.19676386
-0.055150509 -0.00091746554 0.19926824
-0.051044956 0.027414747 0.18207283
-0.051554542 0.025860932 0.18308903
-0.051676001 0.023961864 0.18407737
-0.05194246 0.021909351 0.18539891
-0.052031472 0.018619418 0.18711829
-0.05199435 0.014545543 0.18892993
-0.052488759 0.011162302 0.19049604
-0.052872468 0.0077748001 0.19228862
-0.053596649 0.0036972933 0.1934886
-0.053204644 3.0668631e-05 0.1962755
-0.053470906 -0.0022067581 0.19924888
-0.054071754 -0.0033890898 0.20233722
-0.053749867 -0.0042693131 0.20470463
-0.05352838 -0.0047324416 0.20606363
-0.04854127 0.028368337 0.18081856
-0.048937626 0.026373135 0.18162818
-0.049238928 0.024313429 0.18279095
-0.049525797 0.022119189 0.18425396
-0.049532533 0.018969405 0.18607186
-0.0493659 0.013434741 0.18719107
-0.049901009 0.0097027728 0.1891993
-0.05058106 0.0059135235 0.19022253
-0.052272409 0.0004039281 0.19257735
-0.051628534 -0.0025741535 0.19558051
-0.051037729 -0.0042194244 0.19780424
-0.050999667 -0.0045734984 0.20058326
-0.051086646 -0.0040582023 0.20424397
-0.051587351 -0.0045367703 0.2074105
-0.051863242 -0.0060927533 0.21067151
-0.051344749 -0.0084306495 0.21504983
-0.045232765 0.031483807 0.17936893
-0.045675356 0.029494189 0.18010178
-0.046249922 0.027038582 0.18108444
-0.046716873 0.024895068 0.18221721
-0.047127359 0.022439556 0.18355949
-0.047281224 0.019230761 0.18493995
-0.04719134 0.013999394 0.18581535
-0.048353937 0.0084404647 0.18747523
-0.04982486 0.0035529207 0.18884216
-0.051135443 -0.0026965966 0.19256218
-0.050717268 -0.0065814839 0.19486389
-0.04994905 -0.0070036938 0.19670737
-0.048723161 -0.0049238065 0.19894946
-0.047853801 -0.0039471546 0.20394781
-0.047912303 -0.0046117166 0.20758381
-0.048870299 -0.006855486 0.21114683
-0.049566399 -0.0094169574 0.21454529
-0.050382707 -0.012792241 0.21836519
-0.042709358 0.033378702 0.17876638
-0.043187734 0.030216895 0.18010168
-0.043122929 0.027907742 0.18083698
-0.044177905 0.025545416 0.18184777
-0.044473816 0.023210496 0.1826757
-0.044509612 0.020159693 0.18359385
-0.044808306 0.015737947 0.18453169
-0.047436628 0.0078356545 0.18627585
-0.049663272 0.0012615375 0.18774173
-0.049546782 -0.0059144241 0.19174893
-0.048440631 -0.0083701909 0.19395748
-0.046891548 -0.0071821171 0.19633409
-0.045850761 -0.0048139836 0.19826505
-0.044856954 -0.0040798741 0.20347105
-0.044453744 -0.0050966023 0.20749092
-0.04466461 -0.006700193 0.21123758
-0.046260308 -0.0099111926 0.2146118
-0.04813901 -0.014074209 0.21832368
-0.048198689 -0.017970206 0.22100638
-0.047566473 -0.020793708 0.22238497
-0.039255019 0.039005745 0.17733829
-0.039551463 0.035766181 0.17885654
-0.03823179 0.032778431 0.1800333
-0.039382167 0.030217817 0.18074995
-0.040001549 0.027594799 0.18138081
-0.04107441 0.024204273 0.18200281
-0.041112617 0.020969868 0.18232229
-0.04262552 0.016071053 0.18374184
-0.046355288 0.0078797778 0.18457885
-0.048258573 0.0024328295 0.18420228
-0.047278758 -0.0070733023 0.19017081
-0.044918071 -0.0082774973 0.19338374
-0.043437112 -0.0062903347 0.19603506
-0.043149494 -0.0048795142 0.197228
-0.042176582 -0.0045015113 0.20166768
-0.042262889 -0.0058480357 0.20540829
-0.043509364 -0.0074409554 0.20888682
-0.045044482 -0.0089405756 0.21226887
-0.044963531 -0.01410341 0.21632747
-0.044725999 -0.018297765 0.21940897
-0.045166902 -0.021807404 0.2218941
-0.044393919 -0.024202485 0.22282735
-0.03679302 0.040688798 0.17695282
-0.036272649 0.038822807 0.17862973
-0.035899632 0.03424396 0.17989245
-0.036413278 0.031612858 0.18079001
-0.035955984 0.029347364 0.18167299
-0.035755266 0.025821658 0.18287982
-0.036145888 0.0228315 0.18287005
-0.040008593 0.016906315 0.18327716
-0.044539433 0.009322403 0.18302071
-0.045582585 0.0044183009 0.18062134
-0.043251652 -0.0082661537 0.18869089
-0.041526262 -0.0090675158 0.19213025
-0.041042607 -0.0069567189 0.19268242
-0.040358033 -0.0051133716 0.19555824
-0.040168729 -0.005331757 0.19993748
-0.04062577 -0.0063536949 0.20291707
-0.041878387 -0.0078306459 0.20753951
-0.043286387 -0.0095239002 0.21129559
-0.041957453 -0.014567389 0.21473151
-0.041169029 -0.018737711 0.21781367
-0.041347478 -0.021876846 0.22058903
-0.0413118 -0.024547767 0.22212614
-0.033657838 0.041639533 0.17715441
-0.033345766 0.03987436 0.1787241
-0.033435754 0.034744408 0.18070434
-0.033444073 0.031517606 0.18184523
-0.032785252 0.029635068 0.18277404
-0.032558002 0.026836345 0.18363006
-0.033365656 0.022779234 0.18340394
-0.03421355 0.019364912 0.18281998
-0.041426357 0.011959898 0.18175735
-0.041327771 0.0059550656 0.17918862
-0.040168162 0.0019852433 0.17853001
-0.038775869 -0.006654243 0.18542421
-0.037934087 -0.0058817766 0.19046164
-0.037444048 -0.0043297173 0.1944492
-0.037058137 -0.0049592769 0.19942093
-0.037700802 -0.006731648 0.20290969
-0.039098978 -0.0086776493 0.20747897
-0.040315613 -0.011316248 0.21128432
-0.039126877 -0.015748398 0.21416315
-0.037719909 -0.01948378 0.21743697
-0.038223818 -0.022468826 0.21989737
-0.037734549 -0.02421405 0.22160888
-0.030738857 0.042066582 0.17769596
-0.030309148 0.040220261 0.17933252
-0.030471312 0.035520602 0.18144079
-0.030479359 0.032305334 0.1827386
-0.029942138 0.03027807 0.18366958
-0.030203495 0.027136855 0.18453211
-0.0304623 0.023671193 0.18438163
-0.030153099 0.021011693 0.18406945
-0.034801554 0.01521486 0.18220302
-0.036379728 0.0076661361 0.18032788
-0.03264806 0.0045878175 0.18077597
-0.032438207 0.0011825346 0.18382643
-0.033811368 -0.0022878726 0.18817368
-0.034193318 -0.0030782141 0.19176914
-0.033943478 -0.0058000856 0.20079207
-0.034542192 -0.0079642525 0.20318423
-0.036242113 -0.010242911 0.20775597
-0.037063804 -0.013397801 0.2113869
-0.035009805 -0.01682679 0.21448548
-0.034067284 -0.019246032 0.21851923
-0.033925224 -0.021408195 0.22036125
-0.034438696 -0.023955802 0.22268653
-0.033954766 -0.024944687 0.22535899
-0.027518393 0.042409431 0.17850375
-0.027141592 0.04063189 0.17990571
-0.026608426 0.037562825 0.18169713
-0.027412051 0.033693995 0.18302035
-0.027180688 0.030851455 0.18439694
-0.0273945 0.027484966 0.18564244
-0.027798032 0.024362976 0.18567689
-0.028003471 0.021368504 0.18521923
-0.029176136 0.016741548 0.1842635
-0.031093324 0.010107054 0.1821882
-0.027082095 0.0061314907 0.18681362
-0.026412029 0.0031278559 0.18920721
-0.025864171 0.00020006415 0.19414453
-0.026895454 -0.0042791474 0.20083354
-0.02901336 -0.0071023726 0.20401709
-0.031312946 -0.0089299642 0.20732136
-0.033076093 -0.012074498 0.21049704
-0.032319926 -0.015089297 0.21475214
-0.031349309 -0.017503161 0.21726179
-0.031390306 -0.019673515 0.21972518
-0.031306628 -0.021713991 0.22152792
-0.03141664 -0.023726158 0.22364527
-0.031068243 -0.024372598 0.22603525
-0.025294852 0.043041311 0.17876425
-0.023626687 0.0411034 0.1805957
-0.022614958 0.038792159 0.18193318
-0.022965478 0.035311282 0.18367571
-0.023556463 0.031578943 0.18552072
-0.023882877 0.028497269 0.18706867
-0.02511033 0.024932493 0.18703586
-0.025962446 0.021292709 0.1867017
-0.025666991 0.017752523 0.18708733
-0.024262607 0.014449692 0.18775663
-0.022526253 0.0090401182 0.19009444
-0.022530248 0.0047496418 0.19362029
-0.023060637 0.0013478547 0.19806233
-0.024366193 -0.003387877 0.20418404
-0.02603044 -0.0066124769 0.20826343
-0.027309528 -0.0096637802 0.2115242
-0.028092448 -0.012975542 0.21523306
-0.028075477 -0.015825758 0.21861383
-0.028715216 -0.018644882 0.22022484
-0.029514121 -0.020346109 0.22116393
-0.028894734 -0.021867432 0.22194794
-0.028311409 -0.023206012 0.22374794
-0.028009225 -0.024563437 0.22646669
-0.019385824 0.041438397 0.1821292
-0.019421196 0.038715832 0.18366289
-0.018173365 0.035856508 0.18554182
-0.018874327 0.032699943 0.18703265
-0.019592147 0.02968701 0.18868667
-0.020373855 0.026350131 0.1898361
-0.023193264 0.021434205 0.18908681
-0.02307565 0.018754531 0.18918128
-0.022252537 0.016156284 0.19014473
-0.02095563 0.012348874 0.19128275
-0.019953666 0.0074188141 0.19439521
-0.02008111 0.0021979895 0.2010197
-0.021009838 -0.0030681868 0.2069518
-0.022291748 -0.0074658529 0.21290708
-0.023182353 -0.010489328 0.21585506
-0.023807202 -0.013385055 0.21919958
-0.024797922 -0.015932569 0.22079691
-0.025538368 -0.01836589 0.22210661
-0.026645698 -0.020282751 0.22283708
-0.026030639 -0.02192967 0.22233845
-0.025407981 -0.023504918 0.22357211
-0.02517933 -0.024909126 0.22682382
-0.015737062 0.039034583 0.18535137
-0.01484282 0.03625308 0.18685761
-0.015109053 0.033478737 0.18839961
-0.015371045 0.03083751 0.18997537
-0.014547376 0.027949836 0.191818
-0.014197788 0.024239723 0.19393997
-0.020071894 0.020274501 0.19153985
-0.019660275 0.017100779 0.19283015
-0.018130919 0.013220754 0.1942607
-0.016878664 0.0085495757 0.19877835
-0.017005002 0.0036665595 0.20362619
-0.017709754 -0.0021399262 0.2095599
-0.01884855 -0.0077087642 0.2162108
-0.019286832 -0.011144131 0.21925904
-0.019270634 -0.014123271 0.22218257
-0.021130422 -0.015937733 0.22261666
-0.022489108 -0.017727461 0.22381143
-0.023250503 -0.019270448 0.22384422
-0.023197521 -0.02087285 0.22329801
-0.022580687 -0.022737345 0.22449644
-0.022768671 -0.025169183 0.22836903
-0.011791575 0.03661957 0.18788132
-0.011453114 0.034107827 0.18920282
-0.011216866 0.031629756 0.19069624
-0.010509419 0.028645206 0.19241996
-0.0089438083 0.024621874 0.19631235
-0.011355641 0.019554494 0.19773111
-0.0146917 0.016018014 0.1974414
-0.013919744 0.012239903 0.19936615
-0.014188137 0.0091167754 0.20215502
-0.014595998 0.0053768256 0.20507456
-0.014920691 -0.001065266 0.21149808
-0.01517001 -0.0078742253 0.21836302
-0.014675453 -0.010831068 0.22109956
-0.014396187 -0.013495094 0.2235837
-0.015157698 -0.01569969 0.22450837
-0.018269008 -0.016897418 0.22385365
-0.019684309 -0.01852807 0.2237629
-0.020156661 -0.020576144 0.22422169
-0.020334313 -0.022785844 0.22636573
-0.020147322 -0.025037656 0.22997017
-0.0088145947 0.034289323 0.18995346
-0.0074601034 0.031899072 0.19182226
-0.0061501367 0.028696617 0.19501686
-0.0055754185 0.024186056 0.19822769
-0.0072029307 0.019034404 0.20072085
-0.0099479081 0.015245031 0.20210023
-0.01081942 0.012287575 0.20367469
-0.011372769 0.0096596126 0.20514874
-0.012011104 0.0063889027 0.20694679
-0.012487786 0.00075570855 0.21178751
-0.010934222 -0.0069846106 0.21945308
-0.010360012 -0.0099021764 0.22225524
-0.010420048 -0.012747883 0.22448319
-0.010912349 -0.014983987 0.22585669
-0.012803605 -0.016557945 0.22568735
-0.015030617 -0.018226435 0.22609575
-0.016589923 -0.020826239 0.2271681
-0.017849859 -0.024309216 0.23061195
-0.0028659843 0.030332347 0.19564851
-0.0025445961 0.026798416 0.19799402
-0.0033993863 0.022440311 0.20022306
-0.0046625468 0.019832632 0.20179601
-0.0064434917 0.015485245 0.20414056
-0.007467817 0.012424747 0.20625064
-0.0081187952 0.0097012706 0.20802976
-0.0086863982 0.0065216455 0.21053849
-0.010173809 0.0025956337 0.21238136
-0.0069005578 -0.0058523295 0.22031136
-0.0065458897 -0.0092641721 0.22354132
-0.0068387147 -0.01240025 0.22497493
-0.0077015022 -0.014917484 0.22680061
-0.0085867625 -0.017003028 0.22802362
-0.010511001 -0.019162698 0.22949594
-0.013361535 -0.021476746 0.2300583
-0.015712578 -0.023687951 0.23106955
0.00029099995 0.025006823 0.19953938
-0.0004898422 0.021724617 0.20147601
-0.00016947745 0.018882014 0.20344582
-0.0020325375 0.016206818 0.20507638
-0.0031946041 0.011966692 0.20769982
-0.0032485102 0.0086679915 0.21039586
-0.0033606712 0.0057065631 0.21271589
-0.0029883077 -0.0041176095 0.22051924
-0.0028587193 -0.0088758506 0.22409728
-0.0033735589 -0.012532135 0.22564086
-0.0042801285 -0.015177248 0.22750403
-0.0055548982 -0.017326759 0.22897093
-0.0073858094 -0.01927362 0.23096503
0.0023157483 0.023436986 0.20050968
0.0020418854 0.021187671 0.20181118
0.0020186822 0.01879682 0.2033949
0.0019097251 0.015896801 0.20595127
0.0013830762 0.011627268 0.20863199
0.001054496 0.0082987584 0.2111861
0.00094465329 0.0056890235 0.21345346
0.00023550303 0.0028925459 0.21597841
0.00061631709 -0.0017149748 0.21937339
0.00017061684 -0.0073230662 0.22310892
-0.00071360316 -0.012035292 0.22599803
0.0041271807 0.020507228 0.2020282
0.0053289612 0.018768374 0.20374693
0.0050086943 0.015467377 0.20674857
0.0044089691 0.011800394 0.20901687
0.0041063731 0.0088182213 0.21128279
0.003815253 0.0067609092 0.21344234
0 0 0 1 0 0 0 1 0 0 0 1 0 0 0 0 0 348 1 0 0
