ply
format ascii 1.0
comment PCL generated
element vertex 354
property float x
property float y
property float z
element camera 1
property float view_px
property float view_py
property float view_pz
property float x_axisx
property float x_axisy
property float x_axisz
property float y_axisx
property float y_axisy
property float y_axisz
property float z_axisx
property float z_axisy
property float z_axisz
property float focal
property float scalex
property float scaley
property float centerx
property float centery
property int viewportx
property int viewporty
property float k1
property float k2
end_header
-0.055652328 0.030801076 0.18650742
-0.056807883 0.027828956 0.18841089
-0.05805701 0.024512572 0.19093126
-0.058790002 0.021053564 0.19303109
-0.058890644 0.017639119 0.19451587
-0.051282041 0.035499409 0.18291131
-0.05210238 0.033665232 0.1836419
-0.052610185 0.030883683 0.18486854
-0.052974984 0.027912419 0.18629314
-0.053974442 0.024841072 0.18899032
-0.05540017 0.021492938 0.19213761
-0.056153797 0.018037848 0.19396025
-0.05587054 0.015420784 0.19457909
-0.055684619 0.011990378 0.19657017
-0.047688704 0.038198818 0.18070181
-0.048403349 0.036280673 0.18129879
-0.048836935 0.033633567 0.18211035
-0.049241826 0.030932236 0.18366694
-0.049615555 0.027988335 0.18584251
-0.050637867 0.025018116 0.18912798
-0.051284205 0.022026213 0.19141775
-0.052108049 0.019536721 0.19328345
-0.052766759 0.015943684 0.19549072
-0.053120222 0.011087162 0.199037
-0.052894596 0.0062131532 0.20071051
-0.052714799 0.0026747212 0.20157675
-0.04536726 0.038970385 0.17977633
-0.045593631 0.036399163 0.18068901
-0.045721162 0.033647768 0.18188594
-0.04616078 0.030898636 0.18389577
-0.046612926 0.028268017 0.18617319
-0.047513559 0.02536734 0.18945289
-0.047907185 0.022393426 0.19141994
-0.048433118 0.020025106 0.19386177
-0.049490903 0.016204508 0.19684966
-0.04957946 0.010651897 0.1997336
-0.049726777 0.0058123595 0.20116679
-0.049907777 0.0022930091 0.20292497
-0.050327528 -0.0006203847 0.20572929
-0.051438358 -0.0024175222 0.20878418
-0.042178433 0.04130945 0.17891936
-0.042555753 0.039299555 0.1799406
-0.042745762 0.036696341 0.18129621
-0.042871084 0.033979177 0.18297938
-0.043269653 0.031289898 0.18506034
-0.04377877 0.028405579 0.18697518
-0.04456779 0.025613451 0.18974569
-0.044848152 0.022717236 0.19129591
-0.045049019 0.02037509 0.19398402
-0.045797434 0.016173244 0.19756939
-0.046165597 0.011092352 0.19945252
-0.04655052 0.0061578415 0.20079783
-0.047006071 0.0030070529 0.20362483
-0.047543757 0.00043310112 0.20695475
-0.048818856 -0.0020817544 0.21033815
-0.050153933 -0.0047114645 0.21485789
-0.050873403 -0.008336423 0.21842535
-0.050468918 -0.01083676 0.22104256
-0.03961708 0.04201993 0.17885694
-0.039756067 0.039453071 0.18036954
-0.039830387 0.036836807 0.18183382
-0.040066898 0.034314506 0.18373558
-0.040544517 0.031595852 0.18572675
-0.040879432 0.028662873 0.18785283
-0.04151627 0.025623482 0.19001392
-0.041721955 0.022568682 0.19130285
-0.041926961 0.020551559 0.19422659
-0.042455886 0.016728913 0.19743086
-0.04291115 0.011533799 0.19961606
-0.04298396 0.0068524978 0.20006056
-0.043313939 0.0034156539 0.20272948
-0.043727793 0.00076099869 0.20647927
-0.045447227 -0.0016176455 0.21156111
-0.046952367 -0.0043117097 0.21640004
-0.047587033 -0.0082328934 0.21896479
-0.048022199 -0.011220692 0.22148421
-0.048128735 -0.01473524 0.22374986
-0.047918737 -0.017963188 0.22554058
-0.036403302 0.043995786 0.1778051
-0.036638014 0.042281754 0.17931344
-0.036864299 0.03973769 0.18086332
-0.036959726 0.037185665 0.18223238
-0.037099812 0.034622766 0.18444158
-0.037588373 0.03191822 0.18652414
-0.03781781 0.028932655 0.18815342
-0.038382236 0.025770361 0.19047426
-0.038772795 0.0228328 0.19203998
-0.038702276 0.020770071 0.19528569
-0.039389487 0.016976563 0.19835071
-0.040052142 0.012088371 0.20058225
-0.03966986 0.0076068128 0.19950975
-0.03948928 0.0037493221 0.20108697
-0.040366817 0.000987662 0.20678394
-0.042124085 -0.0011858355 0.21287835
-0.043489475 -0.0040214765 0.21736078
-0.043998104 -0.0081098787 0.21924441
-0.044213671 -0.011581702 0.22110395
-0.0443675 -0.015173339 0.22223558
-0.044682629 -0.018588891 0.22401628
-0.044396657 -0.021385448 0.22589153
-0.033594869 0.044189703 0.17836325
-0.033701763 0.042518672 0.17978714
-0.033832345 0.039969601 0.18140125
-0.034014761 0.037433252 0.18277973
-0.033968803 0.034690324 0.18485878
-0.034418989 0.031874079 0.18722376
-0.03489982 0.029002439 0.18925664
-0.035377026 0.02613738 0.19143711
-0.035779122 0.023251694 0.1936029
-0.035907902 0.020855116 0.19707404
-0.036635492 0.016949652 0.19974358
-0.036981184 0.012412685 0.20143561
-0.036780026 0.0082169082 0.2010974
-0.036590517 0.0039808592 0.20140399
-0.037410084 0.0014742312 0.20833407
-0.039123584 -0.00067822589 0.21464463
-0.039682895 -0.0040756897 0.21809483
-0.040284809 -0.0082682725 0.21901137
-0.040293373 -0.011914281 0.22008993
-0.040527288 -0.015566994 0.22175013
-0.040551711 -0.018798728 0.22305562
-0.040838856 -0.022015816 0.22499768
-0.030369716 0.044366315 0.17934568
-0.030591719 0.042627856 0.18028684
-0.030718716 0.040008862 0.18207891
-0.030899229 0.037506975 0.18451342
-0.031131363 0.034819547 0.18631785
-0.031340975 0.031935632 0.18872744
-0.031681847 0.029108627 0.19086592
-0.032191064 0.026195887 0.19268422
-0.032732505 0.02352149 0.19462547
-0.03295866 0.020938905 0.19832666
-0.033666439 0.017008806 0.20070906
-0.033964716 0.01252252 0.20240299
-0.033898763 0.0083602229 0.2028317
-0.033787321 0.0044303178 0.20356123
-0.035032842 0.0029179349 0.2115563
-0.035771091 -0.00011377148 0.21657674
-0.036101315 -0.0037897117 0.21813282
-0.036880862 -0.0085350228 0.21892497
-0.036885966 -0.012189507 0.22019711
-0.037062816 -0.015569395 0.22198133
-0.037055671 -0.018852238 0.22267622
-0.03730524 -0.022172082 0.22473486
-0.027370062 0.044474974 0.17974931
-0.027362844 0.042652681 0.18086925
-0.027525654 0.040044464 0.1829
-0.027784653 0.037630919 0.18600394
-0.028187364 0.035003658 0.18813851
-0.028423935 0.032189623 0.19010189
-0.028505974 0.029269991 0.19154555
-0.028745545 0.02654686 0.19343075
-0.029189985 0.023780048 0.19591884
-0.029686334 0.021132009 0.19954571
-0.030739451 0.016642306 0.20269231
-0.030847833 0.012477702 0.20418121
-0.03069165 0.0088281939 0.20543711
-0.031006807 0.0058633946 0.20893703
-0.03148349 0.0035017023 0.21320485
-0.031996429 0.00010037755 0.21632354
-0.032324608 -0.003738679 0.21792845
-0.033399712 -0.0085004056 0.21944968
-0.033554841 -0.012032141 0.22099267
-0.033729162 -0.015350105 0.22301854
-0.033699296 -0.018823776 0.22418976
-0.033712711 -0.022498958 0.22706202
-0.033260692 -0.0252664 0.22987667
-0.023999663 0.044456992 0.18051998
-0.024148798 0.042831931 0.18166466
-0.024121072 0.040203396 0.18328176
-0.024553362 0.03774742 0.18615609
-0.025037311 0.035257261 0.18869582
-0.025305681 0.032428581 0.19100171
-0.025451742 0.029549062 0.19250718
-0.025651479 0.026640151 0.19481586
-0.02590571 0.023937618 0.19745021
-0.026809137 0.021269158 0.20101154
-0.027293315 0.017171593 0.20424421
-0.027219767 0.01333364 0.20607062
-0.027354838 0.0097649489 0.20829208
-0.027541339 0.0065862797 0.21103822
-0.028035795 0.0036759146 0.21391213
-0.028429706 0.00018103127 0.21696918
-0.029285844 -0.0046770303 0.21765299
-0.029650891 -0.008326699 0.22064337
-0.029925367 -0.011776135 0.22220474
-0.030034875 -0.01529278 0.22506477
-0.029691476 -0.019042054 0.22710215
-0.029719926 -0.022777775 0.2291766
-0.029763468 -0.026566217 0.23121318
-0.020907443 0.044811375 0.18099819
-0.020949118 0.043102272 0.18218312
-0.021039465 0.040399026 0.18359381
-0.021166854 0.037901212 0.18554518
-0.021762455 0.035328187 0.18899392
-0.021988688 0.032724388 0.1916883
-0.022236886 0.029901629 0.19371733
-0.022309611 0.02713567 0.19610736
-0.022896675 0.024201334 0.19911283
-0.023469241 0.020459784 0.20196477
-0.023520891 0.016580623 0.20409304
-0.023450602 0.012929802 0.2062082
-0.023829661 0.0092169298 0.20842452
-0.024088042 0.006885835 0.21235824
-0.024595419 0.0037885758 0.21515833
-0.02483348 0.00022256903 0.21734163
-0.025819885 -0.0043575298 0.21868177
-0.025999969 -0.0080905631 0.22198169
-0.026154637 -0.011714601 0.22294959
-0.026020823 -0.015447325 0.22620429
-0.025932025 -0.01937649 0.22874969
-0.025988409 -0.023205468 0.23022814
-0.026178809 -0.027061349 0.23233463
-0.018270344 0.043057341 0.18314961
-0.018019207 0.040786639 0.18463698
-0.018064659 0.037990991 0.18591744
-0.018431293 0.035296641 0.18911375
-0.018828452 0.032698587 0.19200574
-0.019003961 0.030036308 0.19413699
-0.019292258 0.027420484 0.19704847
-0.019915078 0.024142502 0.20037118
-0.02026681 0.02037158 0.20313458
-0.020286614 0.016731562 0.20537335
-0.020095825 0.013421538 0.20741726
-0.020458026 0.0097585423 0.21026175
-0.020871449 0.0063092685 0.21238297
-0.021573773 0.002969644 0.21579358
-0.021917816 -0.00060175598 0.21802928
-0.022425292 -0.004185739 0.22021295
-0.022414327 -0.0076939068 0.22386068
-0.022333732 -0.01155788 0.22459367
-0.022433139 -0.015474692 0.22699192
-0.021992393 -0.019443253 0.22928052
-0.022120923 -0.023188798 0.22951779
-0.022426594 -0.027355289 0.23385565
-0.015169331 0.040900316 0.18540756
-0.015166432 0.038201928 0.18698211
-0.015230725 0.03539985 0.18923846
-0.015396125 0.032685038 0.1922085
-0.015614215 0.030042591 0.1946291
-0.015889188 0.027366627 0.19858424
-0.016629515 0.023856087 0.20270957
-0.016745005 0.020434579 0.20483398
-0.016844558 0.01714028 0.20644191
-0.01674174 0.013708519 0.20831908
-0.01712795 0.01014526 0.21161897
-0.017187538 0.0071460051 0.214103
-0.017639769 0.0034480866 0.21684653
-0.018491922 -0.00031623352 0.21947213
-0.019067401 -0.0039697131 0.22249983
-0.019038729 -0.0074667777 0.22555035
-0.018710015 -0.011473538 0.22641911
-0.018620107 -0.015611116 0.22867173
-0.018261198 -0.01955642 0.22919507
-0.018255787 -0.023434639 0.23089077
-0.018639861 -0.027800087 0.23709674
-0.012546961 0.038122997 0.18836001
-0.01206904 0.035648011 0.19019286
-0.012162069 0.032920454 0.19306539
-0.012304776 0.030190157 0.19590753
-0.012610455 0.027281536 0.19937545
-0.013134305 0.023883885 0.20368347
-0.01311007 0.020768834 0.2061367
-0.013252705 0.017459648 0.20810992
-0.013551207 0.014052437 0.21018232
-0.013585514 0.010645508 0.21322498
-0.013845895 0.007412652 0.21537529
-0.013821016 0.0039987732 0.21779411
-0.014783035 6.228147e-05 0.22065793
-0.015385976 -0.0034915607 0.22394808
-0.015453816 -0.0072072297 0.2265622
-0.015001846 -0.01141177 0.22839126
-0.01469277 -0.01552436 0.23020224
-0.014560047 -0.019703729 0.23069526
-0.014504286 -0.02381127 0.23410814
-0.014875799 -0.028156592 0.24025379
-0.0097731659 0.035227556 0.19110467
-0.0090283435 0.032994714 0.19384398
-0.0089726541 0.030238746 0.19692945
-0.0091260038 0.027103679 0.19967999
-0.0095302975 0.024083968 0.20354533
-0.0095119514 0.021036956 0.20678571
-0.0094968611 0.017795155 0.209328
-0.010003501 0.014478566 0.2118133
-0.0099998545 0.010978376 0.21396996
-0.010084419 0.0076837935 0.21664338
-0.00999582 0.0042963754 0.21923278
-0.010383385 0.00044404267 0.2216612
-0.011385658 -0.0035047929 0.22479078
-0.011044104 -0.0072644078 0.22717045
-0.010813845 -0.011314095 0.22930452
-0.010761751 -0.015459985 0.2311406
-0.010725102 -0.019592186 0.23255304
-0.010742472 -0.023985421 0.23646554
-0.011293067 -0.027463702 0.24080867
-0.0057197083 0.032474332 0.19642724
-0.005694638 0.030108146 0.19853953
-0.0058067511 0.026857294 0.20130564
-0.0060643526 0.024031363 0.20424172
-0.006121065 0.021239322 0.20707086
-0.0060358564 0.017850928 0.21012464
-0.0062169628 0.01449034 0.21252728
-0.0061936448 0.011285826 0.21460716
-0.0062169228 0.0078280028 0.21697022
-0.0064816936 0.0042032157 0.21978427
-0.0066071101 0.0003792778 0.22201674
-0.0067691794 -0.0038153434 0.22453944
-0.006781579 -0.0076003801 0.22723098
-0.0069066128 -0.01159008 0.22927357
-0.0067523271 -0.015537024 0.23081452
-0.0068593798 -0.019572284 0.23346451
-0.0072878031 -0.023268875 0.23608233
-0.0031237311 0.031881519 0.19805671
-0.0026176209 0.029937116 0.19912091
-0.0025468604 0.026804391 0.20131539
-0.0026792639 0.023856461 0.20385827
-0.0026308114 0.021168964 0.20679541
-0.0027556387 0.018070456 0.21012704
-0.0026803836 0.014609154 0.21299443
-0.0025918386 0.011206125 0.21498865
-0.002616249 0.0077723204 0.21727027
-0.002813882 0.0041747214 0.21931094
-0.003014853 0.00012606736 0.22255181
-0.0029615352 -0.0036809435 0.22410801
-0.0029968335 -0.0076831002 0.22666246
-0.0030457252 -0.011319323 0.22817418
-0.0036151039 -0.015008113 0.22977051
0.00010100114 0.029403862 0.20012982
0.00066087832 0.027069354 0.20183881
0.00049220858 0.023945114 0.20384641
0.00076423143 0.021347396 0.20639639
0.00084948895 0.018201344 0.20920449
0.0010289412 0.014776304 0.21167816
0.00093776215 0.011309952 0.21441363
0.0009166685 0.0078903902 0.21691601
0.00097929256 0.0042636427 0.21807502
0.00069350319 0.0004230327 0.22144173
0.00099508534 -0.0034535774 0.22342545
0.00029789927 -0.0071883034 0.22584553
-0.00056655228 -0.010443418 0.22830772
0.0036104021 0.027019994 0.20255038
0.003954825 0.024325063 0.20354205
0.0042642546 0.021493556 0.20584011
0.0044437489 0.018263167 0.20861746
0.0045611244 0.014815281 0.21107401
0.0043556262 0.011557628 0.21329093
0.0039075646 0.0078621302 0.21653071
0.0035378272 0.0046512117 0.21782884
0.0032750471 0.00064777758 0.22052932
0.0032800375 -0.0024366793 0.22280079
0.0058121383 0.024418561 0.20397428
0.0065653389 0.021415856 0.20609219
0.0066891667 0.018418355 0.20848492
0.0066174297 0.01466922 0.21138984
0 0 0 1 0 0 0 1 0 0 0 1 0 0 0 0 0 354 1 0 0
