ply
format ascii 1.0
comment PCL generated
element vertex 354
property float x
property float y
property float z
element camera 1
property float view_px
property float view_py
property float view_pz
property float x_axisx
property float x_axisy
property float x_axisz
property float y_axisx
property float y_axisy
property float y_axisz
property float z_axisx
property float z_axisy
property float z_axisz
property float focal
property float scalex
property float scaley
property float centerx
property float centery
property int viewportx
property int viewporty
property float k1
property float k2
end_header
-0.05655361 0.026838997 0.18795395
-0.057342824 0.024019111 0.19019198
-0.058096334 0.020593116 0.19267003
-0.058585383 0.01694075 0.19438998
-0.058418076 0.013772359 0.19563572
-0.052543987 0.03143296 0.18395954
-0.053256497 0.029651428 0.1846928
-0.053758346 0.027000407 0.18576851
-0.05413593 0.02439953 0.18737267
-0.054941334 0.021308867 0.19010308
-0.055943683 0.017276539 0.1924511
-0.056731541 0.013292772 0.19442765
-0.056821223 0.0098382253 0.19573261
-0.055748332 0.0061748708 0.19779873
-0.049288977 0.034100927 0.18138643
-0.049776878 0.032340355 0.182171
-0.050058614 0.029874839 0.18289785
-0.050301667 0.02714527 0.18402442
-0.050802849 0.024416808 0.18581182
-0.051726874 0.021191878 0.18866737
-0.052199356 0.017742969 0.19034857
-0.053239465 0.013901995 0.1919744
-0.053790987 0.0095891012 0.19482839
-0.052700222 0.0035443453 0.19936825
-0.051815193 -0.0021962847 0.20035876
-0.050989684 -0.0062361895 0.20127688
-0.047197334 0.03485129 0.17993753
-0.047146127 0.032525413 0.18105526
-0.04704288 0.029975595 0.18215255
-0.047111861 0.027086699 0.18354426
-0.047790792 0.024315748 0.18512732
-0.048560921 0.02110959 0.18741389
-0.048830606 0.01785722 0.18875378
-0.049503129 0.014064116 0.19066584
-0.050341152 0.0090241535 0.19371019
-0.048769761 0.001422227 0.19755878
-0.048339624 -0.0040536756 0.19850941
-0.048238225 -0.0070929863 0.20126228
-0.049136795 -0.0092780311 0.2028677
-0.050813343 -0.010231959 0.20406346
-0.044282984 0.037359402 0.17888731
-0.044415396 0.035378706 0.17978318
-0.044289295 0.032907825 0.18107882
-0.044173472 0.030318087 0.1825711
-0.04439906 0.027530631 0.18390936
-0.045087948 0.024580071 0.18507187
-0.045762122 0.021219429 0.18677141
-0.04596287 0.017941913 0.18768467
-0.046128709 0.014131288 0.18915902
-0.046366926 0.0080936505 0.19226113
-0.046146501 0.0015231266 0.19530074
-0.045465689 -0.0042953198 0.19737835
-0.045321096 -0.0062805251 0.20137204
-0.046359271 -0.0080564125 0.2034975
-0.049008787 -0.010684538 0.20499608
-0.051195413 -0.013640963 0.20806925
-0.052449275 -0.015074858 0.21255787
-0.052862443 -0.016778981 0.21621108
-0.041814756 0.038375158 0.17873868
-0.041676044 0.035838347 0.1801507
-0.041480783 0.033385318 0.18141152
-0.041548543 0.030903315 0.18275283
-0.04202795 0.02810196 0.18411061
-0.042351503 0.024907915 0.18559887
-0.042796418 0.021294687 0.18667865
-0.042894997 0.017847167 0.18707302
-0.043175425 0.013878485 0.1881527
-0.043255355 0.008871113 0.19047865
-0.043182045 0.0021002635 0.19321121
-0.042435374 -0.0026974019 0.1957103
-0.042026062 -0.0049560606 0.20017757
-0.042599559 -0.0074962308 0.2032558
-0.045751493 -0.010765034 0.20606408
-0.048574243 -0.013089887 0.20946097
-0.049806919 -0.014771629 0.21341594
-0.050803345 -0.016617594 0.21676418
-0.051028308 -0.018466925 0.22107753
-0.050426796 -0.020096423 0.22467461
-0.038634192 0.041078471 0.17760722
-0.038889863 0.039319735 0.17907998
-0.03883275 0.036698017 0.18057518
-0.038716618 0.034200013 0.18181583
-0.038730726 0.031414315 0.18334074
-0.03914582 0.028483057 0.18492253
-0.03925227 0.025256865 0.18601905
-0.039632078 0.021478185 0.18697162
-0.039900266 0.017935358 0.18738431
-0.039834041 0.014026078 0.18820484
-0.040086634 0.009342283 0.19016743
-0.040429693 0.0032889494 0.19235222
-0.039356072 -0.0012593998 0.1945795
-0.038761247 -0.0036999031 0.198108
-0.039393723 -0.0063955304 0.20355545
-0.042725481 -0.010870164 0.2070092
-0.045527142 -0.012735515 0.21027908
-0.046506293 -0.014473239 0.21410513
-0.047318991 -0.016843986 0.21748967
-0.047117334 -0.018928854 0.22099693
-0.0471371 -0.021235077 0.22402756
-0.046800446 -0.023127409 0.2266366
-0.035587788 0.041705322 0.17807232
-0.035621341 0.040078707 0.17945215
-0.035571907 0.037549507 0.18110959
-0.035751604 0.034789488 0.18243724
-0.035341077 0.031665433 0.18402596
-0.035450697 0.02835656 0.18585947
-0.03575889 0.02527938 0.18713474
-0.036280766 0.021870743 0.18808222
-0.03687232 0.018278267 0.18841237
-0.036821526 0.014287938 0.18948957
-0.037159711 0.0096816244 0.19091102
-0.037419047 0.0039488664 0.19261383
-0.037272096 0.00031639932 0.19454733
-0.036447186 -0.0027246731 0.19772922
-0.037023909 -0.0061406693 0.20338969
-0.040196825 -0.010753804 0.20821245
-0.042175025 -0.012696652 0.21115108
-0.04288831 -0.014657599 0.21464631
-0.043225396 -0.017218789 0.21776937
-0.043040093 -0.019585051 0.22091189
-0.042807896 -0.021982394 0.22328781
-0.042789955 -0.024236385 0.22598219
-0.031854052 0.042584024 0.17908587
-0.031887803 0.04085407 0.18013623
-0.03188001 0.038213514 0.18186708
-0.031920515 0.035130069 0.18410842
-0.032151878 0.031765029 0.18558918
-0.032056682 0.028512428 0.1872623
-0.032029226 0.02533211 0.18860503
-0.032369003 0.022119744 0.18967906
-0.033740576 0.018910399 0.18954402
-0.033899125 0.014642002 0.19040039
-0.034066338 0.010128332 0.19169495
-0.034589458 0.0042960537 0.19384494
-0.034643538 0.00084268406 0.19602537
-0.034421109 -0.0018425395 0.19908606
-0.03583983 -0.0056345342 0.20461421
-0.037919283 -0.0093668997 0.20900309
-0.039322473 -0.012203866 0.21179534
-0.039788712 -0.014740253 0.21520759
-0.039618611 -0.017338961 0.21820292
-0.039308589 -0.019811697 0.22082213
-0.039076388 -0.022216145 0.22260866
-0.039175577 -0.024555661 0.22534508
-0.028338799 0.043192014 0.17985828
-0.028119938 0.041410081 0.18093471
-0.028134946 0.038755748 0.18279688
-0.028570047 0.035391264 0.18560961
-0.029060384 0.032022711 0.18731493
-0.028898293 0.028836636 0.18869813
-0.028581759 0.02574503 0.18954223
-0.028196871 0.022762936 0.19061919
-0.028383685 0.019421557 0.19182776
-0.030408483 0.015561314 0.19207804
-0.031251453 0.0093757715 0.19340499
-0.03138179 0.0047136405 0.19590721
-0.030813711 0.0015040524 0.19845046
-0.031104414 -0.0018826497 0.20173743
-0.032520495 -0.0049255146 0.20645609
-0.03439641 -0.0081646582 0.21019199
-0.035992377 -0.011473599 0.21285129
-0.036994956 -0.014613015 0.21638322
-0.036082044 -0.017220285 0.21836372
-0.03570256 -0.019326882 0.22113076
-0.035478469 -0.021933313 0.22332034
-0.034982827 -0.024595555 0.22690171
-0.033941481 -0.026438413 0.22971144
-0.024745477 0.043456111 0.18090048
-0.024795117 0.041784372 0.18191622
-0.024506742 0.039084468 0.183424
-0.025051693 0.036217276 0.18592992
-0.026001099 0.032676708 0.1879725
-0.025795195 0.02944837 0.18979979
-0.025337663 0.026462106 0.19078003
-0.02483746 0.023126176 0.19223516
-0.024432946 0.020208159 0.19386642
-0.025923008 0.016446296 0.19465509
-0.026697258 0.011163563 0.19687565
-0.026679337 0.0063059712 0.19832619
-0.02690327 0.0025127516 0.20067228
-0.027647972 -0.00084766053 0.20397708
-0.029150829 -0.0038338208 0.20777145
-0.030803697 -0.0069325673 0.21169889
-0.032026406 -0.010467873 0.21470597
-0.0329105 -0.013568471 0.21846519
-0.032001972 -0.0161913 0.21982084
-0.031528983 -0.018629855 0.22308816
-0.030806016 -0.021448521 0.22547148
-0.030652832 -0.024194796 0.22787951
-0.030573754 -0.027190184 0.2303893
-0.021567328 0.043950502 0.18143521
-0.021466661 0.042215042 0.18240634
-0.021408528 0.039488725 0.18368064
-0.021350019 0.036992509 0.18545751
-0.022165589 0.033626273 0.18865438
-0.022390969 0.030490078 0.1910007
-0.022088252 0.027435919 0.19243315
-0.021567183 0.024251726 0.194087
-0.021858687 0.020751406 0.19585364
-0.02296171 0.017138695 0.19751917
-0.02313133 0.012570762 0.19917484
-0.022989305 0.0083211279 0.20080929
-0.023618704 0.0042082411 0.20297284
-0.024416801 0.00037883208 0.20600389
-0.025877757 -0.0027833635 0.20939238
-0.027219798 -0.0057290369 0.21307604
-0.028199952 -0.0091285883 0.21654926
-0.02822724 -0.012029896 0.22090028
-0.028311564 -0.015067396 0.22291829
-0.027607512 -0.01762134 0.22596152
-0.026915995 -0.020486562 0.22707991
-0.026802024 -0.023620261 0.22892185
-0.026961232 -0.027056152 0.23152217
-0.01870892 0.042236362 0.18324016
-0.018241873 0.039983295 0.18466973
-0.018253947 0.037249438 0.18589388
-0.01850695 0.034127723 0.18889184
-0.018899631 0.030991746 0.19164461
-0.018865781 0.028119361 0.19326691
-0.018662442 0.024980612 0.19548133
-0.019296641 0.021041038 0.19717298
-0.019963 0.017321158 0.19916919
-0.020116573 0.013281965 0.20098461
-0.020038662 0.0094987405 0.20274051
-0.020745087 0.0058058775 0.20552382
-0.021374915 0.0018946662 0.20805976
-0.0226117 -0.0020544976 0.21187775
-0.023611419 -0.004897519 0.21513931
-0.024356794 -0.0080247018 0.21824741
-0.024384674 -0.011081074 0.22242071
-0.024386663 -0.014209073 0.22446431
-0.023963194 -0.017105432 0.22706811
-0.023015382 -0.020011174 0.22782728
-0.023021936 -0.023513548 0.22857925
-0.023321738 -0.027297433 0.23313861
-0.015408488 0.040241238 0.18535438
-0.015220257 0.037552096 0.18679887
-0.015270432 0.034375664 0.18900853
-0.015203981 0.031245345 0.1915323
-0.015207496 0.028389456 0.19360454
-0.015235146 0.025265716 0.19690874
-0.016440494 0.02100895 0.1992254
-0.016633797 0.017419843 0.20106897
-0.016836358 0.014004792 0.20242123
-0.01700278 0.010680252 0.20424943
-0.017539021 0.0070359991 0.20773175
-0.017579727 0.0039984849 0.21061602
-0.018546659 -1.2232019e-05 0.21370442
-0.020229658 -0.004131665 0.21694365
-0.02097209 -0.0076661403 0.22056036
-0.020839984 -0.010527861 0.22355627
-0.020625483 -0.013733717 0.22537181
-0.020355875 -0.016749404 0.22783008
-0.019554948 -0.019949669 0.22832498
-0.019438911 -0.023521194 0.23012313
-0.019627692 -0.028026724 0.2367353
-0.012586067 0.0374377 0.18799168
-0.012038024 0.034854762 0.18957634
-0.011805872 0.031721011 0.19177055
-0.011665273 0.028836649 0.19413516
-0.012077127 0.025598837 0.19730553
-0.01312125 0.021780066 0.20079665
-0.013210577 0.018517442 0.20295171
-0.013464617 0.015194964 0.20466261
-0.014231395 0.01149807 0.20694208
-0.014191953 0.0080985436 0.21011686
-0.014396686 0.0049885665 0.21245648
-0.014378292 0.0017149126 0.21536969
-0.016327318 -0.0033671542 0.21834746
-0.017392237 -0.0069397446 0.22169892
-0.017356165 -0.0098565165 0.22403368
-0.016973261 -0.012848654 0.2260267
-0.01690685 -0.01600259 0.22861579
-0.016324798 -0.019625843 0.23001722
-0.015876548 -0.02378059 0.23354132
-0.016098669 -0.028412232 0.23967999
-0.0095498301 0.034559783 0.1901893
-0.008709074 0.032295916 0.1926095
-0.0085021472 0.029465733 0.19548014
-0.0089084096 0.026170747 0.19860896
-0.009725756 0.022923553 0.20211168
-0.010012175 0.019695785 0.20492376
-0.010243446 0.016349284 0.20730038
-0.01088412 0.012617066 0.2095876
-0.010718854 0.0090398807 0.21165554
-0.010665821 0.0057767425 0.21438999
-0.010312688 0.0025842488 0.2168944
-0.010632953 -0.0016088862 0.21945682
-0.012551177 -0.005984779 0.2227696
-0.012539068 -0.0090352912 0.22457221
-0.012598629 -0.012174061 0.22728251
-0.012799205 -0.015745331 0.23010825
-0.012727331 -0.019407535 0.2322204
-0.0122506 -0.023974894 0.23603939
-0.012509226 -0.027548352 0.2404843
-0.0056632203 0.032219306 0.19544746
-0.0056652124 0.029726017 0.1978353
-0.0060943007 0.0263601 0.20113799
-0.006479369 0.023292461 0.20358728
-0.0066909268 0.0202983 0.20587176
-0.0068682106 0.016814312 0.20879214
-0.0071088355 0.013074264 0.21090801
-0.0070316019 0.0097102728 0.21246499
-0.0068514417 0.0063996804 0.21500875
-0.0069123078 0.0028706018 0.21740159
-0.0066703181 -0.0010329166 0.22007784
-0.0069504771 -0.0052739284 0.22345911
-0.0075728022 -0.0088844504 0.22594112
-0.0083344728 -0.012380105 0.22806786
-0.008611693 -0.015893247 0.23055682
-0.0087910509 -0.019414835 0.23360452
-0.0090149743 -0.023116054 0.23586084
-0.0033956324 0.031745233 0.19764869
-0.0029019204 0.029585877 0.19904886
-0.0030215853 0.026197316 0.20149891
-0.0031844764 0.023071188 0.20343359
-0.003340564 0.020148667 0.20549658
-0.0036124981 0.016870521 0.2087346
-0.0036604453 0.013353178 0.21133085
-0.0034616429 0.0099185109 0.21300448
-0.0033959935 0.006795669 0.21529345
-0.0032508806 0.0031404174 0.21720834
-0.0032054924 -0.0011672945 0.22096506
-0.0030363945 -0.0049302974 0.22314101
-0.0037253506 -0.0088936146 0.22606073
-0.004260465 -0.012347641 0.22791997
-0.0052376548 -0.015620078 0.23000367
-0.00029913159 0.028691584 0.19984059
9.1766633e-05 0.026109524 0.20160326
-0.00012080483 0.022879729 0.20323373
-7.2214658e-07 0.020055687 0.20519799
-0.00018673496 0.016770817 0.20776783
-8.0745514e-05 0.013502087 0.21027285
4.7406633e-05 0.01035525 0.21262452
0.00010363101 0.0071790866 0.21499735
0.00044737026 0.0036484669 0.21631667
0.00044692852 -0.00059816643 0.21993123
0.00085670222 -0.0044450401 0.22254862
-0.00015272415 -0.0083602564 0.22562221
-0.001726464 -0.011402762 0.22817676
0.0028057992 0.025600318 0.20210798
0.0030671365 0.022913046 0.20293289
0.0033565625 0.020013111 0.20463203
0.003270709 0.0167435 0.20725502
0.0033988724 0.013543023 0.20949219
0.0034864754 0.010541669 0.21159385
0.0031134177 0.0072124647 0.21474765
0.0029430471 0.0041559483 0.21625833
0.0028854192 -0.0002714383 0.21924724
0.0030288862 -0.0033103521 0.22177528
0.0048359884 0.022751253 0.2031378
0.0053442568 0.019810174 0.20479651
0.0054857577 0.016896566 0.20708531
0.0054624169 0.013366216 0.20979245
0 0 0 1 0 0 0 1 0 0 0 1 0 0 0 0 0 354 1 0 0
