ply
format ascii 1.0
comment PCL generated
element vertex 354
property float x
property float y
property float z
element camera 1
property float view_px
property float view_py
property float view_pz
property float x_axisx
property float x_axisy
property float x_axisz
property float y_axisx
property float y_axisy
property float y_axisz
property float z_axisx
property float z_axisy
property float z_axisz
property float focal
property float scalex
property float scaley
property float centerx
property float centery
property int viewportx
property int viewporty
property float k1
property float k2
end_header
-0.055684205 0.030699413 0.1865699
-0.05686605 0.027733555 0.18850343
-0.058119182 0.024373734 0.19106926
-0.05886424 0.020858642 0.19320717
-0.058977943 0.017426854 0.19470525
-0.051311791 0.035373233 0.18295518
-0.05213742 0.033558644 0.18370722
-0.052652404 0.030775461 0.18491772
-0.053053673 0.027816171 0.18635617
-0.054079078 0.024747264 0.18909672
-0.055490699 0.021318547 0.19225626
-0.056259777 0.01780534 0.19408944
-0.056100279 0.015381345 0.19495776
-0.055922072 0.011990257 0.19708523
-0.047732778 0.038015112 0.18067466
-0.048431121 0.036120966 0.18129781
-0.048879042 0.033507094 0.18215159
-0.0492961 0.030820969 0.18373445
-0.049706277 0.027887138 0.18589298
-0.050729565 0.024911987 0.1891661
-0.051368199 0.021895796 0.1914642
-0.052267734 0.019472433 0.19346349
-0.052967925 0.015895113 0.19580957
-0.053252131 0.010978723 0.19952859
-0.052967031 0.0060137436 0.20112406
-0.052814152 0.0024681066 0.20198087
-0.045398511 0.038775347 0.1797066
-0.045623798 0.036228236 0.18065384
-0.045765702 0.033508468 0.18191202
-0.046208713 0.030787522 0.1839657
-0.046709482 0.028156755 0.186233
-0.047603905 0.025233811 0.18945006
-0.04799043 0.022249306 0.19141047
-0.048547037 0.019955589 0.19398716
-0.049632825 0.016119037 0.19709016
-0.049613755 0.010381058 0.20002602
-0.049729738 0.0054913172 0.20130107
-0.049923956 0.002006507 0.20316875
-0.050289128 -0.00082837552 0.20596644
-0.051367637 -0.0025099088 0.20895098
-0.042231426 0.04113457 0.17887767
-0.042593364 0.039132819 0.17989896
-0.042777795 0.03655507 0.18126221
-0.042909104 0.033853736 0.18299301
-0.043333758 0.031186944 0.18509369
-0.043863431 0.028292535 0.18699096
-0.044652872 0.025461582 0.18969668
-0.044949587 0.022544002 0.19122526
-0.045151405 0.020291498 0.19406629
-0.045851152 0.015953718 0.19764774
-0.046220805 0.010736546 0.19951472
-0.046558794 0.0057094223 0.20072205
-0.046951354 0.0026562475 0.20368624
-0.047440108 0.00023089723 0.20702936
-0.048718028 -0.0021744841 0.21043278
-0.050025158 -0.0047187065 0.21493928
-0.050902076 -0.0085646259 0.21819845
-0.050517745 -0.011010286 0.2208672
-0.039683316 0.041886337 0.17885634
-0.039819513 0.039322998 0.18036373
-0.03988374 0.036720827 0.18183504
-0.040126901 0.034210883 0.18374804
-0.040622033 0.031495675 0.18574609
-0.040957008 0.028540183 0.18784538
-0.041606046 0.025442977 0.18994536
-0.041824047 0.022368155 0.19117586
-0.042037338 0.0204663 0.19424513
-0.042519536 0.016551176 0.19737263
-0.042954456 0.011152007 0.19941585
-0.043028645 0.0064044907 0.19973695
-0.043258298 0.002990124 0.20251608
-0.043614946 0.00048738965 0.20640156
-0.045322448 -0.0017311102 0.21158168
-0.046818227 -0.0043208683 0.2164152
-0.047630019 -0.0084500471 0.21875256
-0.048080929 -0.011370272 0.22133523
-0.048204221 -0.014825361 0.22375666
-0.047983699 -0.017971808 0.22563943
-0.036475703 0.043912545 0.1778561
-0.036710855 0.042199336 0.17936376
-0.036936946 0.039649691 0.18090712
-0.037024919 0.03710926 0.1822767
-0.037167154 0.034532607 0.18448563
-0.037656102 0.031823862 0.18654896
-0.037887674 0.028820015 0.18814699
-0.038457926 0.025577787 0.19038162
-0.0388791 0.022590909 0.19184302
-0.038788196 0.020670375 0.19527076
-0.03946146 0.01679704 0.19824097
-0.040089417 0.011698808 0.20018604
-0.039741062 0.007168286 0.19896202
-0.039489217 0.0032730177 0.20053272
-0.04023229 0.00065886427 0.20651634
-0.041980036 -0.0013133256 0.21283016
-0.043359995 -0.0040301271 0.21733509
-0.044052351 -0.0083222706 0.21905316
-0.044286184 -0.011751095 0.22103067
-0.044438671 -0.015282795 0.22233583
-0.044750102 -0.018627672 0.22415815
-0.044471718 -0.021394141 0.22608598
-0.033665206 0.044126436 0.17843938
-0.033771675 0.042458426 0.17986305
-0.033903349 0.039913788 0.18147704
-0.03408568 0.037383124 0.18285389
-0.034018982 0.034615137 0.18491973
-0.034469888 0.031778138 0.18726483
-0.034958128 0.028885605 0.18926074
-0.035453338 0.025962628 0.19134109
-0.035911903 0.022991862 0.1932738
-0.036018457 0.02079447 0.19709966
-0.036728743 0.016773164 0.19961274
-0.037048694 0.012069218 0.20101497
-0.036838468 0.0078139547 0.20053527
-0.036584858 0.0035140726 0.20071362
-0.037312437 0.0011551484 0.20794781
-0.038985867 -0.00078906305 0.21454702
-0.039557494 -0.0040852935 0.21806237
-0.040349688 -0.008489809 0.21885248
-0.04037527 -0.01210418 0.22007814
-0.040619172 -0.015682133 0.22181739
-0.040620271 -0.018866867 0.22317837
-0.040900696 -0.022055056 0.22519089
-0.030415399 0.044321682 0.17943567
-0.030644285 0.0425837 0.1803852
-0.030764664 0.0399694 0.18216869
-0.03093137 0.037452195 0.18460201
-0.031171752 0.034735631 0.18638363
-0.031391855 0.031840708 0.18877305
-0.03173374 0.028994342 0.19087961
-0.032252364 0.026057197 0.1926436
-0.032863963 0.023295056 0.19431168
-0.033087231 0.020921495 0.19841729
-0.033789065 0.016888136 0.20063052
-0.034066923 0.012227888 0.20205024
-0.033965144 0.007995096 0.20232618
-0.033798825 0.0040311436 0.20297031
-0.035014387 0.0026847979 0.21115687
-0.035742346 -0.00020230809 0.21643044
-0.036043473 -0.0038551062 0.21803048
-0.036993518 -0.0087711234 0.21876803
-0.036993228 -0.012368028 0.22014961
-0.037155218 -0.015704332 0.22196674
-0.037132483 -0.01897165 0.22276425
-0.037374195 -0.022227354 0.22487597
-0.027397702 0.044436257 0.17983833
-0.027391864 0.042614501 0.18095692
-0.027547723 0.040007871 0.18297592
-0.027811594 0.037550982 0.18608065
-0.028236376 0.034919683 0.18821065
-0.028470712 0.032098554 0.19016859
-0.028542494 0.02917145 0.19157724
-0.028760701 0.026425907 0.19341885
-0.029194715 0.023591204 0.1957493
-0.029841268 0.021195231 0.19971435
-0.030899862 0.016464325 0.20257501
-0.030961454 0.012196893 0.20389412
-0.030737877 0.0085200099 0.20505206
-0.030950731 0.0055124192 0.20845594
-0.031462777 0.0032697779 0.2127813
-0.031999089 -3.6710731e-05 0.21602891
-0.03230536 -0.0038479662 0.21770331
-0.03360419 -0.0087481299 0.21926206
-0.033664744 -0.012221388 0.22086161
-0.033802491 -0.0154915 0.22297098
-0.033765767 -0.018918891 0.22424075
-0.033762727 -0.022556672 0.22717309
-0.033300176 -0.025283689 0.22997364
-0.024016967 0.044410385 0.18057464
-0.024166975 0.042785518 0.1817214
-0.024121262 0.040161248 0.18333434
-0.024564497 0.037689611 0.18620773
-0.025094114 0.035186529 0.18876539
-0.025356753 0.03235824 0.19106546
-0.025480391 0.029466594 0.19253722
-0.025649704 0.02651849 0.19480039
-0.025842663 0.023772096 0.19736968
-0.026928311 0.021276042 0.2011067
-0.027367566 0.016961494 0.20409884
-0.02727131 0.013073732 0.2057711
-0.027361702 0.009465782 0.20791875
-0.027525442 0.0062989374 0.21061815
-0.028038591 0.0034777552 0.21351089
-0.028445939 2.7936036e-05 0.21664664
-0.02946605 -0.0049501979 0.21738739
-0.029788341 -0.0084889177 0.2205577
-0.029960768 -0.011914534 0.22213462
-0.03008051 -0.015395081 0.22506095
-0.029735945 -0.019099344 0.22715874
-0.029776515 -0.022792596 0.22927423
-0.029818987 -0.026584838 0.23131295
-0.020905677 0.044754107 0.1810223
-0.020950504 0.04305128 0.18218432
-0.021026945 0.040348649 0.18360348
-0.02115239 0.037875544 0.18556066
-0.021786937 0.035303067 0.189046
-0.022022061 0.032689627 0.19175301
-0.022242809 0.029858936 0.19373938
-0.022285558 0.027050149 0.19609527
-0.022848975 0.024055637 0.19906506
-0.023437416 0.020260284 0.20184094
-0.023467423 0.016300328 0.20387131
-0.023393976 0.012613364 0.20588166
-0.023811292 0.0089028394 0.20802791
-0.024072286 0.0066603036 0.21201202
-0.024607429 0.003620968 0.21483766
-0.024863038 0.00010411156 0.21704829
-0.026008099 -0.0045439866 0.21861915
-0.026052225 -0.0082261078 0.22199465
-0.02613825 -0.011835469 0.22295405
-0.026013039 -0.015547542 0.22625689
-0.02592684 -0.01942564 0.22879915
-0.026041163 -0.023248268 0.23033383
-0.026248904 -0.027081875 0.23244755
-0.018269217 0.042993717 0.18311852
-0.018009227 0.040733036 0.18461497
-0.018056614 0.03795987 0.18592058
-0.018433105 0.035282623 0.18914627
-0.018839385 0.032689307 0.1920642
-0.019013276 0.030022569 0.19417739
-0.019278312 0.027377965 0.19706085
-0.019904643 0.024024896 0.20038319
-0.020275714 0.020229133 0.20310549
-0.020284928 0.016516857 0.20525633
-0.020081943 0.013161549 0.20720811
-0.020470981 0.0094974423 0.20998198
-0.020922879 0.0060503716 0.21211568
-0.021730972 0.0027523066 0.21563806
-0.022114066 -0.00078583957 0.21802254
-0.022601796 -0.004319658 0.22034982
-0.022481801 -0.0077953157 0.22397645
-0.022328179 -0.011666331 0.22466032
-0.022418452 -0.015582384 0.2270546
-0.021981439 -0.019521451 0.22933923
-0.022146966 -0.023246519 0.22961135
-0.022498151 -0.027400345 0.23399171
-0.015161189 0.040851098 0.18538308
-0.015156013 0.038169749 0.18697891
-0.015232394 0.035374355 0.1892655
-0.015389672 0.032675605 0.19222741
-0.015608577 0.030037219 0.19465767
-0.015878333 0.027349867 0.19860388
-0.016671119 0.023775809 0.20273973
-0.016785925 0.020326775 0.20484768
-0.016877925 0.016998313 0.20639963
-0.016770007 0.013529291 0.20819177
-0.017158126 0.0099580409 0.21148139
-0.017213125 0.0069758864 0.21396819
-0.017742015 0.0032765558 0.21678668
-0.018672921 -0.00048257748 0.21957153
-0.019245805 -0.0040685004 0.22269984
-0.019122489 -0.0075411326 0.22571445
-0.018713266 -0.011561672 0.22648467
-0.018605918 -0.015731024 0.22870237
-0.018271364 -0.019649923 0.22930416
-0.018302804 -0.023484329 0.23101006
-0.018729353 -0.027855746 0.23724839
-0.012544026 0.038101733 0.18834823
-0.012072191 0.035641231 0.19018836
-0.012158137 0.032905936 0.1930539
-0.012285535 0.030171571 0.19587161
-0.012600678 0.027233319 0.19935471
-0.0131486 0.023813576 0.20366736
-0.013121858 0.020684872 0.20611255
-0.01326735 0.017359372 0.20804414
-0.013601017 0.013923655 0.21011145
-0.013639854 0.010530344 0.21315654
-0.013903827 0.0073014577 0.21531518
-0.013889679 0.0038941787 0.21776822
-0.014930147 -9.5732968e-05 0.22078228
-0.015572005 -0.0035751024 0.2242004
-0.015562291 -0.0072775991 0.22674337
-0.015036338 -0.011503913 0.22843884
-0.014742221 -0.015605698 0.23026158
-0.014630419 -0.019731991 0.23083414
-0.014583048 -0.023833364 0.23428424
-0.014994884 -0.028209649 0.24043272
-0.0097829336 0.03523453 0.19109964
-0.0090292972 0.032998893 0.19382127
-0.0089551751 0.030218715 0.19687659
-0.0091134226 0.027088236 0.19964996
-0.0095247077 0.024051221 0.20351563
-0.0095052123 0.020973774 0.20674299
-0.0094916318 0.017721213 0.20925781
-0.010062971 0.014413316 0.2117978
-0.010063917 0.010919486 0.2139779
-0.010134985 0.0076277126 0.21666221
-0.010043716 0.0042458875 0.21924977
-0.010434722 0.00037078455 0.22173283
-0.011506268 -0.0035700614 0.22498736
-0.011099637 -0.0073369578 0.22730155
-0.010861523 -0.011399085 0.22941509
-0.010835026 -0.015535247 0.23126051
-0.010797023 -0.019641438 0.23271799
-0.010848159 -0.024020394 0.23666486
-0.011413264 -0.02749656 0.241015
-0.0057185832 0.032477986 0.19636418
-0.0056917919 0.030098379 0.19848435
-0.0057945051 0.026888542 0.20128264
-0.0060435673 0.024019364 0.20422262
-0.0061099054 0.021224376 0.20705511
-0.0060377303 0.017830525 0.21009722
-0.0062517296 0.014464573 0.21252792
-0.0062405495 0.011266151 0.2146249
-0.0062599606 0.0077843587 0.21700479
-0.0065229707 0.0041652168 0.2197971
-0.0066353185 0.00031803243 0.22204457
-0.0067914086 -0.0038903621 0.22461662
-0.0067926217 -0.0076693376 0.2273681
-0.0069526508 -0.011663557 0.22944221
-0.0068236482 -0.015602623 0.23100227
-0.0069483458 -0.019619128 0.2336735
-0.0073843407 -0.023315402 0.23630844
-0.003129469 0.031877458 0.19799849
-0.0026154942 0.029932853 0.19906518
-0.0025424876 0.02684122 0.20129424
-0.0026541373 0.023882749 0.20386663
-0.0026125161 0.021188838 0.20679651
-0.0027604669 0.018080804 0.21012111
-0.0027097478 0.014601993 0.21299334
-0.0026373346 0.011189053 0.21501914
-0.0026554312 0.0077498653 0.21729445
-0.0028709956 0.0041276789 0.21931416
-0.0030449403 3.96781e-05 0.22254586
-0.0029904321 -0.0037716599 0.22411646
-0.0030303837 -0.0077621257 0.22678326
-0.0030989801 -0.011394616 0.22836033
-0.0036674666 -0.015067807 0.22999294
0.00010578115 0.029409099 0.20002088
0.00067224965 0.027104052 0.20177798
0.00050307921 0.023964068 0.2038314
0.00078086287 0.02136532 0.20639141
0.00084868603 0.018214 0.20921339
0.0010174771 0.014775563 0.21169725
0.000910651 0.011295106 0.21444717
0.00087825983 0.0078713978 0.21694639
0.0009351318 0.0042238664 0.21807846
0.00065143808 0.00033468744 0.22139587
0.00095558446 -0.0035579579 0.22339942
0.00027708939 -0.0072864234 0.22592442
-0.00060638069 -0.010515326 0.22848281
0.0036165125 0.027034314 0.20248201
0.0039550397 0.02434217 0.20350356
0.0042736484 0.021500526 0.20583013
0.0044436762 0.018262802 0.20862427
0.004551454 0.014800833 0.21105774
0.0043389043 0.011525252 0.21329401
0.0038761788 0.0078541664 0.21654129
0.0034918757 0.0046065673 0.21785356
0.003218577 0.00055376947 0.2204791
0.003230168 -0.002543773 0.22274522
0.0058123991 0.024420286 0.20392555
0.0065701921 0.021409791 0.20608301
0.0066945422 0.018391024 0.20847927
0.0066085784 0.014625656 0.21136349
0 0 0 1 0 0 0 1 0 0 0 1 0 0 0 0 0 354 1 0 0
