ply
format ascii 1.0
comment Automatically gnerated by model-converter
element vertex 764
property float x
property float y
property float z
element face 0
property list uchar int vertex_indices
end_header
-0.029442861 0.018840474 0.088736063
-0.030029489 0.017643972 0.090407582
-0.030271171 0.016208855 0.091122244
-0.030509168 0.014677075 0.091677206
-0.030914022 0.013162532 0.092646321
-0.03136206 0.011693421 0.09365655
-0.031577889 0.010170805 0.09435181
-0.031808074 0.0087331999 0.094976708
-0.03239445 0.0072269813 0.096310034
-0.032966794 0.0056220801 0.098202825
-0.033920763 0.0039147785 0.10042809
-0.034425891 0.0022357684 0.10155039
-0.034547325 0.0005038452 0.10196159
-0.034839381 -0.0011333938 0.10266946
-0.035380981 -0.0028796884 0.10379545
-0.036186729 -0.0046639977 0.10561326
-0.037358236 -0.0064043909 0.10868794
-0.02847664 0.01909283 0.090012204
-0.028843506 0.017866702 0.091308106
-0.029045058 0.016342703 0.09181139
-0.029291693 0.014790135 0.092341364
-0.029742035 0.013271451 0.093373625
-0.030119338 0.011762457 0.094235841
-0.03043653 0.010310701 0.095315038
-0.030809916 0.0088005223 0.096151964
-0.031264514 0.0072860805 0.097455215
-0.031953775 0.0057387712 0.099300967
-0.032709682 0.0040148804 0.10133258
-0.033159138 0.002335759 0.10255684
-0.033261797 0.00059605446 0.10297144
-0.033642442 -0.0011315076 0.10388748
-0.034238273 -0.0029390894 0.10519558
-0.034972399 -0.0047952454 0.10686352
-0.035756941 -0.0066790523 0.10877363
-0.026715118 0.018904653 0.088927461
-0.027238905 0.017854026 0.090876762
-0.027757784 0.016333957 0.09231617
-0.028030129 0.014841599 0.093081859
-0.028401118 0.013396585 0.094011249
-0.028669323 0.011847321 0.094730749
-0.028963275 0.010324733 0.09572065
-0.029315122 0.0088828768 0.096622254
-0.029920709 0.0073327078 0.098467591
-0.030675924 0.0058067235 0.10037813
-0.031261422 0.0041412251 0.10215145
-0.031799795 0.0023285869 0.10360656
-0.032013103 0.00060879571 0.10451735
-0.032344594 -0.0011807073 0.10531717
-0.032823079 -0.0029918597 0.10639404
-0.033600735 -0.0049364035 0.1081746
-0.034087387 -0.00682803 0.10949898
-0.025071551 0.018809746 0.088346397
-0.025644777 0.017809483 0.090457561
-0.026407804 0.016495192 0.092837236
-0.02677641 0.014957349 0.093951696
-0.027239265 0.013554584 0.095384192
-0.027445843 0.011968755 0.095882542
-0.027657793 0.010410135 0.096509577
-0.027871461 0.0089085789 0.097377969
-0.028415271 0.0073783626 0.099031553
-0.029218243 0.0059045658 0.10149907
-0.029765208 0.0041976311 0.10287973
-0.030164692 0.0024520347 0.10413167
-0.030614582 0.00051329884 0.10562431
-0.030963229 -0.0012770714 0.10673395
-0.03129167 -0.0030479714 0.1074987
-0.031864439 -0.0048271718 0.1087111
-0.032410427 -0.0067881768 0.11025649
-0.023552401 0.018755009 0.088239048
-0.024161163 0.017808845 0.090560458
-0.024906673 0.016515192 0.092806552
-0.025161739 0.015091206 0.093967062
-0.025653133 0.013555087 0.095369288
-0.025846952 0.011987413 0.096041903
-0.02626124 0.01045213 0.097344815
-0.026504468 0.0089781673 0.0984844
-0.026879068 0.0074069339 0.099485481
-0.027504667 0.0058947799 0.10171955
-0.027992109 0.0042310458 0.10283556
-0.028233482 0.0024536719 0.104174
-0.029049771 0.00059075108 0.10619385
-0.029398738 -0.0013380831 0.10761429
-0.029747185 -0.0031631637 0.1085013
-0.030138921 -0.0049224112 0.10946862
-0.030505871 -0.0067434233 0.11056811
-0.021959843 0.018616306 0.087812561
-0.022763383 0.017658668 0.0906349
-0.023263732 0.016428838 0.092681129
-0.02346549 0.015034706 0.093481016
-0.023873742 0.013533785 0.094873977
-0.024201383 0.011949528 0.096067658
-0.024684416 0.010484288 0.097854089
-0.025011481 0.0089536561 0.098837034
-0.025269833 0.0073866942 0.099803397
-0.025694865 0.0058163204 0.10122608
-0.026033225 0.0042086759 0.1024133
-0.026647951 0.0025020276 0.10418727
-0.027192829 0.00049107668 0.10638016
-0.027645755 -0.001375811 0.10787903
-0.027970674 -0.0033130951 0.10881087
-0.028239425 -0.0051760431 0.10970113
-0.028556639 -0.0070032378 0.11062112
-0.020262112 0.018361971 0.087243791
-0.021153716 0.01755939 0.090325343
-0.021577205 0.016384066 0.09233598
-0.021889561 0.015015476 0.093592516
-0.022205475 0.013580276 0.094759229
-0.022622731 0.011907989 0.096165822
-0.023096995 0.010541348 0.098105432
-0.023370196 0.0090233502 0.09921726
-0.023566246 0.0074294882 0.09995391
-0.023829283 0.005814956 0.10089123
-0.024115721 0.00420468 0.10196778
-0.024616653 0.0024878699 0.10398736
-0.025257056 0.00054447386 0.10624573
-0.025805166 -0.0014803413 0.10787961
-0.026152921 -0.0033621465 0.10902086
-0.026377819 -0.0052265487 0.1100115
-0.026868271 -0.0068722267 0.1105141
-0.018733105 0.01813948 0.087288621
-0.019531755 0.017455455 0.089999299
-0.019963059 0.016306098 0.092150061
-0.020234885 0.014941115 0.093371027
-0.020618659 0.013544623 0.094949498
-0.020939672 0.011923328 0.096013279
-0.021361876 0.010495601 0.097790956
-0.02162576 0.0090243282 0.099155057
-0.021789703 0.0073949745 0.099875462
-0.022061897 0.0058023191 0.10086498
-0.022273949 0.0041490411 0.10164839
-0.022647327 0.0025352856 0.10342386
-0.023190458 0.00070721443 0.10555569
-0.023820128 -0.0013590457 0.10740023
-0.024134756 -0.0032826238 0.10853072
-0.024399985 -0.0052567979 0.10957378
-0.024572922 -0.0070942287 0.11046715
-0.017149933 0.018098231 0.087001414
-0.017660745 0.017212762 0.08933512
-0.018197413 0.016208416 0.09161546
-0.018560588 0.014907278 0.093344208
-0.018956071 0.013502066 0.094973858
-0.019208489 0.01182792 0.095782662
-0.019539831 0.010397224 0.097296825
-0.019908035 0.0090403141 0.099187111
-0.020109024 0.0074326407 0.099997231
-0.020290494 0.0057502221 0.1006118
-0.02045914 0.0041493901 0.10147498
-0.020727533 0.0025251002 0.10293683
-0.021051403 0.00075333003 0.10435924
-0.021494309 -0.0012104232 0.10585874
-0.021942869 -0.0032649076 0.10740716
-0.022372927 -0.0052032048 0.10849363
-0.022465395 -0.007116575 0.10939901
-0.022518914 -0.0090413932 0.11029163
-0.015590099 0.017916833 0.086224231
-0.016014713 0.017067967 0.088668885
-0.01638142 0.016025988 0.090687968
-0.016807063 0.014790999 0.092764315
-0.017221744 0.013398304 0.094713948
-0.017424547 0.011837644 0.095837893
-0.017809224 0.010339549 0.097087849
-0.018193762 0.0090384267 0.099014709
-0.018361645 0.0074519293 0.099792562
-0.018457091 0.0057251266 0.10033126
-0.018670188 0.0041282579 0.10127175
-0.018813386 0.0025173532 0.10225444
-0.019115146 0.00070791034 0.10361278
-0.019427606 -0.0011692415 0.10456468
-0.019662316 -0.0030939888 0.10558601
-0.019942744 -0.0050070276 0.10653256
-0.020073931 -0.006966282 0.10761446
-0.020328563 -0.0088885431 0.10877344
-0.020674828 -0.010902206 0.11053672
-0.013980804 0.017803381 0.085490999
-0.014414584 0.016922793 0.0879039
-0.014670633 0.015791102 0.089900113
-0.015054873 0.014683911 0.092375889
-0.015352663 0.013294609 0.094276443
-0.015522876 0.011821996 0.095782344
-0.015992413 0.010372553 0.097112517
-0.016397271 0.0089765287 0.098791354
-0.01654185 0.0074316743 0.099692649
-0.016668009 0.0057743226 0.10029373
-0.01680946 0.0041304973 0.10097039
-0.016939235 0.0024423989 0.10167251
-0.017205211 0.00067959543 0.10271274
-0.017341473 -0.0011490366 0.10312274
-0.017458856 -0.0030225915 0.10360667
-0.01754373 -0.0048654904 0.10444729
-0.017841713 -0.0069164422 0.10598845
-0.018019244 -0.0088639691 0.10726667
-0.018347113 -0.010894433 0.10921173
-0.018460286 -0.012507599 0.11090613
-0.012454332 0.017762741 0.085057207
-0.012890763 0.016841192 0.087648382
-0.013030428 0.015685811 0.089316258
-0.013269497 0.014669948 0.091954738
-0.013506074 0.013321462 0.093771948
-0.01354905 0.011935599 0.095323039
-0.013495798 0.010548073 0.096907238
-0.013924383 0.0090990118 0.098404621
-0.01467603 0.0074486149 0.099391492
-0.014701377 0.0058727754 0.10014289
-0.014942863 0.0041614086 0.10077741
-0.015024414 0.0023918131 0.10098561
-0.015169026 0.00064933831 0.10151869
-0.015293253 -0.0011216984 0.10214136
-0.015334015 -0.0029425384 0.10231258
-0.015439992 -0.0047896957 0.10313889
-0.015711425 -0.0067877616 0.10448945
-0.01588404 -0.0086977739 0.10585892
-0.016193162 -0.01065938 0.10785978
-0.016575164 -0.012786761 0.11056232
-0.011005011 0.017684176 0.084725084
-0.011242323 0.016752485 0.086809868
-0.011438125 0.015541989 0.088801739
-0.011488986 0.014484561 0.090897903
-0.011595537 0.013398581 0.093158228
-0.011511534 0.011938739 0.094100064
-0.011363391 0.010545801 0.095225944
-0.011159707 0.0091961425 0.096633187
-0.010958387 0.0078221807 0.09805977
-0.012681847 0.0058183627 0.099131597
-0.013064034 0.0040733809 0.10011999
-0.013206196 0.0023595585 0.10066931
-0.013255105 0.00059400821 0.10092863
-0.013298706 -0.001171454 0.10126119
-0.013449499 -0.0029503497 0.10175714
-0.013596266 -0.0047925595 0.10262984
-0.01367113 -0.0066897577 0.10335796
-0.013850482 -0.0085261456 0.1046536
-0.014147601 -0.010522071 0.10675155
-0.014515167 -0.012626557 0.10938098
-0.0095613829 0.017531898 0.084184765
-0.0097346811 0.016736053 0.086520328
-0.009897021 0.015481133 0.088372059
-0.0099533397 0.014252518 0.090098643
-0.0097914587 0.013213613 0.091748331
-0.0097055552 0.011904025 0.092998977
-0.0094975637 0.010481006 0.093848254
-0.0092362472 0.0090587324 0.094750883
-0.0090200304 0.0076839712 0.095870092
-0.0090458705 0.006189913 0.097097596
-0.010124204 0.004361806 0.099237879
-0.011181232 0.0023931197 0.099786812
-0.011391575 0.00061704032 0.10042172
-0.011496706 -0.0011349394 0.10071259
-0.011574725 -0.0029319025 0.10129754
-0.011749646 -0.0048027931 0.10234726
-0.011843887 -0.0066147087 0.10310356
-0.01188172 -0.0084592738 0.10383716
-0.012086882 -0.010395197 0.10588823
-0.012415157 -0.012517839 0.10835008
-0.0081151057 0.017486528 0.084044416
-0.0082223443 0.016626794 0.086083526
-0.0083499807 0.015436672 0.087733009
-0.0084489504 0.014159528 0.089396904
-0.0082943584 0.01301359 0.09083075
-0.0080677237 0.011580586 0.091290131
-0.0077330297 0.010295895 0.092103401
-0.0075955098 0.0088855712 0.092884616
-0.0075322068 0.0074258968 0.093853612
-0.007668437 0.0058650367 0.094830117
-0.00799353 0.0042628597 0.096337674
-0.0085698302 0.00250863 0.098048571
-0.0091552416 0.00080853666 0.099737565
-0.0095377038 -0.00096188322 0.10037891
-0.0097666814 -0.0028113689 0.10123109
-0.0098780587 -0.0046884824 0.10202238
-0.0099220434 -0.0064929846 0.10256842
-0.010023204 -0.0083523765 0.1036573
-0.010264769 -0.010324734 0.10553966
-0.010390304 -0.012334736 0.10765356
-0.010705437 -0.014427161 0.11060926
-0.0067194993 0.017415917 0.083672325
-0.006726079 0.016508867 0.085351872
-0.0068323206 0.015377636 0.087094853
-0.0069108222 0.014051434 0.088409225
-0.0068585953 0.012749978 0.089603185
-0.0066195812 0.011517803 0.090344674
-0.006132129 0.0099343398 0.090708116
-0.0060984771 0.0084688699 0.091331453
-0.0061960662 0.0070431224 0.092397116
-0.0063515969 0.0055407339 0.093251014
-0.006564746 0.003920367 0.094327831
-0.0068725478 0.0022303297 0.095868873
-0.0074283099 0.00054931482 0.097895251
-0.0076731707 -0.0011174788 0.0997173
-0.0078829211 -0.0027211151 0.10120208
-0.0080055722 -0.0045812671 0.10190046
-0.0080654247 -0.0063585256 0.10247646
-0.0081779562 -0.008221993 0.10353643
-0.0083344554 -0.010184827 0.10542685
-0.0085085865 -0.012303088 0.10737214
-0.0087694993 -0.014590553 0.11057196
-0.0052652293 0.017353075 0.082988545
-0.0052624884 0.016381539 0.084595534
-0.0053092237 0.015257933 0.086203097
-0.0053610063 0.013938081 0.087528752
-0.0053983082 0.012524636 0.088709825
-0.0053307583 0.011030539 0.089120224
-0.0050011918 0.009654363 0.089584867
-0.005005818 0.008130573 0.089904659
-0.0051487973 0.006605605 0.090418067
-0.0052413249 0.0051184267 0.091497912
-0.0053456899 0.0034183088 0.092705411
-0.0055262479 0.0018045905 0.094064312
-0.0057175479 0.00018024794 0.096084636
-0.0058881586 -0.0012291836 0.099146431
-0.006121715 -0.0028566303 0.10096447
-0.0062604493 -0.0045682533 0.10189973
-0.0062725218 -0.0063030258 0.10251189
-0.006359126 -0.0080926339 0.1038196
-0.0064739766 -0.010151569 0.10535242
-0.0066369237 -0.012287563 0.10753137
-0.0068233493 -0.01461932 0.11056546
-0.003815589 0.016212088 0.083717263
-0.0038312836 0.015237755 0.085874652
-0.0038509231 0.01392592 0.087245364
-0.0038638881 0.012499959 0.088403134
-0.0038418546 0.010997375 0.08876022
-0.003785876 0.0094823565 0.088939525
-0.0038801233 0.0079235093 0.088873277
-0.0040080412 0.0063621267 0.088982648
-0.0040796265 0.0047705278 0.089861332
-0.0039283556 0.0030761865 0.091627815
-0.0040400047 0.0013686647 0.092836416
-0.0041898527 -0.00028637048 0.094704807
-0.0042068577 -0.0014014228 0.098565098
-0.0043970329 -0.0029695349 0.10041288
-0.004465229 -0.0045292141 0.10134317
-0.0045365514 -0.0062024558 0.1024348
-0.0045801473 -0.0080459981 0.10375652
-0.0046298194 -0.010145395 0.10538275
-0.0047530077 -0.01228686 0.10771032
-0.0048739644 -0.014645379 0.11065486
-0.0021547305 0.016311336 0.083730155
-0.0022715724 0.015243421 0.085806486
-0.0023519446 0.013945145 0.08730599
-0.0023541695 0.012506298 0.088121086
-0.0023382768 0.011020574 0.088668606
-0.0023387663 0.0094042891 0.088713883
-0.0024047532 0.007702297 0.088670457
-0.0025273548 0.0061254619 0.088611228
-0.0024927598 0.0046138772 0.089650564
-0.0021800561 0.0025694814 0.091353116
-0.0022494387 0.0010118155 0.092566144
-0.0023801088 -0.00057773573 0.094115891
-0.0025481693 -0.0015404875 0.097943886
-0.0026531158 -0.00300619 0.10026703
-0.0026907084 -0.0046159896 0.1013381
-0.0027435717 -0.0062508498 0.10233528
-0.0027952832 -0.0079700875 0.10388925
-0.002833052 -0.01006187 0.10528653
-0.0028391867 -0.012336366 0.10763181
-0.0030040284 -0.014748709 0.11029692
-0.00073572261 0.016342997 0.08382943
-0.00082355145 0.015229219 0.085744972
-0.00083704992 0.013978475 0.087429565
-0.0008576942 0.012560764 0.088202286
-0.00083157219 0.011061041 0.088793431
-0.00084163275 0.0094935593 0.089013435
-0.00081508382 0.0076186727 0.088979663
-0.00093254379 0.0060747353 0.088896765
-0.00066331439 0.0043206534 0.090028116
-0.00050342584 0.0026487516 0.091460875
-0.00055806472 0.0011197229 0.092927968
-0.00061770935 -0.00043014573 0.094663231
-0.00093446296 -0.0016591045 0.097860777
-0.00092873325 -0.0029972559 0.10016402
-0.00095155322 -0.0046180765 0.10146657
-0.00094721416 -0.006317619 0.10264619
-0.001039226 -0.0081239662 0.10377012
-0.0010512946 -0.010147504 0.10586093
-0.0010505395 -0.012529152 0.10801882
-0.00095772895 -0.015016019 0.11058903
0.00068666789 0.016359422 0.083802942
0.00064415353 0.015232602 0.085845874
0.00062366516 0.014042958 0.087335024
0.00062748883 0.012608049 0.088553821
0.0006624718 0.011028087 0.089098094
0.00062838912 0.009334637 0.089473709
0.00064907974 0.0076966316 0.090021113
0.00073128594 0.0059779874 0.09050184
0.00087112225 0.0044139342 0.09176253
0.00093875444 0.0028929628 0.092911324
0.0010105623 0.0013009092 0.093764293
0.00094142484 -0.0002585084 0.09533587
0.0008132261 -0.0015377295 0.098147829
0.00076791004 -0.0030484727 0.1000178
0.00076665513 -0.0046466564 0.10148741
0.00075966198 -0.0064089809 0.10257552
0.00074091593 -0.0082658675 0.10357082
0.00077221672 -0.010248587 0.10581347
0.00084006927 -0.012533397 0.10796918
0.00093485698 -0.015027447 0.1104233
0.0020938634 0.016395891 0.083884916
0.0021065811 0.015234275 0.085890224
0.0021066258 0.014063215 0.08757738
0.0020849424 0.012720008 0.088935231
0.0019929069 0.011113525 0.089440872
0.0021081895 0.0092874795 0.090140915
0.0021964957 0.0077258923 0.091602854
0.0022509875 0.0061794849 0.092262223
0.0023559872 0.0046746399 0.093186398
0.0024319973 0.0031306638 0.09408554
0.002477361 0.0016101107 0.094914939
0.0024176303 -2.7029269e-05 0.096349684
0.0025256387 -0.001432908 0.098765988
0.0025393169 -0.0030931985 0.10007356
0.0025351848 -0.004767211 0.10116247
0.0024868686 -0.0064987194 0.10253239
0.0025362892 -0.0083452243 0.10346235
0.0026504206 -0.01032542 0.10558863
0.0027519176 -0.012574773 0.10784309
0.0028392417 -0.015030194 0.11016192
0.0035047225 0.016381817 0.083799201
0.0035577586 0.015166384 0.085730703
0.0035694439 0.01401172 0.087745009
0.0035585253 0.012624505 0.088768466
0.0035094305 0.011142097 0.089384287
0.0035864417 0.0093996631 0.090284235
0.003604647 0.0078904135 0.091893288
0.0037078621 0.0064212654 0.092981886
0.0038395017 0.0049352692 0.09384867
0.0038161477 0.0034661626 0.094778354
0.0039229846 0.0018984304 0.095798423
0.0039608943 0.00025947699 0.097587743
0.0042442113 -0.0014875326 0.099301986
0.0043227334 -0.003136854 0.10045569
0.0043046441 -0.0048280166 0.10136462
0.0043097201 -0.0065672123 0.10254062
0.0043251177 -0.0084445576 0.10361713
0.0044099263 -0.010475181 0.10570761
0.0046328749 -0.01271083 0.10794718
0.0048370544 -0.015012883 0.11046484
0.0049217 0.016356896 0.083992514
0.0049574269 0.0151731 0.085606486
0.0049962042 0.013974997 0.08746112
0.005037683 0.01260494 0.088357689
0.0050168823 0.011193286 0.089461545
0.0051020374 0.0095936416 0.090554999
0.0051415794 0.0081453435 0.091735172
0.0051473056 0.0067378003 0.093415403
0.0053379635 0.0051676448 0.09431715
0.0053952271 0.0037084753 0.095535149
0.005350562 0.0021953527 0.097248978
0.0055672854 0.00044622365 0.098722638
0.0060337189 -0.0014881789 0.099871695
0.0060715017 -0.0031047562 0.10097518
0.0060963179 -0.0048766344 0.10165189
0.0061235076 -0.0066280858 0.1027214
0.0061070513 -0.0084906062 0.10405934
0.0062165947 -0.010730922 0.10565617
0.0065517101 -0.013031889 0.10802127
0.0063106889 0.016323495 0.084438077
0.0063940908 0.015150246 0.085561741
0.0064594463 0.013891369 0.087030937
0.0064861043 0.012509535 0.087833776
0.0065321747 0.01117635 0.089270637
0.0066552818 0.0097424844 0.090353679
0.0067158437 0.0083243901 0.091773163
0.0067343609 0.006929425 0.093419376
0.0069191829 0.0054203673 0.094776901
0.007075658 0.0036408683 0.096341139
0.0071972054 0.0022002581 0.098180951
0.0075957741 0.00022985888 0.09938612
0.0077612771 -0.0014751806 0.10030675
0.0078549433 -0.003194774 0.10138851
0.0079191616 -0.0049249787 0.10230381
0.0079785413 -0.0067617858 0.1032848
0.007956487 -0.0087619259 0.10444176
0.0081857113 -0.011105808 0.10612758
0.0084795062 -0.013483925 0.10807575
0.008744186 -0.015525702 0.10975978
0.0076077948 0.017442827 0.083467013
0.0077427773 0.016341381 0.084752607
0.0078504075 0.015156399 0.085754445
0.0079479789 0.013903089 0.087058103
0.0079392395 0.012490523 0.087660272
0.0079935131 0.011102247 0.089168653
0.0080783771 0.0097394367 0.090265417
0.0082460767 0.0084571459 0.091527681
0.0082776731 0.0071768903 0.094037555
0.0085550371 0.0053880448 0.094963427
0.0087564513 0.0036864545 0.096615446
0.0090310916 0.0020641416 0.098695084
0.009283253 0.00024099239 0.09972724
0.0094819772 -0.0014951499 0.10075415
0.0096640107 -0.0031423646 0.10201774
0.0097520601 -0.0050228722 0.10260482
0.0098998614 -0.0070555869 0.10335737
0.010009113 -0.0091067293 0.10477148
0.010176355 -0.011440604 0.10640088
0.010346488 -0.013905855 0.1079174
0.0090141936 0.017447021 0.083529593
0.0091687504 0.016345976 0.084823331
0.0092440218 0.015110097 0.08575692
0.0093195066 0.013895409 0.087046201
0.0094263474 0.01249077 0.088041526
0.0094988443 0.011126944 0.089292533
0.0095738601 0.0097270886 0.090220424
0.0097010876 0.0082828503 0.091309411
0.0099636894 0.0071200003 0.094150193
0.010232886 0.0053284287 0.094872594
0.010583299 0.0037625813 0.097343351
0.010740634 0.0020901264 0.098897865
0.010916395 0.00027084957 0.099687028
0.011120252 -0.0014864068 0.10079399
0.011423767 -0.0033051049 0.10205583
0.011552006 -0.0051455846 0.102688
0.011785094 -0.0071612468 0.10384537
0.011969908 -0.0092508519 0.10525839
0.012104752 -0.011722427 0.10699069
0.012208878 -0.014167709 0.10837585
0.010404023 0.017432364 0.083537786
0.010528741 0.01631953 0.084468477
0.010571155 0.015038174 0.085411247
0.010752582 0.013850371 0.086755918
0.010872668 0.012531172 0.087719605
0.011024229 0.011187578 0.089102383
0.011100553 0.0098099488 0.090185789
0.011218985 0.0084149423 0.091274375
0.01160797 0.0069391626 0.093660579
0.011916197 0.0053566067 0.095290133
0.012212177 0.0038327693 0.097552545
0.01246288 0.0021273617 0.099041095
0.012686254 0.00036387443 0.099935469
0.012854944 -0.0014378466 0.10090376
0.013148593 -0.0032286753 0.10208182
0.01339997 -0.0051214369 0.10302898
0.013663174 -0.0072117324 0.10442041
0.013811834 -0.0095009771 0.10643981
0.014018131 -0.011961273 0.10799875
0.014156446 -0.014108849 0.10898242
0.01190103 0.017565206 0.084173499
0.011976962 0.016341326 0.084638839
0.011993245 0.015052046 0.085393763
0.012227497 0.013845339 0.086840635
0.012357372 0.012520689 0.087629224
0.012495178 0.011156414 0.088910765
0.012588513 0.0097933888 0.089956126
0.012694623 0.0083958041 0.090968449
0.013004362 0.0071373805 0.093594444
0.013569572 0.0053439743 0.09541716
0.01387789 0.0038199854 0.097489856
0.01420814 0.0022006792 0.099265383
0.014418736 0.00048542608 0.10026336
0.014682346 -0.0012671067 0.1008621
0.014943628 -0.003114197 0.1023201
0.015198159 -0.0050733519 0.10315476
0.01554832 -0.0073366307 0.1053671
0.015760655 -0.0098375829 0.1078222
0.016118097 -0.01213321 0.10933051
0.013294794 0.017571494 0.084176352
0.013380344 0.016395003 0.084864968
0.013450984 0.015088203 0.085392452
0.01374901 0.013883269 0.087194625
0.013918657 0.012473119 0.087971787
0.013981495 0.011170864 0.089004193
0.01410068 0.0098388758 0.089979316
0.014216854 0.008419788 0.091063278
0.01450489 0.0070736244 0.09291079
0.015181415 0.0052660394 0.095430687
0.015721832 0.0038407741 0.098166149
0.016032924 0.0022652854 0.0995514
0.016315868 0.00047841249 0.10067593
0.01642996 -0.0012808139 0.10118232
0.016713107 -0.0030337774 0.10272068
0.017158006 -0.0051482189 0.10444555
0.017591942 -0.0073366155 0.10703364
0.017969242 -0.0098585527 0.10921194
0.014784855 0.017741494 0.084683522
0.014906303 0.016569578 0.085422897
0.015033604 0.015256276 0.086156257
0.015272109 0.013858209 0.087091051
0.015421596 0.012520669 0.088048616
0.015576919 0.011212717 0.089247347
0.015673363 0.0098637962 0.090257321
0.015892332 0.0085140331 0.091816801
0.016372982 0.0070774365 0.093514188
0.016807575 0.0053260166 0.095255562
0.017457856 0.0038039781 0.098164022
0.017762694 0.0022344212 0.099573164
0.01805026 0.00054346084 0.10078736
0.018274092 -0.0011370402 0.10181381
0.018575339 -0.0030150058 0.10337258
0.01919458 -0.0051282784 0.10578962
0.019950358 -0.0074699398 0.10938108
0.016334249 0.01793146 0.085501734
0.016470958 0.016689444 0.086105283
0.016598073 0.015322333 0.08669929
0.016862403 0.013975702 0.087470982
0.016986002 0.012576773 0.088227042
0.017197727 0.01129126 0.089735595
0.017242027 0.0099273172 0.090693022
0.017621641 0.0084979442 0.092058727
0.018200737 0.0070345581 0.094193912
0.018445844 0.0054027087 0.09531815
0.019110068 0.0038368042 0.097920163
0.019475767 0.0022671085 0.099397359
0.019820827 0.00067521719 0.10095695
0.020247897 -0.0011075894 0.10265277
0.020669504 -0.0030378031 0.10462543
0.02141498 -0.0051240056 0.10746631
0.022168557 -0.0072277021 0.11060002
0.017908229 0.018017871 0.086094024
0.018050911 0.016757776 0.086650019
0.01814836 0.015388465 0.087079206
0.018432432 0.014069546 0.088024357
0.018637198 0.012658577 0.08889163
0.019000476 0.011357913 0.090211683
0.018975912 0.0099235595 0.090857024
0.01916422 0.0084454149 0.091970364
0.019922958 0.0070247728 0.094696542
0.020232988 0.0054533935 0.095943412
0.021005152 0.0039090753 0.098543949
0.021349326 0.0023251777 0.10004653
0.021799488 0.00064225369 0.10155587
0.02228526 -0.0012503998 0.10353337
0.023152775 -0.0031870139 0.10628664
0.023612268 -0.0051050826 0.10901769
0.019331313 0.018022864 0.085978446
0.019623424 0.016795492 0.0869348
0.01981023 0.015464835 0.087591047
0.020076292 0.014158369 0.088434054
0.020317828 0.012751195 0.089241922
0.020622812 0.011334443 0.090267673
0.020643979 0.009869188 0.091018997
0.020816508 0.0084377886 0.092103457
0.021587579 0.0070231387 0.094923184
0.021949589 0.0055250312 0.096262952
0.022854658 0.0039346128 0.098914789
0.02319011 0.0023504178 0.10043336
0.023733334 0.00065509218 0.10233823
0.024477037 -0.0012750361 0.10451631
0.025263954 -0.0031463867 0.10722559
0.025983925 -0.0052395182 0.11049239
0.020755647 0.017932482 0.085739653
0.02116413 0.016786699 0.08696571
0.021510217 0.015476072 0.087813635
0.021717645 0.014171882 0.088688311
0.021859918 0.012738226 0.089170493
0.022127461 0.011303363 0.090000891
0.022206132 0.009800899 0.090827451
0.022575099 0.0084119338 0.092508089
0.023122699 0.0069534304 0.094477361
0.023640966 0.0053901515 0.095908039
0.024528646 0.0039374935 0.098746637
0.025329054 0.0023830892 0.10183269
0.025755396 0.00062917658 0.10317249
0.02657217 -0.0012599299 0.10524171
0.02751223 -0.0032351976 0.10873247
0.022393869 0.017938952 0.086067165
0.02268775 0.016744094 0.086927563
0.023051767 0.015498641 0.087892334
0.023254467 0.014122409 0.088582776
0.023373762 0.012685966 0.088994585
0.023697278 0.0113045 0.089984505
0.024446706 0.009982911 0.091804839
0.02464653 0.0085418569 0.093263403
0.024972768 0.0068893691 0.094541207
0.025942483 0.0054234496 0.097218809
0.026721766 0.0040298567 0.099786131
0.027744373 0.0023485994 0.10312681
0.028287349 0.00060497998 0.10466064
0.028797279 -0.0012786637 0.10650258
0.029768378 -0.0033760587 0.11016993
0.02394547 0.017917321 0.08614501
0.024300824 0.016778469 0.087158658
0.024603844 0.015488737 0.088046532
0.024780191 0.01409478 0.088513779
0.024930514 0.012675871 0.089014986
0.025354305 0.011305663 0.089975425
0.025979801 0.010048341 0.091393546
0.026227896 0.0086389825 0.092390723
0.026683286 0.0071370279 0.094251082
0.027802401 0.0054915661 0.09744686
0.028911952 0.0039615813 0.10095588
0.030273519 0.0023072328 0.10435664
0.030712854 0.00053946129 0.10628354
0.03112369 -0.0012866813 0.10803839
0.03191336 -0.0032482551 0.11076033
0.025388863 0.017892808 0.08588328
0.025820394 0.016744833 0.087090652
0.026134851 0.015450887 0.088042874
0.026314355 0.014109989 0.088512944
0.026479206 0.012657525 0.088984439
0.026869883 0.011252106 0.089491168
0.027175787 0.0099323952 0.090361216
0.027533537 0.0085333895 0.09151991
0.027946145 0.0070796698 0.092972271
0.029318172 0.0055394518 0.09677114
0.031289516 0.0040097548 0.10233049
0.032350869 0.0023297638 0.10543222
0.032691891 0.00053513247 0.10682337
0.033373019 -0.0012485519 0.10893538
0.026928037 0.017948098 0.086222589
0.027296107 0.016780502 0.087212042
0.02763435 0.015450544 0.087889746
0.027939378 0.01415073 0.088670223
0.028198387 0.012587361 0.088843271
0.028366858 0.011148357 0.089243977
0.028554347 0.0097962551 0.089934722
0.029012069 0.008468031 0.091320269
0.03013564 0.007174694 0.09452952
0.030990717 0.0055734906 0.096911366
0.033748805 0.0039342139 0.10382896
0.034536114 0.0023839829 0.10666793
0.035059968 0.00059662394 0.10835025
0.035769128 -0.0012694207 0.110435
0.028092768 0.017845906 0.085393491
0.028778434 0.01682293 0.087225843
0.029149417 0.01552515 0.087979354
0.029425666 0.014076928 0.088374144
0.029608767 0.012534062 0.088552002
0.029764861 0.011074082 0.088980937
0.029888919 0.0096793981 0.089530591
0.030509129 0.0083820304 0.09131939
0.031650416 0.0071065947 0.094316816
0.032299412 0.0056244279 0.096015314
0.036415707 0.0040555814 0.10648674
0.037089477 0.0022383526 0.10828359
0.037494166 0.00039842323 0.10951724
0.038452622 -0.0015618273 0.1109649
0.029019692 0.017622627 0.083875642
0.029929292 0.01674497 0.086261282
0.030440189 0.015424099 0.087392494
0.030836775 0.01405482 0.08819331
0.031036457 0.012558363 0.08842808
0.03121368 0.011096453 0.088907963
0.031573989 0.0096558466 0.089952757
0.031885966 0.008279946 0.090838599
0.032800315 0.0069292482 0.093183543
0.034911155 0.0055039151 0.098133511
0.039029062 0.0039979622 0.10750839
0.039528917 0.0022137751 0.10911271
0.040172504 0.0002554942 0.11027505
0.040590785 -0.0014088506 0.11127688
0.030842207 0.016511921 0.084747993
0.03154373 0.015271891 0.086252024
0.032095784 0.013939998 0.0872613
0.032381096 0.012488472 0.088000375
0.032616326 0.011009395 0.088663492
0.033037108 0.0095533229 0.089847726
0.033494738 0.0081703877 0.091109293
0.034377105 0.006804939 0.093330017
0.039143382 0.0052760954 0.1029731
0.040941035 0.0039587345 0.10758564
0.041692783 0.0022163094 0.10947069
0.042208054 0.00022448925 0.11039993
0.042979709 -0.0014398214 0.11137115
0.032511208 0.015228728 0.084498421
0.033081675 0.013854816 0.085667821
0.033772444 0.012460802 0.087606757
0.034148214 0.010893576 0.088529743
0.034485462 0.0094346429 0.089533013
0.035001085 0.0081007059 0.090853103
0.036964583 0.0067091974 0.095473154
0.041246757 0.00523285 0.10378625
0.042667541 0.0040265775 0.10738079
0.043430856 0.0023284296 0.10889416
0.044061865 0.00030792402 0.11000589
0.044451065 -0.0015807349 0.11058771
