ply
format ascii 1.0
comment PCL generated
element vertex 336
property float x
property float y
property float z
element camera 1
property float view_px
property float view_py
property float view_pz
property float x_axisx
property float x_axisy
property float x_axisz
property float y_axisx
property float y_axisy
property float y_axisz
property float z_axisx
property float z_axisy
property float z_axisz
property float focal
property float scalex
property float scaley
property float centerx
property float centery
property int viewportx
property int viewporty
property float k1
property float k2
end_header
-0.055430382 0.03254566 0.18590817
-0.05598136 0.029556464 0.18691723
-0.056798544 0.026714843 0.18951306
-0.057547674 0.023870552 0.19212857
-0.057861924 0.020780852 0.19411862
-0.051515799 0.034956139 0.18253814
-0.052090555 0.032269713 0.18446627
-0.052337363 0.02923681 0.18523373
-0.053036191 0.026535572 0.18756545
-0.053852081 0.023719702 0.19066299
-0.054566611 0.020853756 0.19354759
-0.054990627 0.017788058 0.19548342
-0.055625185 0.014752051 0.19849585
-0.047881722 0.03755087 0.18023235
-0.048262086 0.034750715 0.18160063
-0.048720874 0.032005414 0.18326686
-0.049139231 0.029163014 0.18480404
-0.049969845 0.026625643 0.18800709
-0.05065421 0.023827611 0.19082123
-0.051287856 0.021011852 0.19360113
-0.051910296 0.018050894 0.19663163
-0.052990317 0.015036081 0.20078185
-0.05382188 0.011544786 0.20504273
-0.05427159 0.007556323 0.20637886
-0.044449817 0.040198784 0.17888044
-0.044717595 0.037467975 0.17996068
-0.045170445 0.034660891 0.18147455
-0.045702837 0.032076743 0.18376216
-0.046205595 0.029277563 0.18563575
-0.047038913 0.026741277 0.18889432
-0.047520634 0.023979697 0.19118002
-0.048086382 0.021277547 0.19403963
-0.048948821 0.018398764 0.19822891
-0.049901176 0.015160547 0.20308816
-0.050981764 0.011549654 0.20745708
-0.051532894 0.0078182276 0.20889372
-0.052157674 0.0045499783 0.21133634
-0.052429412 0.0011804808 0.21258867
-0.041025139 0.042775158 0.17817725
-0.0414945 0.040351726 0.17947437
-0.041849203 0.037668504 0.18080522
-0.042404305 0.034960616 0.18305534
-0.042900171 0.032356929 0.18551767
-0.043316539 0.029472567 0.18703297
-0.044120703 0.026839012 0.1899312
-0.044503521 0.024007296 0.19177531
-0.045113374 0.021378944 0.19453745
-0.045735359 0.018853225 0.19848689
-0.046639394 0.015281403 0.2036496
-0.047551021 0.011616123 0.207522
-0.048357129 0.0080109779 0.21044508
-0.048737798 0.0045676068 0.21208879
-0.049129721 0.001164882 0.21385507
-0.049508985 -0.0023835429 0.21546698
-0.050138623 -0.0057662558 0.21815701
-0.049972884 -0.0089340433 0.21946914
-0.0382642 0.043011297 0.17852274
-0.038578447 0.040461391 0.18010847
-0.038912643 0.037741911 0.18132275
-0.039466642 0.035122812 0.18372464
-0.039999399 0.032493003 0.18638176
-0.04036437 0.029591065 0.18798244
-0.040953573 0.026793623 0.19014767
-0.041329619 0.023893928 0.19162735
-0.041863885 0.021289198 0.19463067
-0.042595692 0.018743604 0.19907017
-0.043239966 0.015309512 0.20363979
-0.043957371 0.01176836 0.20714495
-0.044795517 0.0082612969 0.21045098
-0.045307621 0.0046608327 0.21295178
-0.045630179 0.0012085023 0.21441311
-0.046158563 -0.0021607925 0.21659164
-0.046578661 -0.0058204536 0.21836449
-0.047170416 -0.0095414799 0.22036514
-0.047433268 -0.013956213 0.22108939
-0.047460143 -0.017654248 0.22306275
-0.035115354 0.042885523 0.17859913
-0.03555489 0.040449552 0.18035384
-0.035900269 0.037675485 0.18162803
-0.03637578 0.035091918 0.18405047
-0.036929578 0.032466587 0.1865911
-0.037160132 0.029567594 0.18795666
-0.037714299 0.026800992 0.19042535
-0.03817793 0.023849234 0.192228
-0.038705856 0.02123105 0.19546698
-0.039411325 0.018524284 0.19946852
-0.039901286 0.01530729 0.20374647
-0.040410653 0.011938715 0.20660605
-0.041072335 0.0083247405 0.20984212
-0.041879531 0.0047995262 0.21380104
-0.042241942 0.0013267503 0.21527988
-0.042767417 -0.0021625364 0.21765046
-0.043280665 -0.0056583183 0.22014114
-0.04355434 -0.0098123588 0.22033727
-0.043730054 -0.013964526 0.2207327
-0.044130534 -0.018048666 0.2229206
-0.044312872 -0.021834023 0.22546546
-0.032166023 0.043046866 0.17920515
-0.032520913 0.040488429 0.18096565
-0.032862667 0.037808143 0.18245272
-0.033293612 0.035075255 0.18438332
-0.033800479 0.032562915 0.18696314
-0.034263406 0.029756548 0.18919374
-0.034728114 0.026944822 0.1916683
-0.035130497 0.024077201 0.19409147
-0.03564854 0.02123367 0.19712773
-0.03627276 0.01824885 0.20075859
-0.03670441 0.015080787 0.2035004
-0.037073147 0.011705492 0.20688601
-0.037612945 0.0083254799 0.21032189
-0.038251925 0.0047795516 0.2137063
-0.03878038 0.0011875237 0.21615347
-0.039228335 -0.0022424657 0.21849051
-0.03959113 -0.0061065517 0.21985817
-0.039759956 -0.010049799 0.22005209
-0.040134672 -0.014099761 0.221572
-0.040589623 -0.01824899 0.22470559
-0.040701304 -0.022189135 0.22519307
-0.029289419 0.043257471 0.18003707
-0.029610191 0.040815596 0.18191548
-0.03004241 0.038258411 0.18435591
-0.030468415 0.03559925 0.18638329
-0.030931408 0.032821916 0.18874146
-0.031295404 0.030041287 0.1907049
-0.031671748 0.027006557 0.19298658
-0.032037605 0.024091132 0.19534962
-0.032464221 0.021112725 0.19802238
-0.03296005 0.018137537 0.20121215
-0.03332492 0.014848904 0.20458578
-0.033625428 0.011418445 0.20739894
-0.034111444 0.0081112515 0.21070772
-0.034788355 0.0046810517 0.21415828
-0.035313156 0.001017104 0.21717197
-0.035751034 -0.002714877 0.21845539
-0.035968564 -0.0064345072 0.21983077
-0.036308303 -0.010333624 0.22192149
-0.036509842 -0.014229983 0.22314632
-0.036920313 -0.018320447 0.22534972
-0.037073661 -0.022267804 0.22603954
-0.026399169 0.043654867 0.18108408
-0.026681239 0.040989086 0.18281312
-0.027285153 0.038581762 0.18593667
-0.027597195 0.035919294 0.18798855
-0.027925489 0.033130482 0.18992279
-0.02816884 0.029991893 0.19136047
-0.028508682 0.02700641 0.19370092
-0.028910793 0.024089923 0.19671102
-0.02924522 0.021193288 0.1990485
-0.029670151 0.018068243 0.20242016
-0.029974991 0.014720713 0.20545897
-0.030189626 0.011051076 0.20854862
-0.030745711 0.007583573 0.21177749
-0.031367823 0.0043851584 0.21495375
-0.031711381 0.00082913192 0.21757302
-0.032009903 -0.0028796068 0.21819542
-0.032300513 -0.0065753516 0.22140212
-0.032755252 -0.0104847 0.2236342
-0.033033196 -0.014300454 0.22515997
-0.033277344 -0.018441066 0.22652549
-0.03360416 -0.022434285 0.22834374
-0.023413431 0.043811865 0.18183821
-0.023642784 0.041158386 0.18332312
-0.024125345 0.038597357 0.18606181
-0.024474876 0.036043126 0.18832082
-0.024776552 0.033190861 0.19042242
-0.025024207 0.030144136 0.19196127
-0.025286332 0.027050475 0.19416015
-0.025689429 0.024047622 0.19758853
-0.026046405 0.021205172 0.20014949
-0.026402501 0.018076401 0.20297997
-0.026762979 0.014907918 0.20584618
-0.027164819 0.011204 0.20937783
-0.027589625 0.0077029141 0.21224913
-0.027801717 0.0041668508 0.2157588
-0.02811702 0.00071032159 0.21852489
-0.028387032 -0.0029996578 0.21966594
-0.028672881 -0.0067544086 0.22234705
-0.029030671 -0.010507232 0.22348814
-0.029407913 -0.014215784 0.22649443
-0.029749868 -0.018109357 0.22884662
-0.029916964 -0.022172052 0.23001403
-0.030181976 -0.026310876 0.232113
-0.020400219 0.043988455 0.18246335
-0.020586323 0.041276008 0.18385774
-0.020805204 0.038519729 0.1855666
-0.021317039 0.036048055 0.18845342
-0.021759737 0.033207975 0.19130343
-0.021986961 0.030264106 0.19324073
-0.022172263 0.027127145 0.19594774
-0.02251545 0.024238167 0.19863445
-0.022795497 0.021360999 0.20124058
-0.023153836 0.018273415 0.20463787
-0.023405056 0.01490823 0.20724602
-0.023751171 0.011419696 0.21037184
-0.024087803 0.0077628423 0.21346146
-0.024251664 0.0040673488 0.21692093
-0.024432691 0.00048170553 0.21873346
-0.024651777 -0.0032218953 0.22024721
-0.025178092 -0.0067786369 0.22320913
-0.02525156 -0.010598379 0.22318263
-0.025552366 -0.014322945 0.2258025
-0.025944132 -0.018346358 0.22948317
-0.026101312 -0.022448182 0.23118542
-0.026198113 -0.026436737 0.2314855
-0.017707612 0.044283226 0.18383744
-0.017768666 0.041746154 0.1854877
-0.017824497 0.038613115 0.18596715
-0.018130226 0.036059424 0.18851805
-0.018421259 0.03329055 0.19152203
-0.018696098 0.030360766 0.19344752
-0.018902326 0.027397873 0.19674844
-0.019240692 0.024373559 0.19931717
-0.019503396 0.021438448 0.20194919
-0.01979444 0.018376276 0.20597157
-0.020060053 0.015005183 0.20880835
-0.020354547 0.011560137 0.21199852
-0.020581484 0.00787968 0.21457542
-0.02075805 0.0041678073 0.21830684
-0.020819126 0.00036085167 0.21995683
-0.021093639 -0.0032485013 0.22108884
-0.021503899 -0.0068726745 0.22406039
-0.021543806 -0.010670568 0.22410998
-0.02184614 -0.014511112 0.22597702
-0.022080416 -0.018578494 0.23005897
-0.022100179 -0.022326019 0.22989532
-0.022338338 -0.02662426 0.2325488
-0.014709044 0.041757978 0.18601444
-0.014820916 0.038854226 0.18712471
-0.014966201 0.036126018 0.18888889
-0.015227824 0.033493217 0.19200698
-0.015384538 0.030534839 0.19402669
-0.015709113 0.027803501 0.19772711
-0.016048253 0.024814153 0.20206539
-0.016163461 0.021708557 0.20440714
-0.016356982 0.018469075 0.20734528
-0.016543504 0.014955206 0.20921743
-0.016827269 0.011562399 0.21285105
-0.017057031 0.0080754617 0.21582755
-0.017282896 0.0044309883 0.21859828
-0.017463358 0.0006597435 0.22108924
-0.017626407 -0.0031713841 0.22255859
-0.01780493 -0.0069992435 0.22527863
-0.017883575 -0.010732786 0.22569971
-0.018040011 -0.014546257 0.22800854
-0.018175611 -0.018718615 0.22993585
-0.018225746 -0.022589793 0.2304035
-0.018475002 -0.0270386 0.23548652
-0.011922984 0.039139617 0.18809773
-0.011849945 0.036309596 0.1895574
-0.012054872 0.033620868 0.19242567
-0.012254782 0.030879462 0.19496423
-0.012449037 0.027942732 0.19811738
-0.012793317 0.025011735 0.20280729
-0.012781675 0.021438941 0.2055314
-0.012946521 0.018131245 0.20845973
-0.013056044 0.014810293 0.21041198
-0.013274099 0.011595252 0.21386379
-0.013440792 0.0083257165 0.21669482
-0.013579377 0.0045743664 0.21875328
-0.013764325 0.0007002225 0.22173542
-0.013868676 -0.0031412554 0.22353792
-0.014016092 -0.0070324419 0.22609648
-0.014126752 -0.010965547 0.22903658
-0.014228886 -0.01493471 0.23024788
-0.014311288 -0.018868329 0.23150609
-0.014395654 -0.022952735 0.23297192
-0.014486542 -0.027472336 0.23904432
-0.0091853458 0.036293879 0.19075167
-0.0088813603 0.033853445 0.19336835
-0.00907447 0.031132195 0.19626673
-0.0091637829 0.02811191 0.1989774
-0.00920083 0.024938347 0.20275049
-0.0094368597 0.021682432 0.20607452
-0.0094482061 0.018233692 0.20900579
-0.0095087206 0.014849356 0.21188876
-0.0096448986 0.011644064 0.21391676
-0.0098026153 0.0083434274 0.21714079
-0.0099190529 0.0046477923 0.21971069
-0.010017962 0.00075345283 0.22199677
-0.010115309 -0.003253578 0.22451444
-0.010192796 -0.0071465303 0.2269302
-0.010243502 -0.011109462 0.22950812
-0.010301299 -0.015102114 0.23132549
-0.010333428 -0.019125612 0.23301648
-0.010394511 -0.023385311 0.23531204
-0.010879978 -0.027235623 0.24054153
-0.0057281028 0.034309845 0.19645001
-0.0058212434 0.031533614 0.19858673
-0.005870142 0.028342428 0.20133807
-0.0059129554 0.025216836 0.2039741
-0.0059457212 0.021842137 0.20652942
-0.0059317239 0.018492393 0.20951898
-0.0059832837 0.015006992 0.21234854
-0.0060220249 0.011653177 0.21429852
-0.0061077857 0.0084305294 0.21691915
-0.006199847 0.0047134142 0.21994953
-0.0062526353 0.00079736381 0.22204481
-0.0063142641 -0.0032404908 0.22476597
-0.0063380646 -0.0071458728 0.22684401
-0.0063405186 -0.011182146 0.22934839
-0.0063879252 -0.015121945 0.23038435
-0.0063421 -0.019267904 0.23338746
-0.0065959455 -0.023252623 0.23522559
-0.0024534944 0.031593848 0.19905695
-0.0023384918 0.028390281 0.20091848
-0.0022799647 0.02516773 0.20312521
-0.0024483574 0.022049164 0.20622882
-0.0024068411 0.018726895 0.20977086
-0.0023951689 0.015207368 0.21266681
-0.0023921102 0.011746014 0.21474522
-0.0024429581 0.0084425602 0.21721727
-0.0024747059 0.0046182657 0.21946295
-0.0024949298 0.00072967948 0.2227785
-0.002494537 -0.0032159828 0.2241217
-0.0024640493 -0.0071726316 0.22619405
-0.0024919847 -0.011090245 0.22766943
-0.0028637093 -0.015084755 0.22968568
0.00048121653 0.031394579 0.20039971
0.00099751563 0.028646264 0.2016708
0.0011745181 0.025401428 0.20304602
0.0011130109 0.022120265 0.20549278
0.0011510813 0.018903727 0.20860073
0.0012294498 0.015357601 0.21135969
0.0012879345 0.01173041 0.21373108
0.0011825695 0.0082973754 0.21664716
0.0012301449 0.0045228861 0.21795553
0.0012738137 0.00058290781 0.2214765
0.0012861609 -0.0032549792 0.22298856
0.0013429874 -0.0071595479 0.22570644
0.0044732341 0.028716087 0.20150799
0.0046103415 0.025400458 0.2022568
0.0046884031 0.022240253 0.20467314
0.0046853386 0.018921379 0.20796856
0.0047827251 0.015589412 0.21032414
0.0049002101 0.012012524 0.2123929
0.0043648421 0.0082868608 0.21542601
0 0 0 1 0 0 0 1 0 0 0 1 0 0 0 0 0 336 1 0 0
