ply
format ascii 1.0
comment PCL generated
element vertex 336
property float x
property float y
property float z
element camera 1
property float view_px
property float view_py
property float view_pz
property float x_axisx
property float x_axisy
property float x_axisz
property float y_axisx
property float y_axisy
property float y_axisz
property float z_axisx
property float z_axisy
property float z_axisz
property float focal
property float scalex
property float scaley
property float centerx
property float centery
property int viewportx
property int viewporty
property float k1
property float k2
end_header
-0.055346821 0.031798527 0.18560457
-0.056033116 0.029256802 0.18730846
-0.056910213 0.02615631 0.18959825
-0.05772388 0.022932535 0.19152166
-0.058069903 0.019631874 0.19288327
-0.051383883 0.03360467 0.18170713
-0.051917113 0.03123652 0.18392657
-0.052275207 0.028770408 0.18541558
-0.053155296 0.026009966 0.18791525
-0.054173432 0.022938766 0.19071303
-0.054910332 0.019741006 0.19273421
-0.055522516 0.016374677 0.19433346
-0.056015104 0.013119945 0.19631857
-0.047738448 0.035759211 0.17908025
-0.047945216 0.033149287 0.18050575
-0.04846371 0.030720564 0.18255351
-0.049089629 0.02845959 0.18489215
-0.050150942 0.026058581 0.18840861
-0.050861929 0.022987055 0.1907635
-0.051604137 0.019865328 0.19295576
-0.052521214 0.016374813 0.19555081
-0.053514842 0.012695751 0.19904003
-0.053675346 0.006020241 0.19916093
-0.053801287 0.0015833703 0.20152055
-0.04421556 0.038609214 0.17796861
-0.044322848 0.035823587 0.17897016
-0.044873543 0.033275984 0.18062566
-0.045429479 0.030836102 0.1830294
-0.046149518 0.028472828 0.18574022
-0.047141615 0.026125945 0.18916187
-0.047895912 0.023202561 0.19136825
-0.048519004 0.020335151 0.19393668
-0.049583945 0.016368806 0.19744955
-0.050272372 0.010591297 0.20006162
-0.050447557 0.0046208948 0.20029578
-0.05119957 0.0020733259 0.20350045
-0.052288186 0.0006337142 0.20802362
-0.0527464 -0.0018336342 0.21091428
-0.041119684 0.041600533 0.177743
-0.041288547 0.038998373 0.17888047
-0.041535515 0.036258001 0.17991383
-0.04211178 0.033507854 0.1820239
-0.042748373 0.031200923 0.18473816
-0.043322768 0.028615652 0.18682066
-0.044419877 0.026043424 0.18989894
-0.044927731 0.023198893 0.19177498
-0.045477614 0.020461194 0.19448614
-0.046443496 0.016482782 0.19817384
-0.046924386 0.010180938 0.20000182
-0.047187123 0.0051305206 0.2008353
-0.048131816 0.0023921716 0.20462181
-0.048928212 0.00088497269 0.20886186
-0.049500626 -0.0014680384 0.21205512
-0.049861532 -0.0041260263 0.21503769
-0.050415985 -0.0066052196 0.21814673
-0.050483413 -0.00905539 0.22148773
-0.038431063 0.042047702 0.17854354
-0.03853086 0.039261434 0.17960171
-0.038761325 0.036442004 0.18086356
-0.039339863 0.033921205 0.18332203
-0.039950952 0.03148289 0.18568818
-0.04045539 0.028680829 0.1878017
-0.04125404 0.025896451 0.19032022
-0.041773856 0.023077533 0.19165102
-0.042421363 0.020186219 0.19471388
-0.043163169 0.0163722 0.19843815
-0.043632124 0.01065334 0.2000733
-0.043852169 0.0058430517 0.20104548
-0.044634372 0.0032156717 0.20460211
-0.045197193 0.00068699534 0.20851237
-0.045825962 -0.0011438513 0.21249141
-0.046518516 -0.0036897445 0.21579325
-0.046855889 -0.0065093786 0.21876727
-0.046821129 -0.009168094 0.22100675
-0.047322772 -0.012539484 0.22277722
-0.047426064 -0.016356053 0.22467922
-0.035661552 0.042481687 0.1790029
-0.035739195 0.039426316 0.18012677
-0.035952765 0.036751032 0.18163142
-0.036508296 0.034288913 0.18417431
-0.037013814 0.031653538 0.1863125
-0.037205353 0.028768932 0.18776852
-0.038031068 0.026013101 0.19063592
-0.038757958 0.023060245 0.19282578
-0.039355554 0.020045772 0.19548896
-0.040104248 0.016411616 0.19898169
-0.040421236 0.011180116 0.20101371
-0.040641803 0.0068281493 0.20159815
-0.041232172 0.0040993406 0.20528714
-0.042026401 0.0014884961 0.20984367
-0.042437535 -0.00093309849 0.2133866
-0.043028541 -0.0034661372 0.21666889
-0.043497734 -0.0062647192 0.22001375
-0.043235827 -0.0092212157 0.22078882
-0.043698438 -0.012874195 0.22158889
-0.044166274 -0.016838992 0.22295582
-0.04434279 -0.020761196 0.22547993
-0.032889973 0.042665735 0.17943132
-0.032959267 0.039932922 0.18099247
-0.033085983 0.0369635 0.18237528
-0.033370882 0.034377206 0.18445446
-0.033886727 0.031831432 0.18693174
-0.034388557 0.029046934 0.18903223
-0.03513198 0.026175862 0.19191742
-0.035889681 0.023237266 0.19468933
-0.036419693 0.019990822 0.1975079
-0.037169699 0.016247215 0.20056269
-0.037487507 0.011519252 0.20160325
-0.037381865 0.0071833809 0.20273694
-0.038180228 0.0047414368 0.20641641
-0.038700912 0.0020472563 0.21087508
-0.039023709 -0.00081069756 0.2145828
-0.039424717 -0.0034492991 0.21769014
-0.039712314 -0.006766255 0.21985722
-0.039732162 -0.0097331693 0.21993147
-0.039938562 -0.013465982 0.22126393
-0.040178441 -0.017430415 0.22291504
-0.040797971 -0.021258535 0.22466789
-0.029827269 0.042991374 0.17999868
-0.02996861 0.040274881 0.1816493
-0.030301001 0.037414763 0.18388329
-0.030508455 0.034807689 0.18574363
-0.031015798 0.032062288 0.1881354
-0.031440318 0.029231818 0.19018932
-0.032295894 0.026120758 0.19295774
-0.032846548 0.023101876 0.19581304
-0.033444595 0.019852305 0.19874476
-0.033992883 0.016273737 0.20129623
-0.034055404 0.011570713 0.20236278
-0.034074977 0.0070951828 0.20367116
-0.034676824 0.0042855069 0.20697021
-0.035138477 0.0023436446 0.21157579
-0.035450522 -0.00056313927 0.21541664
-0.035845302 -0.0039049909 0.21768165
-0.03614676 -0.00727082 0.21967334
-0.036122099 -0.010807406 0.22081167
-0.036328826 -0.014105537 0.2223002
-0.036517102 -0.018000096 0.22315113
-0.037187662 -0.021792809 0.22506776
-0.026869386 0.043275218 0.18058541
-0.027083742 0.040467892 0.18223523
-0.027460182 0.037871525 0.1851065
-0.027697485 0.035145562 0.18731196
-0.028156251 0.032222565 0.18936928
-0.028544465 0.029194865 0.19095942
-0.029155681 0.026229942 0.19367203
-0.029881295 0.023196856 0.19720584
-0.030260762 0.020107079 0.19973223
-0.03070952 0.016466621 0.20246573
-0.03070079 0.011548013 0.20372117
-0.030508211 0.007067278 0.2050426
-0.031138783 0.0039971513 0.20842068
-0.031627219 0.0028260995 0.21338165
-0.031913329 -0.00065625139 0.21569885
-0.032233063 -0.003992442 0.21755122
-0.032299545 -0.0073577417 0.22018071
-0.032592148 -0.011282115 0.22197612
-0.032762278 -0.014967627 0.22336486
-0.032753803 -0.018596334 0.22410008
-0.03338778 -0.022377342 0.22714745
-0.024060909 0.043524232 0.18133928
-0.024056686 0.040764648 0.18269254
-0.024364037 0.03795376 0.18532097
-0.024724936 0.035368353 0.187777
-0.025227813 0.032349631 0.19017412
-0.025613306 0.029403372 0.19201267
-0.026122686 0.026392171 0.19474962
-0.026744943 0.023430228 0.19818896
-0.027155532 0.020356156 0.20095591
-0.027319804 0.016923212 0.20351973
-0.027520048 0.013509338 0.20598142
-0.027595518 0.009383562 0.20864598
-0.027783131 0.0061493469 0.21155636
-0.027894532 0.0028797791 0.21428266
-0.028304115 -0.00045888009 0.21688239
-0.02860664 -0.0039982358 0.21873973
-0.028724512 -0.0075210612 0.22093412
-0.029180424 -0.011198468 0.22269098
-0.029530648 -0.014861452 0.22484103
-0.029666087 -0.019058267 0.22623982
-0.030172328 -0.022421233 0.22837444
-0.030540969 -0.026098184 0.23077178
-0.021093583 0.043852929 0.18189898
-0.021070944 0.041012403 0.18307263
-0.021090399 0.0380193 0.18470557
-0.021677436 0.035162598 0.18815906
-0.022264354 0.032197446 0.19100922
-0.022702608 0.029468052 0.19333687
-0.023133634 0.026502831 0.19621989
-0.023659825 0.023665467 0.19953592
-0.02394449 0.020537157 0.20224035
-0.023983501 0.01724131 0.20457882
-0.024093067 0.013735811 0.20717245
-0.024185594 0.010044125 0.20992166
-0.024347788 0.0064420952 0.21288168
-0.024484757 0.0028937843 0.2158874
-0.024754345 -0.00065996672 0.21788582
-0.024927406 -0.0040847301 0.21950126
-0.025552342 -0.0073925164 0.2219705
-0.025576197 -0.011064966 0.22251379
-0.025793727 -0.014839556 0.22493014
-0.026187623 -0.018992906 0.22749712
-0.026391761 -0.022567388 0.22966415
-0.026625192 -0.026348056 0.23136356
-0.01838191 0.04405098 0.18266903
-0.017953422 0.041169453 0.18405256
-0.018092206 0.037928246 0.18534684
-0.018266186 0.035045736 0.1885938
-0.018745575 0.032213297 0.19130369
-0.01916644 0.029483315 0.19346634
-0.019530861 0.026686778 0.19704698
-0.020400314 0.023788948 0.20029566
-0.020665865 0.020681869 0.20310964
-0.020576084 0.017256264 0.20583721
-0.020742711 0.013721797 0.20845926
-0.020755427 0.010174018 0.21135707
-0.020798396 0.006502849 0.21382342
-0.021086231 0.0028712589 0.21705759
-0.021085704 -0.00055482268 0.21878329
-0.02148385 -0.0040245326 0.2202799
-0.021918055 -0.0073866011 0.22320157
-0.021993691 -0.011137326 0.22381084
-0.0223937 -0.015069869 0.22609003
-0.022298526 -0.019111514 0.22843112
-0.022447634 -0.022576267 0.22878377
-0.022885934 -0.026505625 0.23203129
-0.014786229 0.040802661 0.18500283
-0.014896305 0.037846256 0.1868276
-0.015018815 0.034989391 0.18871483
-0.015425678 0.032284867 0.19155101
-0.015658865 0.029526092 0.19381502
-0.01588238 0.026953535 0.19783245
-0.016911801 0.023724159 0.20212962
-0.017017916 0.020677548 0.20463869
-0.016904755 0.017061988 0.20677713
-0.017068723 0.013754877 0.20882936
-0.017203644 0.010187934 0.21252625
-0.017404163 0.0067024585 0.21493894
-0.017586473 0.003059481 0.21772787
-0.017594842 -0.00064476946 0.22003889
-0.018175704 -0.0037335255 0.22361495
-0.018606169 -0.0075390437 0.22558692
-0.018496947 -0.011231111 0.22558819
-0.018492175 -0.014807159 0.22719632
-0.018524202 -0.018977355 0.22818883
-0.018751334 -0.022696812 0.22968066
-0.019366847 -0.026889781 0.23473464
-0.011974676 0.037833832 0.18790554
-0.011933101 0.035088263 0.18957604
-0.012297115 0.032443468 0.1922648
-0.012403746 0.029710654 0.19504833
-0.012645469 0.026857646 0.19819079
-0.012815082 0.023747999 0.20240569
-0.013135501 0.020186581 0.20556459
-0.013397787 0.016929716 0.20819667
-0.013472958 0.013703985 0.21040691
-0.013736083 0.010393251 0.21337086
-0.01390264 0.0071207122 0.21590355
-0.013914931 0.0034233744 0.21834986
-0.014205487 -0.00019654553 0.22125109
-0.01457626 -0.0036290465 0.22462012
-0.014699667 -0.0074390164 0.22643915
-0.014815474 -0.011672401 0.22787784
-0.014725694 -0.015424675 0.22905499
-0.014484844 -0.019086713 0.22970408
-0.015202343 -0.022963338 0.23240416
-0.015806155 -0.027374208 0.23847111
-0.0092474241 0.034958825 0.19054914
-0.0089810928 0.032467857 0.19332129
-0.009082254 0.029760264 0.19620036
-0.0092104729 0.02666245 0.19868729
-0.0093754791 0.023486994 0.2025667
-0.0097207418 0.020445386 0.20622514
-0.0099418657 0.017343162 0.20929901
-0.010228171 0.013791866 0.21214715
-0.010245462 0.010599615 0.21380635
-0.010361972 0.0073051597 0.21716106
-0.01046591 0.0037832395 0.21984755
-0.010766112 0.00027171674 0.22263211
-0.011014526 -0.0035185416 0.22565395
-0.010999144 -0.0076212059 0.22767064
-0.010933286 -0.011915312 0.22917055
-0.010904809 -0.01578128 0.23039797
-0.010631128 -0.019425509 0.23142448
-0.011499639 -0.023463938 0.23484227
-0.012408695 -0.02732252 0.24051151
-0.005676927 0.032612264 0.19534065
-0.0057405028 0.029810153 0.19766062
-0.005863511 0.026514342 0.20071895
-0.0061211619 0.02362805 0.20352238
-0.006318056 0.020617658 0.20675156
-0.0064899684 0.017676717 0.21010689
-0.0067953868 0.014073656 0.21279183
-0.0067613441 0.010720726 0.21450375
-0.0066632582 0.0076404801 0.21711098
-0.0069667306 0.0041804505 0.22060695
-0.0071965847 0.00059335877 0.2233832
-0.0071318806 -0.0036201484 0.22576559
-0.0071708863 -0.007397247 0.22766267
-0.0070603974 -0.011679391 0.22926545
-0.0070728743 -0.015685447 0.23021623
-0.0069303666 -0.019679772 0.23211093
-0.0073056198 -0.023065632 0.23453034
-0.0023914652 0.029365148 0.19810091
-0.002370822 0.026604904 0.20048413
-0.0024281279 0.023560654 0.20326242
-0.0027504673 0.020703342 0.20649107
-0.0029054282 0.017746935 0.21050538
-0.0032545228 0.014509256 0.21359514
-0.0034138833 0.011059846 0.21535395
-0.0032729821 0.007763593 0.21762349
-0.0031451164 0.0039961161 0.22024114
-0.0033445875 0.0002899575 0.22390659
-0.0033710813 -0.0035193174 0.22536822
-0.0032514464 -0.0075731725 0.22742569
-0.0034331793 -0.011168308 0.22842351
-0.0037812132 -0.015103312 0.22946057
0.00053941557 0.029395353 0.19975699
0.001001801 0.026734402 0.2011487
0.0010892428 0.023695154 0.20317844
0.00085835275 0.020606251 0.20596077
0.00077474979 0.017495243 0.20903029
0.00057031168 0.014524686 0.21242216
0.00019726761 0.011355171 0.21538727
0.00065630017 0.0075913318 0.21751003
0.00076593424 0.0038821385 0.21890403
0.00046402839 6.595163e-05 0.2229932
0.00033425566 -0.0035816247 0.22483645
0.00042744048 -0.0074885944 0.22694223
0.0045127403 0.027007319 0.20168413
0.0046538534 0.02377034 0.20276172
0.0044783368 0.020617573 0.20514016
0.0042595835 0.017456088 0.2083282
0.0042575775 0.014314469 0.21114819
0.0042137215 0.01130624 0.21406382
0.0039696619 0.007507225 0.21693246
0 0 0 1 0 0 0 1 0 0 0 1 0 0 0 0 0 336 1 0 0
