ply
format ascii 1.0
comment PCL generated
element vertex 336
property float x
property float y
property float z
element camera 1
property float view_px
property float view_py
property float view_pz
property float x_axisx
property float x_axisy
property float x_axisz
property float y_axisx
property float y_axisy
property float y_axisz
property float z_axisx
property float z_axisy
property float z_axisz
property float focal
property float scalex
property float scaley
property float centerx
property float centery
property int viewportx
property int viewporty
property float k1
property float k2
end_header
-0.055270929 0.032257915 0.18635295
-0.055768035 0.029196234 0.18695116
-0.056521736 0.026023405 0.1889994
-0.057350446 0.022802537 0.19116679
-0.057592686 0.019562021 0.19277957
-0.051413272 0.034841273 0.18300515
-0.051903259 0.032035712 0.18463993
-0.052088462 0.028976064 0.18517876
-0.052736897 0.026114117 0.18720925
-0.05355671 0.022961611 0.18989016
-0.054294005 0.019830434 0.19236688
-0.054629859 0.016640395 0.19408303
-0.055295512 0.013503379 0.19705933
-0.047824603 0.037598204 0.18071759
-0.048095621 0.034680389 0.18172875
-0.048470519 0.031817839 0.18323396
-0.048861351 0.02893436 0.18464312
-0.049688935 0.026180124 0.18760027
-0.050281569 0.023087841 0.18980619
-0.050965473 0.020089913 0.19241054
-0.051680636 0.017067289 0.19552979
-0.052837782 0.013848995 0.19959505
-0.053624749 0.010518652 0.20420243
-0.054184623 0.0074009011 0.20644709
-0.044486448 0.040208265 0.17918709
-0.044695839 0.037509862 0.18031214
-0.045026783 0.034641787 0.18159902
-0.045453571 0.031901825 0.18361935
-0.045926258 0.029051498 0.18550064
-0.046849094 0.026322512 0.18858606
-0.047262978 0.023364928 0.19052736
-0.04788487 0.020484032 0.19321668
-0.048868842 0.01751069 0.19748956
-0.049748078 0.014264987 0.2021037
-0.05094881 0.011053486 0.20719925
-0.051526088 0.0077030356 0.20896576
-0.052149579 0.004493264 0.21150394
-0.052492265 0.0011502954 0.2130149
-0.04110859 0.042744253 0.17837003
-0.04154136 0.040372349 0.17982565
-0.041848019 0.03777542 0.1812422
-0.042324323 0.034915984 0.18330711
-0.042772092 0.032151531 0.18546972
-0.043095626 0.029258687 0.18690063
-0.044032872 0.026555449 0.1897039
-0.044374004 0.02361501 0.19137287
-0.045001034 0.020827327 0.19400615
-0.04560471 0.018127861 0.19800733
-0.046613399 0.014806164 0.20331119
-0.047582187 0.011403138 0.20759514
-0.048354756 0.0078493562 0.21042913
-0.048726968 0.004524807 0.21224697
-0.049183875 0.0011090526 0.21418945
-0.049523916 -0.0024495244 0.21583818
-0.050035987 -0.0058750431 0.21828072
-0.049987379 -0.0090767089 0.21990263
-0.038311046 0.04293932 0.17851229
-0.038610943 0.040496737 0.18036915
-0.03895146 0.037923034 0.18198197
-0.039411698 0.035170849 0.18412994
-0.039921086 0.032438327 0.18648753
-0.040280651 0.029477794 0.18807887
-0.04091363 0.026623804 0.19022293
-0.041153692 0.023634916 0.19122322
-0.041768484 0.020908838 0.19429052
-0.042513661 0.01830693 0.19877298
-0.043254904 0.01508462 0.20363468
-0.044043135 0.011771736 0.20747963
-0.044770874 0.0082107466 0.21016726
-0.045257371 0.0045701261 0.21261804
-0.045615073 0.0011620354 0.21448095
-0.046087593 -0.0022737735 0.21655028
-0.046478149 -0.0059789396 0.21827507
-0.047022551 -0.0097544435 0.21992317
-0.047382757 -0.013967906 0.22104488
-0.047267795 -0.017547233 0.22293346
-0.035220344 0.04283879 0.17872198
-0.035609037 0.040535875 0.18065743
-0.035974789 0.037846014 0.18226896
-0.036351282 0.035235208 0.18450917
-0.036886927 0.032487713 0.18689054
-0.037053913 0.029582741 0.18817493
-0.037686933 0.026790392 0.19065264
-0.038168855 0.023749033 0.19241337
-0.038688343 0.02101269 0.19531184
-0.039417755 0.018323891 0.19943863
-0.039956257 0.01534884 0.20394395
-0.040560104 0.012207313 0.20721431
-0.041158862 0.008418127 0.20987499
-0.041829295 0.0046422584 0.21320233
-0.04216285 0.0011289259 0.21498354
-0.042680264 -0.00244004 0.21730042
-0.043111447 -0.0060240654 0.21943964
-0.043466136 -0.0099853119 0.22002125
-0.043538041 -0.01398992 0.22040516
-0.043983903 -0.018011503 0.22281605
-0.044255219 -0.02167226 0.22562994
-0.032260712 0.042933244 0.17911494
-0.032587681 0.04043838 0.18098041
-0.032881282 0.037866037 0.18274698
-0.033235945 0.035142075 0.18462169
-0.033691406 0.032544479 0.18713503
-0.034150515 0.029699238 0.18927841
-0.03481691 0.026991485 0.1919594
-0.035269652 0.024096001 0.19442584
-0.035692878 0.021245886 0.19728479
-0.03630051 0.018256847 0.20077644
-0.036780581 0.01527005 0.20382765
-0.037304707 0.012174878 0.20764759
-0.037793282 0.0085920086 0.21066938
-0.038250834 0.0046440745 0.21334919
-0.038720056 0.00091584364 0.21587843
-0.03909871 -0.0025767691 0.21797098
-0.039514955 -0.0064159543 0.21971871
-0.039716974 -0.010199839 0.22004046
-0.040044185 -0.014129299 0.22172117
-0.040436376 -0.018138142 0.22447672
-0.040592294 -0.022097636 0.22525258
-0.029335765 0.043140553 0.17977469
-0.029605191 0.040726233 0.18174452
-0.029934831 0.038215607 0.18425149
-0.030306811 0.035652429 0.18638441
-0.030763073 0.032769643 0.18877873
-0.031119579 0.029903553 0.19055428
-0.031622492 0.026893817 0.19292879
-0.032067839 0.024032738 0.19536422
-0.032505553 0.021157028 0.19824749
-0.032974746 0.01821438 0.2012893
-0.033434324 0.015193764 0.20493492
-0.033879999 0.012079963 0.20838252
-0.034383219 0.0087322537 0.21147257
-0.034764849 0.0045224414 0.21369575
-0.035212208 0.00079012051 0.2167605
-0.035641804 -0.0029490739 0.2182166
-0.03592724 -0.0066274595 0.21997014
-0.036135387 -0.010479447 0.22145723
-0.036520258 -0.014234731 0.22346203
-0.036849089 -0.01823489 0.22534584
-0.036993235 -0.022100775 0.22618246
-0.026376298 0.04341783 0.18051112
-0.026627531 0.040837511 0.18252344
-0.027093288 0.038615514 0.18575576
-0.027419284 0.035991751 0.1879838
-0.027826037 0.033110514 0.19000298
-0.028089181 0.029893285 0.19118057
-0.02845409 0.026835695 0.19353622
-0.028874541 0.024028089 0.1966531
-0.029285107 0.021292055 0.1993224
-0.029717974 0.018270554 0.20266813
-0.030112848 0.015244476 0.20594622
-0.030476125 0.012023636 0.20968969
-0.030985039 0.0082630031 0.21247487
-0.031325415 0.0041739205 0.21451868
-0.03161538 0.00061018771 0.21695319
-0.031939223 -0.0030595965 0.21818447
-0.032167561 -0.0067255874 0.22117719
-0.032524485 -0.010692668 0.22320746
-0.032902885 -0.014476432 0.22503306
-0.033218239 -0.018341595 0.22671475
-0.033578064 -0.022201335 0.22879267
-0.023352453 0.043553934 0.1811233
-0.023552701 0.041016202 0.1828313
-0.023922356 0.038568445 0.18572131
-0.024259957 0.036136385 0.1882038
-0.024712674 0.033185016 0.19047941
-0.024990635 0.030092845 0.19199856
-0.025268096 0.026955578 0.1942312
-0.025639264 0.023993285 0.19754837
-0.026153402 0.021474764 0.20044686
-0.026461272 0.018427026 0.20331518
-0.026774531 0.015264967 0.20626682
-0.027439876 0.012018656 0.21025605
-0.027659208 0.0079615675 0.21239194
-0.027715947 0.0039643054 0.21511485
-0.028006829 0.00052144914 0.21779984
-0.028309269 -0.0031324192 0.21954994
-0.02856005 -0.0068272753 0.22207791
-0.02900699 -0.010682289 0.2240309
-0.029252654 -0.014477897 0.22648177
-0.029470943 -0.018127166 0.22872443
-0.029884316 -0.022026507 0.23054768
-0.03014713 -0.026044317 0.23261854
-0.020305676 0.043731779 0.18163864
-0.020469461 0.041055538 0.18308079
-0.020623619 0.038367342 0.18484247
-0.021133156 0.036017761 0.18827462
-0.021698501 0.033114538 0.19105066
-0.02199718 0.030237306 0.19317579
-0.022192288 0.027136652 0.19603445
-0.022622174 0.024555709 0.19902563
-0.022979828 0.021860581 0.20185967
-0.023162959 0.018667253 0.20477007
-0.02344746 0.015385333 0.20764212
-0.023989338 0.012030577 0.21101065
-0.024146035 0.0078952573 0.21336384
-0.024163935 0.0038581493 0.21618021
-0.024339823 0.00029033411 0.21813895
-0.024606405 -0.0033238081 0.22032981
-0.025280289 -0.0067922352 0.22375448
-0.025276344 -0.010594642 0.22384353
-0.02541456 -0.014389211 0.22593857
-0.025747485 -0.018354299 0.22953713
-0.025915092 -0.022292422 0.23105717
-0.026129324 -0.026212946 0.23181868
-0.017545041 0.043908756 0.18256445
-0.017480256 0.041312683 0.18404607
-0.017518071 0.038278926 0.18526064
-0.017917693 0.035905804 0.18865871
-0.018293591 0.033131823 0.19131741
-0.018616006 0.030295527 0.19337519
-0.018900137 0.027409913 0.1968334
-0.019392867 0.024858214 0.19998884
-0.019690836 0.022083838 0.20287631
-0.019847551 0.018882209 0.20631009
-0.020198671 0.015523288 0.20937042
-0.020569177 0.012040092 0.21260419
-0.020649167 0.0080321142 0.21443821
-0.020796143 0.00386749 0.21754628
-0.020749427 0.00013386054 0.21942961
-0.021206567 -0.0031371883 0.22138433
-0.021608405 -0.006813562 0.22458288
-0.021603625 -0.01061924 0.22474942
-0.021809485 -0.014524276 0.22614937
-0.021861248 -0.018541168 0.2294482
-0.021965845 -0.022270549 0.22957033
-0.022235051 -0.026391082 0.23243409
-0.014195194 0.041218277 0.18506254
-0.014455713 0.038448505 0.18679538
-0.014677639 0.035827193 0.18891104
-0.014986895 0.033301607 0.19184686
-0.015256804 0.030388929 0.19393459
-0.015648926 0.027753726 0.19785058
-0.016199663 0.025113571 0.20237881
-0.016324764 0.022316253 0.20499684
-0.016436128 0.018952752 0.20761274
-0.016735086 0.015606358 0.21012498
-0.01706909 0.011983553 0.21369219
-0.017248966 0.0082497485 0.21603286
-0.017472329 0.0043958984 0.21835428
-0.017699305 0.00058974151 0.22115196
-0.017757511 -0.0033676845 0.22231704
-0.017898014 -0.007066593 0.22498867
-0.01787642 -0.010807198 0.22551754
-0.0178787 -0.014495313 0.22752461
-0.018023903 -0.018631604 0.22943974
-0.018069848 -0.022466503 0.23022912
-0.018402245 -0.026775192 0.23562185
-0.011580614 0.038777325 0.1880172
-0.011532304 0.036048487 0.18967214
-0.011864568 0.033456683 0.19255528
-0.012124355 0.030759361 0.19520254
-0.012395436 0.027892265 0.19840859
-0.012840057 0.024923909 0.20314474
-0.012808311 0.021763055 0.20638704
-0.013128084 0.018714523 0.20944613
-0.01330024 0.015578495 0.21171898
-0.013616273 0.0121805 0.21489209
-0.013776553 0.0086694388 0.21737792
-0.013864934 0.0047602127 0.21911635
-0.014015929 0.00075246324 0.22190188
-0.01403052 -0.003157906 0.22331093
-0.014045452 -0.0070603644 0.22545767
-0.014048395 -0.010833198 0.22839293
-0.014157358 -0.014730686 0.22985491
-0.014151275 -0.018679742 0.23124292
-0.014338378 -0.022715706 0.23316371
-0.014483854 -0.02712794 0.23951335
-0.0088527342 0.036077373 0.19090149
-0.0086829588 0.033734109 0.19369097
-0.008950335 0.031119619 0.1967586
-0.0090893088 0.028071214 0.19937935
-0.0091332467 0.024905793 0.20311499
-0.0094732447 0.02175889 0.20645712
-0.0096452832 0.018688941 0.20994405
-0.0098653091 0.015619189 0.21338029
-0.01005165 0.012434727 0.21545778
-0.010206562 0.0088669481 0.21812758
-0.010263137 0.0048545194 0.22022137
-0.010272142 0.00080908346 0.22225119
-0.010317211 -0.0032383963 0.22422449
-0.010283807 -0.0070619583 0.22647123
-0.010216184 -0.010857621 0.22898839
-0.010258603 -0.014728601 0.23148395
-0.01027159 -0.018675573 0.23323923
-0.010376798 -0.023059342 0.23557024
-0.010903866 -0.026861746 0.24082616
-0.0056211599 0.034312308 0.19714236
-0.0057798172 0.031591974 0.1993731
-0.0057527963 0.02836425 0.20200969
-0.0057896064 0.025182767 0.20452756
-0.0059784339 0.021924609 0.20705296
-0.0061321519 0.018844027 0.21045366
-0.0063122124 0.015724115 0.21368603
-0.0064497627 0.012522464 0.21590033
-0.0065333038 0.0091642477 0.21823034
-0.0065606511 0.0049873702 0.22040969
-0.0065140896 0.00078027952 0.22195777
-0.0065788832 -0.0032104505 0.22431372
-0.0065794345 -0.0069626584 0.22633545
-0.0063987626 -0.010874829 0.22894132
-0.0064128567 -0.01473879 0.23083952
-0.0062982943 -0.018678995 0.23391035
-0.0065964768 -0.022604827 0.23579586
-0.0023151292 0.031639062 0.20015235
-0.0021494213 0.028384333 0.20180506
-0.0021860783 0.025173817 0.20403582
-0.0024770969 0.022070874 0.20699856
-0.0025534094 0.018973611 0.21073827
-0.0027261383 0.015788352 0.21383129
-0.0028144077 0.012576008 0.21614031
-0.0028501463 0.0091559105 0.21835484
-0.0027362769 0.0048863413 0.21994123
-0.0027613596 0.00083121186 0.22268625
-0.0027822349 -0.0031599572 0.22400106
-0.0027598715 -0.0070305751 0.22612506
-0.0026785212 -0.010832689 0.22759058
-0.0029400859 -0.014691044 0.23015775
0.00072328781 0.031268384 0.2011352
0.001185724 0.028553853 0.20234163
0.0013143382 0.025388522 0.204119
0.0011307865 0.022115236 0.20643911
0.0010453634 0.019014737 0.20949833
0.00099987618 0.015689418 0.2125137
0.00093178049 0.01246343 0.21547537
0.00096982362 0.008841184 0.2175477
0.0010563682 0.0049252594 0.21871871
0.001005728 0.00076404324 0.22174692
0.001012539 -0.0031331799 0.22315153
0.0010528315 -0.0070146127 0.22569107
0.004665927 0.028610507 0.20214693
0.0047639753 0.025382942 0.20345894
0.0047235526 0.022234272 0.20586959
0.004590977 0.018987112 0.20903705
0.0046171667 0.015754644 0.2115529
0.0046466435 0.012410484 0.2139847
0.0042147711 0.0089703556 0.2165828
0 0 0 1 0 0 0 1 0 0 0 1 0 0 0 0 0 336 1 0 0
