ply
format ascii 1.0
comment PCL generated
element vertex 336
property float x
property float y
property float z
element camera 1
property float view_px
property float view_py
property float view_pz
property float x_axisx
property float x_axisy
property float x_axisz
property float y_axisx
property float y_axisy
property float y_axisz
property float z_axisx
property float z_axisy
property float z_axisz
property float focal
property float scalex
property float scaley
property float centerx
property float centery
property int viewportx
property int viewporty
property float k1
property float k2
end_header
-0.05542855 0.028703572 0.18693225
-0.056107551 0.026101667 0.18793066
-0.056556623 0.022935594 0.18995862
-0.056985866 0.019803256 0.1920722
-0.057298221 0.016630294 0.1935391
-0.051998686 0.032084785 0.18440235
-0.05236828 0.028932679 0.18514918
-0.052696764 0.02584926 0.18540239
-0.053421829 0.022909561 0.18726584
-0.053983245 0.019515067 0.18991388
-0.054647241 0.016145986 0.19198073
-0.055430353 0.01268967 0.19364542
-0.05582682 0.0093423743 0.19549102
-0.048629347 0.035247475 0.18195914
-0.048857305 0.032318164 0.18260197
-0.049176097 0.029211964 0.18345429
-0.049663249 0.025872752 0.1841886
-0.05035137 0.022524644 0.1864091
-0.050918855 0.019247686 0.18842712
-0.051504139 0.015685339 0.19052851
-0.052375264 0.011760368 0.19304834
-0.052803278 0.0067313705 0.19660698
-0.0532672 -0.0039474936 0.19835791
-0.052063305 -0.0088942926 0.19677652
-0.045199875 0.037722096 0.17978834
-0.045237198 0.035057183 0.18086033
-0.045785639 0.032426644 0.18209292
-0.046147376 0.029210033 0.18325223
-0.046601187 0.025702458 0.18415551
-0.047381345 0.021972422 0.18564922
-0.047986116 0.018680699 0.18696298
-0.048409764 0.015051072 0.18874826
-0.049092881 0.010032842 0.19283429
-0.049945738 0.00059670414 0.19794035
-0.049759068 -0.0059944587 0.19777912
-0.049607363 -0.0084180059 0.19790272
-0.050776772 -0.0091967471 0.20116648
-0.05115908 -0.011195794 0.20434745
-0.041897886 0.040163711 0.17799681
-0.042124536 0.037633229 0.1794229
-0.042274233 0.03513103 0.18067263
-0.042683516 0.032343309 0.18233493
-0.043067727 0.029127039 0.18400264
-0.043679796 0.025565101 0.18446228
-0.044705179 0.021647727 0.18543069
-0.045163486 0.018229257 0.18583813
-0.045475051 0.014272369 0.18727629
-0.046555456 0.0072147222 0.19215994
-0.04688156 -0.0005707934 0.19600129
-0.046514783 -0.0055474876 0.19641292
-0.046684366 -0.0078641335 0.19877148
-0.047556248 -0.0083692363 0.20226543
-0.04819157 -0.010312439 0.20555656
-0.04855324 -0.012515044 0.20869796
-0.049088564 -0.014593701 0.21213484
-0.049273822 -0.015921421 0.21575789
-0.039104272 0.040232189 0.17801411
-0.039087128 0.037800327 0.17959888
-0.039377131 0.035079494 0.18098576
-0.039652433 0.03226031 0.18287532
-0.040137261 0.029122112 0.18417786
-0.04078206 0.025691967 0.18500227
-0.041613873 0.02156877 0.18530254
-0.042079892 0.018115234 0.18514025
-0.042514779 0.013200437 0.18696247
-0.042898074 0.0073133376 0.19060576
-0.043764304 -0.00038666735 0.1941597
-0.043310072 -0.004897627 0.19549431
-0.043336917 -0.0068033598 0.19853067
-0.043829646 -0.008359421 0.20211823
-0.044556804 -0.0096340692 0.20587951
-0.045299198 -0.011732477 0.20923421
-0.045609687 -0.014045085 0.21246608
-0.045570731 -0.01591203 0.21416104
-0.04706357 -0.017316472 0.2175927
-0.047649663 -0.019905044 0.22090101
-0.035800535 0.040604707 0.17813632
-0.036255818 0.037944179 0.1800549
-0.036437858 0.035275415 0.18134736
-0.036735531 0.032300796 0.1830878
-0.037320908 0.029261416 0.18435086
-0.037622813 0.025966093 0.18513419
-0.038360335 0.021933902 0.18586615
-0.038921442 0.017735219 0.18571208
-0.039151758 0.012815315 0.18718101
-0.039409123 0.007601927 0.18995209
-0.040082444 0.0005463339 0.19321583
-0.040089544 -0.0036595343 0.19498335
-0.040150601 -0.0054426561 0.19879968
-0.04074743 -0.0073419036 0.20298357
-0.041249666 -0.0094615426 0.20592132
-0.041868128 -0.01141598 0.20924921
-0.042462934 -0.013801354 0.21299414
-0.042350374 -0.015295575 0.21477363
-0.043388251 -0.017835025 0.21736863
-0.044000711 -0.020925703 0.22044562
-0.044814356 -0.023416948 0.22391622
-0.033002611 0.040974058 0.17901959
-0.033228874 0.038182847 0.18052018
-0.033643328 0.03555933 0.18216079
-0.033787653 0.032532342 0.18323325
-0.034280486 0.029395636 0.18488786
-0.034736302 0.026234517 0.18610604
-0.035395358 0.021743841 0.18712141
-0.03589407 0.016933648 0.18714908
-0.035706792 0.012526283 0.18851583
-0.036171511 0.0071823043 0.1906305
-0.036969829 0.0015929925 0.19351698
-0.037025373 -0.0020391617 0.19635595
-0.03742424 -0.004127841 0.20001902
-0.037461605 -0.0066625257 0.20376924
-0.037938695 -0.0092054158 0.20694061
-0.03864333 -0.011264694 0.21022713
-0.03859809 -0.01365176 0.21329929
-0.038846198 -0.015572952 0.21520646
-0.039588314 -0.018325349 0.21783811
-0.04009103 -0.021208765 0.22096796
-0.041225474 -0.023947591 0.22421992
-0.029975839 0.041424718 0.17996493
-0.030303685 0.038631778 0.1816411
-0.030831546 0.03565824 0.18344307
-0.031121425 0.032535151 0.18423568
-0.03136408 0.029399434 0.18565477
-0.031651165 0.026064374 0.18686123
-0.032326654 0.021852836 0.18810585
-0.032767538 0.0171078 0.18875995
-0.032650374 0.012684977 0.19003555
-0.032678653 0.0080656894 0.19151703
-0.033516765 0.0024973548 0.19445318
-0.033730712 -0.0015268106 0.19759904
-0.034246523 -0.0039259526 0.20103598
-0.033924747 -0.0061239935 0.20447497
-0.034400616 -0.0084475577 0.20825967
-0.03496984 -0.01094134 0.21135832
-0.035480335 -0.013502453 0.21437201
-0.035593648 -0.016080983 0.21682836
-0.035942078 -0.018285561 0.21926114
-0.036475752 -0.021460177 0.22196841
-0.037730098 -0.024044471 0.22526033
-0.027094424 0.041789979 0.1809157
-0.027571455 0.038955163 0.18248832
-0.028215284 0.035787761 0.1847907
-0.028244674 0.032505639 0.18547326
-0.028373683 0.029153084 0.18637079
-0.028757676 0.02597156 0.18748198
-0.028905725 0.022200748 0.18899746
-0.02972707 0.01739761 0.19034648
-0.029661072 0.01354749 0.19185975
-0.029432662 0.0093358392 0.19374333
-0.030046804 0.0035252133 0.19572303
-0.030239254 -0.00094223622 0.19905175
-0.030242601 -0.0041464171 0.2027093
-0.029864404 -0.0055020442 0.20613469
-0.030910984 -0.0076804757 0.20965143
-0.031705551 -0.010169203 0.21271379
-0.031984147 -0.012565058 0.21619873
-0.032521334 -0.015734635 0.21891373
-0.032790098 -0.018659381 0.22130536
-0.0329808 -0.02143804 0.22359554
-0.034234069 -0.023914883 0.22709955
-0.024398675 0.042017248 0.18202178
-0.024623388 0.039183035 0.18323432
-0.0252572 0.036010813 0.18550397
-0.025457518 0.03269542 0.18614744
-0.025752841 0.029338382 0.1875367
-0.025831897 0.026266407 0.18870889
-0.02588217 0.022469195 0.19010283
-0.026505899 0.018050402 0.19179788
-0.026919436 0.014507023 0.19413713
-0.026521849 0.011036408 0.1962425
-0.026050942 0.0073818942 0.19819681
-0.025401501 0.0028661005 0.20098482
-0.025626728 -0.00089004176 0.20432766
-0.026454376 -0.0041399514 0.20794959
-0.027832588 -0.0066682752 0.21160333
-0.02869942 -0.0092048757 0.21460573
-0.028849926 -0.011857373 0.21792194
-0.029677263 -0.014824627 0.22062626
-0.030131275 -0.018120494 0.22356968
-0.030499764 -0.021872815 0.22538951
-0.031299606 -0.024583885 0.22813676
-0.032096893 -0.027643183 0.23093896
-0.021610305 0.042281523 0.18280284
-0.021765927 0.039441817 0.18393961
-0.02201228 0.036387399 0.18554503
-0.022678323 0.033051718 0.18712853
-0.022977371 0.02984635 0.18916211
-0.023169801 0.026464999 0.19071835
-0.023134965 0.022712737 0.19225442
-0.02375841 0.018841062 0.19388549
-0.023970552 0.015513775 0.19639972
-0.023456117 0.012049817 0.1982372
-0.022976056 0.0082212342 0.20030887
-0.022574566 0.0043572839 0.2033833
-0.022766652 0.00054090313 0.20653112
-0.023545578 -0.0030588298 0.21006249
-0.024600685 -0.0060502659 0.213266
-0.025419816 -0.0084702065 0.21606129
-0.025933562 -0.011217887 0.21972565
-0.026133917 -0.014631107 0.22130713
-0.026593726 -0.017835341 0.22422044
-0.027244633 -0.021618165 0.22675414
-0.027636819 -0.024626948 0.22952192
-0.028306859 -0.028005203 0.23193638
-0.019073013 0.042506192 0.18383564
-0.019088306 0.03982234 0.18625554
-0.019378126 0.036777094 0.18677248
-0.019119069 0.034175478 0.18835551
-0.019471033 0.030734608 0.19031699
-0.019621883 0.027366314 0.19186929
-0.019672612 0.023642555 0.19407065
-0.020680811 0.019727532 0.19556405
-0.020735282 0.016244037 0.19786145
-0.020110905 0.012604174 0.20007841
-0.019792577 0.0088173449 0.20224912
-0.019722978 0.0054301899 0.20565802
-0.019808996 0.0019454671 0.20846848
-0.020376297 -0.0019262579 0.21198736
-0.020845316 -0.005235611 0.21462168
-0.021638921 -0.0086024245 0.21768117
-0.022506377 -0.011012583 0.22119279
-0.022741538 -0.01441715 0.22302893
-0.023368156 -0.017910963 0.22532575
-0.023693312 -0.021499919 0.22767524
-0.023944248 -0.024756817 0.22904186
-0.02472157 -0.028210513 0.23288767
-0.016112452 0.04052709 0.18643045
-0.015923187 0.037611809 0.18740676
-0.015665844 0.034522545 0.18883714
-0.015934739 0.031261254 0.19093646
-0.015883673 0.028104266 0.19264585
-0.015905309 0.024804451 0.19571863
-0.017206125 0.020077612 0.19767697
-0.017146697 0.016636986 0.19935927
-0.016489835 0.012896496 0.20128644
-0.016199585 0.0097640874 0.20384704
-0.016488247 0.0062941117 0.20770617
-0.016667826 0.0029167293 0.21055232
-0.01703066 -0.00040514441 0.21373352
-0.017248861 -0.0036108424 0.21642627
-0.01811243 -0.0079864031 0.21967329
-0.019075055 -0.01103766 0.2227623
-0.019427026 -0.014422915 0.22459634
-0.019805655 -0.017579757 0.22667433
-0.020172849 -0.021533394 0.22811177
-0.020514624 -0.024950139 0.23038605
-0.021606268 -0.028350307 0.23572199
-0.012881653 0.037700403 0.18853702
-0.012582795 0.034788176 0.18989854
-0.012706351 0.031763591 0.19188143
-0.012522042 0.028632015 0.19395368
-0.012501948 0.025408477 0.19654217
-0.012711884 0.02197185 0.20049657
-0.012766505 0.01806015 0.2028074
-0.012917953 0.014307132 0.20478253
-0.013050242 0.010572023 0.20664778
-0.013214375 0.0071083754 0.20927785
-0.013528073 0.003792204 0.21190982
-0.013670706 0.00039279976 0.21497124
-0.014096075 -0.003217434 0.21796197
-0.014784979 -0.007426016 0.2212586
-0.015380195 -0.010761519 0.22394268
-0.015811376 -0.014229631 0.22674446
-0.016399562 -0.017661581 0.22892904
-0.016439855 -0.021407859 0.2301199
-0.017401082 -0.024927834 0.23306251
-0.018481823 -0.028518099 0.23955676
-0.0099897627 0.03494861 0.19092105
-0.0095067658 0.032139067 0.19325477
-0.0093215136 0.029153788 0.19575663
-0.0093326923 0.025989331 0.1981976
-0.0093957614 0.022757631 0.20202312
-0.0095053436 0.01875552 0.20465365
-0.0096969651 0.015148777 0.20667887
-0.010144675 0.011077776 0.20884675
-0.010043056 0.0077174581 0.21035767
-0.010099593 0.0042665284 0.21368794
-0.010439197 0.00082152028 0.21648368
-0.010732012 -0.0028129912 0.21909314
-0.011453565 -0.0068798382 0.22273174
-0.011815126 -0.010436917 0.22559835
-0.01216717 -0.014002933 0.22814775
-0.012646628 -0.017436069 0.23084165
-0.012813441 -0.021063134 0.23260058
-0.014212646 -0.025277557 0.23619731
-0.015429892 -0.0283818 0.24162388
-0.0064066201 0.032557551 0.195683
-0.00640176 0.029782854 0.19788101
-0.0063852444 0.026568741 0.20135784
-0.0063114059 0.023196759 0.20354506
-0.0062242229 0.019246779 0.2053913
-0.0063255536 0.01556927 0.20782742
-0.0067591667 0.011625935 0.20980863
-0.0065845423 0.0082076816 0.2113416
-0.0065557533 0.0048133237 0.21418981
-0.0070517743 0.0011753363 0.2172316
-0.0073199342 -0.0025411695 0.21996903
-0.0075432509 -0.0062753754 0.22306861
-0.0080370884 -0.0098940926 0.22584054
-0.0083138542 -0.013611632 0.2285028
-0.0088066328 -0.017293528 0.23112631
-0.0092332996 -0.020849103 0.233973
-0.010309949 -0.024356356 0.23669274
-0.0032409646 0.030319197 0.1997309
-0.0028132836 0.027116874 0.20134036
-0.002526894 0.023553982 0.20315142
-0.0026303655 0.019814352 0.20509779
-0.0028074153 0.015885627 0.20809425
-0.0032499316 0.012198136 0.21056876
-0.0034515467 0.008665124 0.21235302
-0.0033012279 0.0050029871 0.21488203
-0.003242078 0.00099361339 0.21730109
-0.0038083012 -0.0025631292 0.22123675
-0.0038312029 -0.0061896811 0.22292629
-0.0038335966 -0.0097840866 0.22584258
-0.0045103477 -0.013172063 0.22780274
-0.0052481531 -0.016851127 0.23031315
-0.00025576469 0.030196944 0.20093599
0.0004876061 0.027359262 0.20135462
0.00098973128 0.023952993 0.20261055
0.0010249226 0.020145088 0.20458201
0.0010612351 0.016390504 0.20675462
0.00077887852 0.012652249 0.20947795
0.00022460811 0.0090905279 0.21253435
0.00074680749 0.0045418274 0.21474533
0.00097585097 0.00097120786 0.21673334
0.00010108574 -0.0026619707 0.22078122
-0.00017574186 -0.00611819 0.22290559
-0.00031511945 -0.0096873026 0.2256809
0.0040102354 0.027698655 0.20178293
0.004502615 0.024265682 0.20212771
0.0046112314 0.020699039 0.20362805
0.0046228105 0.016804887 0.20612279
0.004707349 0.013258398 0.20815624
0.0044903662 0.0094899246 0.2107932
0.004218054 0.0046607726 0.2147491
0 0 0 1 0 0 0 1 0 0 0 1 0 0 0 0 0 336 1 0 0
