ply
format ascii 1.0
comment PCL generated
element vertex 336
property float x
property float y
property float z
element camera 1
property float view_px
property float view_py
property float view_pz
property float x_axisx
property float x_axisy
property float x_axisz
property float y_axisx
property float y_axisy
property float y_axisz
property float z_axisx
property float z_axisy
property float z_axisz
property float focal
property float scalex
property float scaley
property float centerx
property float centery
property int viewportx
property int viewporty
property float k1
property float k2
end_header
-0.056711342 0.028531063 0.18808392
-0.057487596 0.025805239 0.18927522
-0.058238123 0.022691054 0.19142655
-0.058992673 0.019565683 0.19324601
-0.059442706 0.016573459 0.19481228
-0.053001579 0.031631324 0.18532802
-0.053330645 0.028792059 0.18667962
-0.05351175 0.025902016 0.18784304
-0.054433748 0.022965252 0.18982883
-0.055467054 0.019637695 0.19243467
-0.056395195 0.01635403 0.19430734
-0.057282463 0.013108128 0.19623207
-0.057870619 0.010065505 0.19846335
-0.049468126 0.034542754 0.18294486
-0.049630817 0.031733248 0.18399954
-0.04990809 0.02895374 0.18542978
-0.050391059 0.026028857 0.18726169
-0.051290337 0.023001861 0.19009665
-0.052125171 0.019882333 0.19226871
-0.052889485 0.016306812 0.19410563
-0.054098926 0.012677947 0.19681308
-0.054871887 0.0082264822 0.20126596
-0.054499708 -0.0021652535 0.2021279
-0.052944187 -0.0073983334 0.19977386
-0.046129975 0.037313927 0.18152608
-0.045925297 0.03460915 0.18256804
-0.046508007 0.032040231 0.1838581
-0.046849504 0.02922103 0.18574554
-0.047423303 0.026206695 0.18785895
-0.048331525 0.022985065 0.19058046
-0.048999216 0.019937448 0.19239879
-0.049537282 0.016569577 0.19463263
-0.050642658 0.011678648 0.19816716
-0.051055733 0.0024915724 0.20297568
-0.050987914 -0.0041411687 0.20139331
-0.050578043 -0.0069529121 0.20104861
-0.051937681 -0.0079820994 0.20419155
-0.052448515 -0.010117297 0.2072767
-0.043071002 0.040125068 0.17996147
-0.043079436 0.037592836 0.18138415
-0.0429634 0.035051957 0.18259209
-0.043279067 0.032382354 0.18461867
-0.043831538 0.029690027 0.18694557
-0.044582173 0.02641467 0.1885062
-0.045696083 0.022959244 0.19088146
-0.046157144 0.019813053 0.19231175
-0.046483591 0.016405202 0.19454059
-0.047395796 0.0095211044 0.19930434
-0.047942925 0.0015928271 0.20073892
-0.047620237 -0.0036834553 0.20013145
-0.047720276 -0.0064254012 0.20209622
-0.048927315 -0.0069437609 0.20560102
-0.049719747 -0.0090125483 0.20879391
-0.050247159 -0.011252634 0.21188888
-0.050935585 -0.013436794 0.21523438
-0.051135849 -0.014240314 0.21994063
-0.040230289 0.040362615 0.17999269
-0.039951432 0.037884556 0.18150569
-0.040044829 0.035229046 0.18303064
-0.040318307 0.032560393 0.18521027
-0.0408553 0.029821239 0.18720271
-0.041591227 0.026616087 0.18882205
-0.042624701 0.022802161 0.19076025
-0.043154009 0.019624624 0.19193849
-0.043699235 0.015436039 0.194857
-0.043921832 0.0094743576 0.19819827
-0.044674303 0.0019481147 0.19905317
-0.044316601 -0.0029830041 0.19944859
-0.044477243 -0.0051734983 0.20226651
-0.045274686 -0.0067720884 0.20578603
-0.046296477 -0.0079876147 0.20953164
-0.047245558 -0.010091057 0.21283433
-0.047726214 -0.012342304 0.21610829
-0.047583561 -0.01304743 0.2192636
-0.048643485 -0.014714698 0.22334112
-0.048971307 -0.017851681 0.22623503
-0.036990408 0.040890925 0.17976609
-0.037006292 0.038023237 0.18175504
-0.037103381 0.035513688 0.18338197
-0.037412744 0.032860376 0.18550387
-0.038036682 0.029998308 0.18729073
-0.038460191 0.026784735 0.18866386
-0.039392408 0.023065202 0.19081683
-0.040228918 0.019261537 0.19251649
-0.040568862 0.015091451 0.19527602
-0.040665541 0.0098867491 0.19798239
-0.040853556 0.0026515592 0.19846854
-0.04094696 -0.0017093241 0.19929586
-0.041412123 -0.0036584293 0.20295654
-0.042400353 -0.0056899134 0.20699462
-0.043229297 -0.0075460589 0.20999619
-0.044075266 -0.0093308566 0.21334168
-0.044969823 -0.011321232 0.21738724
-0.04443299 -0.012313112 0.22009258
-0.045133166 -0.015445242 0.22268882
-0.0455794 -0.019046331 0.22521973
-0.04607508 -0.022000765 0.22809197
-0.034069788 0.041222833 0.18011364
-0.034138557 0.038637124 0.18204531
-0.034233689 0.035867486 0.18388878
-0.034475639 0.033207014 0.18562144
-0.035005137 0.030413143 0.1877645
-0.035549562 0.027341619 0.18925388
-0.036358789 0.022938024 0.19169149
-0.03752546 0.018766131 0.19413331
-0.037545685 0.014813572 0.1964367
-0.03764106 0.0096434979 0.19861463
-0.037900198 0.0037460739 0.19935438
-0.038048383 4.8235856e-05 0.20168929
-0.039016832 -0.002229877 0.20465085
-0.039251439 -0.0049744253 0.20809126
-0.040082559 -0.007189366 0.21132903
-0.041056477 -0.00881794 0.21476489
-0.041058179 -0.01106113 0.21820851
-0.040772267 -0.013056492 0.22007635
-0.041369721 -0.016254568 0.22228894
-0.041694302 -0.01970445 0.22493935
-0.04260714 -0.02281942 0.22766684
-0.030948421 0.041696873 0.18056081
-0.03106796 0.039009538 0.18262245
-0.031477083 0.036188133 0.18502955
-0.031926297 0.033523593 0.18690968
-0.032321893 0.030580452 0.18888102
-0.032738242 0.027275642 0.19021614
-0.033875361 0.023172071 0.19247021
-0.034687202 0.018903213 0.19519477
-0.034791093 0.015012153 0.19749947
-0.034727085 0.010617819 0.19953269
-0.034665879 0.004946271 0.20101409
-0.03528614 0.00084402156 0.20375367
-0.03624339 -0.0018164029 0.20639671
-0.035850897 -0.0044031413 0.20906584
-0.036843993 -0.0061838008 0.21305791
-0.037506852 -0.008664255 0.21618712
-0.037727922 -0.011491333 0.2189412
-0.037485708 -0.014260496 0.22101687
-0.03755068 -0.016754605 0.22286233
-0.037997544 -0.020349815 0.22505298
-0.038976997 -0.023410518 0.22812718
-0.027964663 0.042049173 0.18104532
-0.028307486 0.039298132 0.1831152
-0.028845314 0.036598701 0.18619217
-0.029190326 0.033803277 0.188191
-0.029503988 0.030477894 0.1899416
-0.030216562 0.027054243 0.19110581
-0.030767806 0.023634657 0.19359019
-0.031792872 0.019462071 0.19659039
-0.031788047 0.015960071 0.19899376
-0.031720087 0.012087012 0.20127043
-0.031768154 0.0062231761 0.2030407
-0.032422718 0.0017438111 0.20615937
-0.033320699 -0.000883614 0.20926905
-0.033105463 -0.0017077602 0.21176057
-0.033631042 -0.0051331297 0.21449395
-0.034088973 -0.0082204072 0.21714862
-0.033971913 -0.011065595 0.22023042
-0.034165159 -0.014624793 0.22247314
-0.034213163 -0.017706824 0.2244693
-0.034254562 -0.020829316 0.22638485
-0.035114903 -0.023850432 0.2295664
-0.025173144 0.04232315 0.18177256
-0.025315465 0.03960437 0.18351917
-0.02582561 0.036800608 0.18654299
-0.026390752 0.034036018 0.1887639
-0.027152799 0.030400161 0.19078808
-0.027406216 0.027268127 0.19238216
-0.027852088 0.023796218 0.19475994
-0.028686728 0.020185703 0.19780205
-0.028798526 0.016818438 0.20047566
-0.028372528 0.013598657 0.20276092
-0.028064124 0.010230311 0.20490085
-0.02780883 0.0063772732 0.20698652
-0.028503628 0.0030201045 0.21044853
-0.029408323 -0.00054324558 0.21349807
-0.030431636 -0.0042584552 0.21632831
-0.030899664 -0.0075351987 0.21874911
-0.030492617 -0.010837529 0.22142383
-0.030996721 -0.014074176 0.22389826
-0.031448245 -0.017167415 0.22695319
-0.031423885 -0.021546751 0.22935326
-0.032095905 -0.024703437 0.23125447
-0.032990005 -0.028121475 0.23337574
-0.022349857 0.042576861 0.18222219
-0.022479037 0.039847661 0.18385571
-0.02257484 0.036955617 0.18608566
-0.023711724 0.033969074 0.18925181
-0.02436788 0.030522447 0.19196741
-0.02482499 0.02753678 0.19418772
-0.025143951 0.024206106 0.19667217
-0.025524253 0.020683486 0.19894215
-0.025438862 0.017646296 0.20183459
-0.025025452 0.014460078 0.20402692
-0.024723135 0.011071077 0.20624667
-0.024536256 0.0074723344 0.20862338
-0.024943192 0.0039576353 0.21193965
-0.026124075 0.00028420513 0.21546881
-0.027036723 -0.0036750345 0.21784663
-0.027586849 -0.0070032827 0.21984777
-0.027223513 -0.010667857 0.2230294
-0.027440716 -0.01415124 0.22454986
-0.027720429 -0.017512195 0.22773139
-0.027984703 -0.021493476 0.23031768
-0.02832954 -0.024923116 0.23239847
-0.02910745 -0.028694263 0.23423165
-0.019635048 0.042836227 0.18271804
-0.019257417 0.03994491 0.18515065
-0.019810297 0.036997065 0.18706721
-0.019989783 0.034296639 0.18990055
-0.020709045 0.03135702 0.19286619
-0.021177741 0.028396577 0.19526143
-0.021571446 0.025187243 0.19818702
-0.022371216 0.02158583 0.20024107
-0.022227271 0.01840912 0.20301212
-0.021607969 0.015123826 0.2056385
-0.021467881 0.011614141 0.20769267
-0.021226697 0.0081174541 0.21049015
-0.021406678 0.0047624726 0.21323897
-0.022440838 0.0011755382 0.21693502
-0.023160446 -0.0027610792 0.21918604
-0.023151215 -0.0079084728 0.22124472
-0.023726625 -0.010666934 0.2243824
-0.023870675 -0.014219716 0.22599629
-0.024292247 -0.017764555 0.22867523
-0.024398156 -0.021442303 0.23071548
-0.024837218 -0.02508021 0.23181878
-0.025495386 -0.029107975 0.23496795
-0.016360506 0.039983477 0.18587446
-0.016392864 0.037119523 0.18792984
-0.016510339 0.034445386 0.19035496
-0.016995735 0.031824257 0.19330907
-0.017246354 0.029189847 0.19591425
-0.017346673 0.026762469 0.19983225
-0.018794006 0.022212716 0.20236711
-0.018679125 0.018987319 0.20438196
-0.01817847 0.015533498 0.20669252
-0.017729471 0.012174421 0.20849384
-0.017760769 0.0086482055 0.21210025
-0.018019812 0.0052929306 0.21492958
-0.018300531 0.0018279414 0.21775055
-0.01853369 -0.001414605 0.22038165
-0.019934371 -0.0070433989 0.2239123
-0.020451242 -0.010669712 0.22619005
-0.020445699 -0.014444517 0.22765937
-0.020609377 -0.017563567 0.22948919
-0.020921636 -0.021525122 0.23078677
-0.021270355 -0.025359433 0.23286429
-0.022180023 -0.029562742 0.23760307
-0.013399462 0.037146848 0.18916936
-0.013293329 0.034640335 0.19124945
-0.013634319 0.032127108 0.19389006
-0.013623341 0.029602056 0.19675064
-0.013633147 0.02713866 0.20023414
-0.013448024 0.024262806 0.20448238
-0.013906972 0.020143434 0.20719941
-0.014023349 0.01632428 0.20885167
-0.014197481 0.012479441 0.21048295
-0.014343462 0.0092015779 0.21309154
-0.014624084 0.005899359 0.21582612
-0.014763602 0.0022495093 0.21859685
-0.015293833 -0.0013776857 0.22171344
-0.016504049 -0.0063840579 0.2252667
-0.016812015 -0.010309222 0.2273304
-0.016750643 -0.014236991 0.22947422
-0.017027643 -0.017758025 0.23107317
-0.017048901 -0.021483732 0.23245169
-0.018000826 -0.025617661 0.23513228
-0.01881703 -0.030190673 0.24112208
-0.01067817 0.034657858 0.19206433
-0.010316054 0.032388829 0.19487983
-0.010119694 0.030002514 0.19812952
-0.010032899 0.027235627 0.2008896
-0.0097920485 0.024174523 0.20481709
-0.01011284 0.020480536 0.2081213
-0.010566244 0.016908752 0.21017593
-0.010979562 0.012677899 0.21210928
-0.01103061 0.0093964096 0.21364938
-0.011053003 0.0060210191 0.21721935
-0.011435522 0.002394672 0.21988085
-0.011934465 -0.001329396 0.22252065
-0.012974569 -0.005972201 0.2261063
-0.013111803 -0.0099634109 0.22845928
-0.013048325 -0.013917509 0.23032953
-0.013144285 -0.017715042 0.23254637
-0.013117178 -0.021113355 0.23421393
-0.014646797 -0.026390409 0.23808321
-0.015658941 -0.030366931 0.24292684
-0.0068540205 0.032774698 0.19688046
-0.0067624664 0.030395281 0.19951846
-0.0064329947 0.02737016 0.20283641
-0.0064298119 0.024263045 0.205415
-0.0066773398 0.02071872 0.20826568
-0.0069385618 0.016974591 0.21078861
-0.0075338832 0.012881059 0.2124054
-0.0074403323 0.0095461383 0.21399201
-0.0075071626 0.0062787849 0.21744329
-0.0080040162 0.0024280804 0.22037473
-0.0084039392 -0.0015691579 0.22301012
-0.0086305458 -0.0055977073 0.22558433
-0.0092880186 -0.0092666652 0.22826147
-0.0093167266 -0.013245197 0.23046997
-0.0094330609 -0.017365174 0.23265302
-0.0094046779 -0.02120702 0.2349482
-0.010581438 -0.024810776 0.23851512
-0.0030531778 0.030303573 0.20034482
-0.0028352297 0.027542191 0.20259844
-0.0026927409 0.02426395 0.20486379
-0.003061587 0.020909393 0.20755599
-0.0033892582 0.017215179 0.21056111
-0.003911858 0.013170297 0.21248563
-0.0042462363 0.0096519701 0.21431254
-0.004192512 0.0061450936 0.21785498
-0.00407572 0.0017114135 0.2199726
-0.0045873155 -0.0020262906 0.22367877
-0.0049117352 -0.0056082681 0.22523908
-0.0048515233 -0.0091421222 0.22818416
-0.0057311137 -0.012442564 0.22999518
-0.0061791809 -0.016388992 0.23201792
-0.00012465082 0.030409595 0.20152244
0.00044355443 0.027676415 0.20253356
0.00077686436 0.024534358 0.20434274
0.00060121523 0.021110497 0.20672695
0.00045185565 0.017570909 0.20917864
6.3633663e-05 0.013658582 0.21123932
-0.00057735178 0.0098104384 0.21367802
6.5868476e-06 0.005002588 0.21705154
0.00024656337 0.0012128421 0.21895753
-0.00084239477 -0.0023832498 0.22295482
-0.0012408359 -0.0057601705 0.22504789
-0.0013195494 -0.0092208236 0.22787121
0.0039256522 0.028029736 0.20288897
0.0043104235 0.024748186 0.20389572
0.0041859285 0.021359975 0.20575738
0.0039953711 0.017779902 0.2085557
0.0039540892 0.014433388 0.2106051
0.0035483155 0.010230872 0.21193179
0.0036445749 0.0046387254 0.2166729
0 0 0 1 0 0 0 1 0 0 0 1 0 0 0 0 0 336 1 0 0
