ply
format ascii 1.0
comment PCL generated
element vertex 336
property float x
property float y
property float z
element camera 1
property float view_px
property float view_py
property float view_pz
property float x_axisx
property float x_axisy
property float x_axisz
property float y_axisx
property float y_axisy
property float y_axisz
property float z_axisx
property float z_axisy
property float z_axisz
property float focal
property float scalex
property float scaley
property float centerx
property float centery
property int viewportx
property int viewporty
property float k1
property float k2
end_header
-0.055703871 0.031945527 0.18579488
-0.056193355 0.029046381 0.18681569
-0.056948394 0.026222007 0.18936512
-0.057670306 0.023430869 0.19214655
-0.057969857 0.020364532 0.19406374
-0.051781084 0.034479272 0.18262744
-0.052312817 0.031695992 0.18437997
-0.052548334 0.028690126 0.18517734
-0.053205673 0.026074877 0.18756187
-0.054023609 0.023256797 0.19061522
-0.054745134 0.020410476 0.1934993
-0.055169031 0.017236657 0.1952516
-0.055638101 0.014080635 0.19770072
-0.048148498 0.037212394 0.1804833
-0.04844432 0.034310061 0.18145216
-0.048875399 0.031532049 0.18314309
-0.04931334 0.028658099 0.18465139
-0.050160896 0.026128197 0.18791035
-0.050766554 0.023302209 0.1904619
-0.051409293 0.020471856 0.19327629
-0.052051421 0.017394893 0.19632341
-0.053038459 0.014062752 0.20000324
-0.053893615 0.0097085144 0.20369253
-0.054496199 0.0061615231 0.20565869
-0.044688124 0.039758496 0.17891835
-0.044900518 0.037111655 0.18010752
-0.045392018 0.034326583 0.18150516
-0.045866627 0.031693242 0.18362772
-0.046346836 0.028808834 0.18544678
-0.047197245 0.026142674 0.18865485
-0.047664214 0.02336571 0.19084397
-0.048205711 0.020679303 0.19364004
-0.049066 0.017426126 0.19767006
-0.049983159 0.013519632 0.20159605
-0.051065616 0.0096069621 0.20579463
-0.051772922 0.0064758728 0.20791672
-0.052442268 0.0036283711 0.21084179
-0.052774083 0.00043470247 0.21270847
-0.041206174 0.042189106 0.17777131
-0.041670855 0.039865948 0.17933872
-0.041965652 0.037302781 0.18073183
-0.042590566 0.034655828 0.18310878
-0.043133367 0.032059561 0.18560109
-0.043446369 0.029088888 0.18684161
-0.044259928 0.02622574 0.18942192
-0.044621635 0.023334451 0.1912199
-0.04515643 0.020528946 0.19378769
-0.045778211 0.017265795 0.19726421
-0.046786286 0.013635486 0.20227116
-0.047711562 0.0098503884 0.20601001
-0.048595775 0.0066075879 0.20909058
-0.049016099 0.0037062925 0.21155359
-0.049475249 0.00053587114 0.21392971
-0.049806304 -0.0028555552 0.21589363
-0.050278768 -0.0060598929 0.21854518
-0.050251562 -0.0091856318 0.22055078
-0.038420696 0.042378668 0.17797379
-0.03868949 0.039931502 0.17972836
-0.039061755 0.037375774 0.18128975
-0.039681636 0.034911077 0.18397778
-0.040208675 0.032336336 0.18653357
-0.040545605 0.029219272 0.18789577
-0.041095246 0.026220858 0.18979277
-0.041401058 0.023235034 0.19088131
-0.041847717 0.020360945 0.19371055
-0.04255867 0.01729707 0.19775175
-0.043382164 0.013763417 0.20236757
-0.044187494 0.010139624 0.20586878
-0.045006949 0.0069106068 0.20874035
-0.045473341 0.0036596975 0.21154232
-0.045931827 0.00066187012 0.21421522
-0.046405096 -0.0025687262 0.21677639
-0.046811473 -0.0060807262 0.218997
-0.047247291 -0.0094621861 0.22099231
-0.047556583 -0.013149624 0.22253874
-0.04733846 -0.016672751 0.22440822
-0.035518721 0.042793632 0.17900243
-0.035694022 0.040020615 0.18016565
-0.036095895 0.037391648 0.18183678
-0.036568929 0.034978762 0.18436658
-0.037159387 0.032275453 0.18681841
-0.0373183 0.029348578 0.18797688
-0.037860543 0.026407907 0.190231
-0.038332757 0.023317635 0.19194578
-0.038732704 0.020391343 0.19470343
-0.039452918 0.017301779 0.19844349
-0.040105101 0.013990388 0.20273697
-0.040737413 0.010628751 0.20573746
-0.041371088 0.0071393531 0.20853733
-0.042089872 0.0038199925 0.21239635
-0.042463098 0.00067665445 0.21483617
-0.043021072 -0.0026030757 0.21760602
-0.043447599 -0.0058836699 0.22020839
-0.043743156 -0.0094828689 0.22109786
-0.043914892 -0.013284076 0.22193338
-0.044150453 -0.017252419 0.22399555
-0.044226598 -0.020902092 0.22663325
-0.032609954 0.043028388 0.17960995
-0.032841783 0.040311608 0.18109845
-0.033050686 0.037540063 0.18248673
-0.033441864 0.034900181 0.18456383
-0.033925649 0.03231512 0.18700331
-0.034418572 0.02949883 0.18920396
-0.035008743 0.026588624 0.1915739
-0.035412956 0.023712553 0.19401781
-0.03579111 0.020668838 0.19672263
-0.036408037 0.017334804 0.20002113
-0.036942203 0.01413833 0.20287843
-0.037478834 0.010777395 0.20632063
-0.038092796 0.0073560653 0.20937817
-0.038535856 0.0038714665 0.21271363
-0.039030395 0.00052680395 0.21581268
-0.039430711 -0.0026769184 0.21834558
-0.039836287 -0.0062427963 0.22039421
-0.040081751 -0.0098401643 0.22085251
-0.040225733 -0.0135951 0.2224115
-0.040307492 -0.01756613 0.22450992
-0.040637556 -0.02138989 0.22587864
-0.029680233 0.043264031 0.18026613
-0.029882943 0.04062704 0.18197195
-0.030207977 0.037970565 0.18428755
-0.030537369 0.035381999 0.18625391
-0.031019622 0.032575976 0.18866955
-0.03143619 0.029854637 0.19066809
-0.031934768 0.026894214 0.19303936
-0.032331001 0.023950122 0.1954459
-0.032736547 0.020779261 0.19816576
-0.033185959 0.017623687 0.20096783
-0.033634935 0.014239412 0.2041273
-0.034085177 0.010769979 0.20727262
-0.034682501 0.007399763 0.21006896
-0.035088889 0.0038663475 0.21309857
-0.035493184 0.00051404181 0.21643899
-0.035984561 -0.0030470891 0.21826679
-0.036267921 -0.0065221027 0.22027969
-0.036451619 -0.010195578 0.22221111
-0.036543299 -0.013850353 0.2236864
-0.036664777 -0.017769955 0.22516729
-0.036979817 -0.021554299 0.22645514
-0.026715366 0.043527771 0.18102415
-0.026923813 0.040739354 0.18273246
-0.027461585 0.038299199 0.18586002
-0.027732931 0.035685141 0.18795229
-0.02812263 0.032963622 0.18991829
-0.028395386 0.029983943 0.19143911
-0.028818332 0.027052434 0.19398701
-0.029267738 0.024132317 0.19703543
-0.029586853 0.021110542 0.1993569
-0.030058479 0.017912496 0.20270579
-0.030387728 0.014447596 0.20547876
-0.030646889 0.01078157 0.20861617
-0.031294815 0.0071734027 0.21148315
-0.031686109 0.0039239875 0.21419792
-0.031956922 0.00042703282 0.21647497
-0.03229291 -0.0031817993 0.21799451
-0.032410406 -0.0066396077 0.22102553
-0.032680172 -0.010429063 0.22350194
-0.032904319 -0.014221251 0.22502607
-0.032952022 -0.018046582 0.22617251
-0.033354804 -0.021902423 0.2285095
-0.023718374 0.043691665 0.18179668
-0.023870785 0.040947553 0.18318242
-0.024308586 0.038280822 0.18591678
-0.024639266 0.035829362 0.18827513
-0.025022915 0.033157296 0.1906056
-0.025298553 0.030170387 0.19235426
-0.02562519 0.027200785 0.19481675
-0.026081253 0.0242607 0.19793488
-0.026476307 0.021235364 0.20040603
-0.02673135 0.018067004 0.20327392
-0.027036341 0.014833726 0.20619577
-0.027646666 0.011374854 0.20972547
-0.027954893 0.0077280314 0.21243346
-0.028065816 0.0039194166 0.21506473
-0.02835007 0.00042482678 0.21747282
-0.028596671 -0.0031966618 0.21916561
-0.028765077 -0.0067651831 0.22180951
-0.029061699 -0.010568303 0.22336201
-0.029253652 -0.014407165 0.2258054
-0.029424805 -0.018137446 0.22795138
-0.029731927 -0.022037193 0.22975463
-0.029901199 -0.026037313 0.23157455
-0.020693798 0.043876767 0.1824154
-0.020811921 0.041056298 0.18368156
-0.020979701 0.038175747 0.18525347
-0.021500885 0.035820641 0.18853794
-0.021988027 0.033089593 0.19126727
-0.02229557 0.030250406 0.19343171
-0.022536673 0.027241386 0.19637433
-0.022893252 0.024401555 0.19906849
-0.023238344 0.021473169 0.20166433
-0.023372965 0.018217994 0.20450076
-0.023656707 0.014898645 0.20728937
-0.024148881 0.011545109 0.21057414
-0.024405496 0.0077181039 0.21352869
-0.024479289 0.003914413 0.21632405
-0.024694962 0.00027744382 0.2181382
-0.024830751 -0.0033645621 0.21987969
-0.025248341 -0.0068038167 0.22264937
-0.025349688 -0.010580004 0.22270538
-0.025436606 -0.014282785 0.22518744
-0.02570913 -0.018328166 0.22860521
-0.025802022 -0.022281324 0.2304392
-0.025940316 -0.026186634 0.23137459
-0.017998893 0.044046614 0.18350747
-0.017855449 0.041266289 0.18500404
-0.017883932 0.038337663 0.18596399
-0.018175974 0.035973184 0.18906479
-0.01856669 0.033168465 0.19169888
-0.018892193 0.030313421 0.19365506
-0.019191667 0.02742251 0.19719554
-0.019682966 0.02454827 0.19996342
-0.019917868 0.021631025 0.20264654
-0.020046256 0.018392311 0.20587575
-0.020374049 0.014958874 0.20874092
-0.020680163 0.011543349 0.21200441
-0.02082834 0.0077942573 0.21428901
-0.021037748 0.0039589205 0.21768248
-0.021074843 0.00016108216 0.21948227
-0.021207666 -0.0034548594 0.21996823
-0.02149098 -0.0069495649 0.22283651
-0.021638686 -0.010714932 0.2232818
-0.021914728 -0.014429054 0.22570612
-0.021890171 -0.018465389 0.22870827
-0.021887638 -0.022163946 0.2290484
-0.022048671 -0.026298814 0.23192169
-0.014607744 0.041519657 0.1858699
-0.014794973 0.03873273 0.18752362
-0.014952027 0.036015984 0.18939196
-0.015269855 0.0333694 0.19213866
-0.015503897 0.030434478 0.19421341
-0.015893998 0.027694283 0.19819206
-0.01645655 0.024712961 0.20227365
-0.016526259 0.021808367 0.2046677
-0.016606431 0.018456886 0.20719349
-0.016768923 0.014950749 0.20921941
-0.017048499 0.011394235 0.21283281
-0.017286681 0.0078392671 0.21546315
-0.01748519 0.0040724436 0.21812759
-0.017481258 5.0567254e-05 0.2200855
-0.017378222 -0.0037792481 0.22103655
-0.017766567 -0.0072283773 0.22370286
-0.017906146 -0.010923091 0.22443518
-0.018040357 -0.01434589 0.22713886
-0.018097246 -0.0184115 0.22831705
-0.018009249 -0.022296334 0.22964646
-0.01823711 -0.026639421 0.23470467
-0.011916689 0.039089296 0.18875378
-0.011825976 0.036268417 0.19020969
-0.012126966 0.03353579 0.19286789
-0.012340826 0.030747104 0.19543914
-0.012599098 0.027783794 0.19864435
-0.013001118 0.024632737 0.20306955
-0.013054625 0.021591045 0.20631272
-0.013331919 0.018325029 0.20892759
-0.013347967 0.014984907 0.21086857
-0.013562595 0.011587976 0.21404438
-0.013781943 0.0081803398 0.21669154
-0.013795644 0.0043463572 0.21846546
-0.013823225 0.0002269486 0.22070462
-0.013722789 -0.0036148322 0.22229213
-0.0139758 -0.0072599417 0.22466569
-0.014235082 -0.010880077 0.22756474
-0.014444516 -0.01463724 0.22952762
-0.014280026 -0.018460428 0.23039865
-0.014324529 -0.022542128 0.23257691
-0.014359629 -0.027024196 0.23871952
-0.0091707166 0.036259726 0.19133346
-0.0089293271 0.03381433 0.19401839
-0.0091820918 0.03105988 0.19702551
-0.0092793712 0.02794903 0.19950874
-0.0093220621 0.024687938 0.20311424
-0.0096528698 0.021382429 0.20627901
-0.009818417 0.01823003 0.20948559
-0.0099459328 0.01493108 0.21263048
-0.010064674 0.011805053 0.21463734
-0.010191397 0.0083901882 0.21746743
-0.010172181 0.0044935308 0.21959442
-0.010152651 0.0004219485 0.22137612
-0.010185911 -0.0035739804 0.22357805
-0.010289268 -0.0072746254 0.22591291
-0.01044054 -0.010956169 0.22850743
-0.010647306 -0.014689822 0.23116261
-0.010562044 -0.018483216 0.23259397
-0.010377984 -0.022880668 0.23512992
-0.010811676 -0.026796883 0.24041793
-0.0058511728 0.034213331 0.19739699
-0.0059582209 0.031456005 0.1996121
-0.0059068943 0.028175643 0.20226751
-0.0059517305 0.024891967 0.20472459
-0.006134653 0.021446023 0.2069277
-0.0062761065 0.018141577 0.20998001
-0.0064050122 0.014923947 0.21282764
-0.0064890059 0.011778151 0.21495731
-0.0065111979 0.0086617628 0.21730527
-0.0065508168 0.0047242511 0.21998139
-0.0064408453 0.00073308498 0.22197159
-0.0065054684 -0.0033162152 0.22415794
-0.0066091656 -0.0071049072 0.2261634
-0.0066121491 -0.010993803 0.22896168
-0.0067807157 -0.014759708 0.23077482
-0.0067709624 -0.018567204 0.23356494
-0.0067894538 -0.022330225 0.2355095
-0.0024786904 0.031501926 0.20029843
-0.0022885317 0.028189836 0.20196214
-0.0023006455 0.024866249 0.20423207
-0.0025997895 0.021519797 0.20693007
-0.0026495992 0.018117677 0.21013923
-0.0028202194 0.014780784 0.21279982
-0.0028831554 0.011607451 0.21502221
-0.0028581196 0.008695879 0.21745728
-0.0027276536 0.0047876369 0.21975683
-0.0027597407 0.00086738309 0.22298527
-0.0027171436 -0.0031059925 0.22423978
-0.0027638951 -0.0070357039 0.22638755
-0.0028172135 -0.010864172 0.22806583
-0.0032947836 -0.014703141 0.23017107
0.00062367419 0.03105719 0.20143828
0.0010594778 0.028205482 0.20219749
0.0012018804 0.024918895 0.2038949
0.0010092828 0.021491222 0.20612217
0.00094829558 0.018112067 0.20876008
0.00084478332 0.014554731 0.21114923
0.00078475161 0.011281512 0.2139779
0.00094887777 0.0086014988 0.21702774
0.0011202154 0.004804994 0.21850695
0.0010783963 0.00087122549 0.22223121
0.0011258352 -0.0029837287 0.22387111
0.001084643 -0.0068440097 0.22638661
0.0045565423 0.028193152 0.20207536
0.004614383 0.024826355 0.20289747
0.0045489599 0.021478062 0.20508248
0.0044662403 0.017998133 0.2078781
0.0044505605 0.014563314 0.21026514
0.0044149058 0.011005688 0.21222468
0.0042368951 0.0086922208 0.21600327
0 0 0 1 0 0 0 1 0 0 0 1 0 0 0 0 0 336 1 0 0
