ply
format ascii 1.0
comment Automatically gnerated by model-converter
element vertex 764
property float x
property float y
property float z
element face 0
property list uchar int vertex_indices
end_header
-0.029365202 0.018194659 0.088256327
-0.029940444 0.017016545 0.089906499
-0.030157573 0.015613669 0.090660627
-0.030387531 0.014119739 0.091286021
-0.03081377 0.012692459 0.09234045
-0.031319867 0.011366714 0.093486952
-0.031629019 0.010001895 0.094389461
-0.03195214 0.0087094875 0.095198753
-0.032661091 0.0075160181 0.096800146
-0.033419648 0.0062859917 0.099055906
-0.034492351 0.0048311581 0.10172741
-0.035030526 0.0031912991 0.10293035
-0.035311727 0.0014783114 0.10336874
-0.035678281 -0.00015317945 0.10412077
-0.036173496 -0.0019008187 0.10524122
-0.036824265 -0.0036923425 0.10707528
-0.03761765 -0.0055313882 0.11018285
-0.02844574 0.018511963 0.08954746
-0.028790551 0.017298046 0.090831699
-0.028952063 0.015798647 0.091368142
-0.029182637 0.014285139 0.091962966
-0.029661214 0.012866721 0.093083327
-0.030085649 0.011464741 0.094083438
-0.030476821 0.010185748 0.095325706
-0.030954277 0.0088872009 0.096381808
-0.031501771 0.0076260856 0.097908981
-0.032290797 0.0063293831 0.10001824
-0.033149571 0.0047485999 0.10238929
-0.033626146 0.0031010841 0.10368976
-0.033898788 0.0013859422 0.10414721
-0.034307562 -0.00034928336 0.10508909
-0.034829451 -0.0021517704 0.10638963
-0.035445678 -0.0040207921 0.10809528
-0.036066386 -0.005947482 0.1100008
-0.026678204 0.018400105 0.088578564
-0.027208526 0.01734198 0.090501328
-0.027684267 0.015833985 0.091907275
-0.02793784 0.014394995 0.092716411
-0.028338072 0.013041632 0.093740187
-0.028646924 0.011572087 0.094591779
-0.028999161 0.010173559 0.095713734
-0.029453157 0.0089231158 0.096804433
-0.030131474 0.0076558756 0.098854547
-0.030894531 0.0062946974 0.10092833
-0.031579671 0.0046837859 0.10291371
-0.032129892 0.002894266 0.10444989
-0.032407103 0.0011731677 0.10537178
-0.032780261 -0.00063381089 0.10617897
-0.033234519 -0.0024184009 0.107321
-0.033899095 -0.0043474886 0.10915652
-0.034339013 -0.0062700547 0.11045562
-0.025035638 0.018400374 0.088091853
-0.025628696 0.017378655 0.090177797
-0.026379419 0.016049367 0.092489511
-0.026693756 0.014564308 0.093570198
-0.027191661 0.013292768 0.095085936
-0.027429591 0.011760072 0.095713345
-0.027684837 0.010273841 0.096475837
-0.027989368 0.0089221758 0.097497525
-0.028606536 0.0076037378 0.099314059
-0.029344893 0.0062902876 0.10190139
-0.029975472 0.004604104 0.10338908
-0.030431514 0.0028132218 0.10468309
-0.030856854 0.00087649742 0.10618821
-0.031211242 -0.00089517524 0.10732074
-0.031568506 -0.0026126976 0.10816985
-0.032117424 -0.0043311389 0.10950728
-0.032581297 -0.0063241832 0.11101412
-0.023526697 0.01844194 0.088063811
-0.024163961 0.017488213 0.090375778
-0.024919945 0.016193382 0.092618965
-0.025110153 0.014741822 0.093693714
-0.025603186 0.013254261 0.09508765
-0.025831723 0.011750104 0.09587949
-0.026283226 0.010329783 0.097286446
-0.026598718 0.0089945492 0.098526627
-0.027034873 0.0075098751 0.09963611
-0.027628603 0.0061395056 0.10198415
-0.028178921 0.0045085256 0.10314223
-0.028511572 0.0025852982 0.10438101
-0.029254865 0.00079771837 0.10651285
-0.029557433 -0.0010648426 0.10795965
-0.029927381 -0.0028189171 0.10898617
-0.030304921 -0.0044823398 0.11010333
-0.030632123 -0.0062660612 0.1112657
-0.021932849 0.018384935 0.087704582
-0.022770626 0.017415974 0.09052178
-0.023274643 0.016194227 0.092584896
-0.023455221 0.014805251 0.093393738
-0.023839096 0.013221697 0.094694512
-0.024184319 0.011662265 0.095903807
-0.024719874 0.010363397 0.097766859
-0.025087499 0.0088951451 0.098798648
-0.025379549 0.0073853739 0.099858249
-0.025836165 0.0058968472 0.1013631
-0.026163493 0.0042549369 0.10252229
-0.026790914 0.0024832151 0.10420043
-0.027381341 0.0005748589 0.10644169
-0.027786308 -0.0012278598 0.10804232
-0.028108159 -0.0030838308 0.10909874
-0.02835014 -0.0048394917 0.11014642
-0.028647021 -0.0065782868 0.11122365
-0.020250346 0.018225972 0.087211497
-0.021159909 0.017380701 0.090266037
-0.021583184 0.016198062 0.092288131
-0.021882389 0.014819178 0.093536603
-0.02218678 0.013369608 0.094691095
-0.022614369 0.011686265 0.096063676
-0.023144559 0.01040353 0.097971216
-0.023423975 0.0089256562 0.099098138
-0.023639707 0.0073790794 0.099923159
-0.023923384 0.005803371 0.10095452
-0.02419303 0.0041859076 0.10201218
-0.024707516 0.0024536031 0.10400113
-0.025417739 0.00052347383 0.10617969
-0.025954444 -0.0014026829 0.10788962
-0.026264148 -0.0031849857 0.10914881
-0.026441035 -0.0049321751 0.11030702
-0.026953307 -0.0065368836 0.11094394
-0.018786421 0.018037807 0.087285965
-0.019537868 0.017316477 0.089970579
-0.019965509 0.016141268 0.092116383
-0.020227783 0.014769096 0.093342865
-0.020603785 0.013376661 0.094918614
-0.020935835 0.011779579 0.095977468
-0.021398869 0.010353026 0.097702779
-0.021673886 0.0088897127 0.099032258
-0.021860662 0.0072753149 0.099797609
-0.0221615 0.0057396522 0.10086116
-0.022361852 0.0041069564 0.10166852
-0.022723376 0.0024932529 0.10343365
-0.023289895 0.00066061378 0.10553391
-0.023987222 -0.0013667016 0.10732277
-0.024314642 -0.0032436396 0.10850688
-0.024552993 -0.0051069419 0.10969354
-0.024669263 -0.006836505 0.1107279
-0.017209173 0.018031853 0.087005203
-0.017701189 0.017075957 0.089306687
-0.0182156 0.016053556 0.091593581
-0.018554807 0.014742285 0.093318684
-0.018939238 0.01333759 0.094944201
-0.019208175 0.011697313 0.095770999
-0.019565399 0.010267428 0.097242229
-0.019948939 0.0089089066 0.099093551
-0.020151872 0.0073281772 0.099945091
-0.020342181 0.0056758447 0.10059625
-0.020525237 0.0040989236 0.10145242
-0.020779232 0.0024692829 0.10295505
-0.021079753 0.00073438805 0.10437753
-0.021562341 -0.0012520225 0.10585896
-0.02211939 -0.0033073319 0.10736589
-0.022610903 -0.0051747812 0.10850194
-0.022686781 -0.0070145499 0.10951764
-0.022654389 -0.0088760465 0.11046525
-0.015652869 0.017889073 0.086224827
-0.016061059 0.016960009 0.088633006
-0.016400828 0.015877073 0.090634321
-0.016806597 0.014623313 0.092727639
-0.017196004 0.013204175 0.094654727
-0.017388699 0.011651448 0.095788092
-0.017827496 0.010210713 0.09706269
-0.018222074 0.0089287298 0.098946805
-0.018400794 0.0073474988 0.099759582
-0.018509708 0.0056434842 0.10030421
-0.018723004 0.0040650639 0.10121916
-0.018845372 0.0024743825 0.10222431
-0.019128368 0.00068210347 0.103612
-0.019440047 -0.0011894355 0.1045741
-0.019685443 -0.0031155624 0.10560145
-0.020000228 -0.0050384084 0.10653687
-0.020136798 -0.0069783156 0.10750153
-0.020375208 -0.0088602764 0.1087089
-0.020707674 -0.010819057 0.11052929
-0.014049972 0.017839303 0.085506196
-0.014466203 0.016847856 0.087864871
-0.014704869 0.015651382 0.089826087
-0.015049884 0.014511343 0.092317708
-0.015308834 0.013081101 0.094196623
-0.015432541 0.011575992 0.095683545
-0.015976653 0.010205568 0.097061435
-0.016429146 0.0088526265 0.098754865
-0.016569556 0.0073299641 0.099657923
-0.016684653 0.0056996274 0.10025892
-0.016822058 0.0040762574 0.10089955
-0.01696429 0.0023871 0.10159578
-0.017213003 0.00064740318 0.10268786
-0.017339053 -0.0011737825 0.10313453
-0.01745121 -0.0030415743 0.10365398
-0.017524307 -0.0048538768 0.10450254
-0.017843564 -0.0069071307 0.10593066
-0.018020618 -0.0088324177 0.10722021
-0.01835087 -0.010830168 0.10919984
-0.018465526 -0.01240806 0.11092126
-0.012528659 0.017840388 0.085075026
-0.012949076 0.016771056 0.087586696
-0.01307233 0.015564313 0.089221631
-0.013261151 0.014500471 0.091865413
-0.013454074 0.013116602 0.093664075
-0.013416707 0.01172227 0.095235534
-0.013222347 0.010359392 0.096862761
-0.013685904 0.008962025 0.098405853
-0.014648352 0.0073589541 0.099400932
-0.014614489 0.0058211327 0.10018233
-0.014903743 0.0040953091 0.10071021
-0.015024742 0.0023209118 0.10086905
-0.015184862 0.0005829834 0.10141907
-0.015297814 -0.001155736 0.10209752
-0.015325229 -0.0029727455 0.10233417
-0.015418303 -0.004792242 0.10317566
-0.015691794 -0.0067752116 0.10448503
-0.015868904 -0.0086632737 0.10583183
-0.016195294 -0.0106158 0.10785024
-0.016574683 -0.012677386 0.11060361
-0.01108516 0.017774628 0.084728584
-0.011307019 0.016722891 0.086743588
-0.011491125 0.015428421 0.088683836
-0.011502539 0.014298722 0.090764508
-0.011533351 0.013225653 0.093025285
-0.011372224 0.011777999 0.09399119
-0.011096795 0.010432431 0.09518447
-0.010735171 0.0091200381 0.096634296
-0.010356704 0.007801525 0.098079207
-0.012566288 0.0057715536 0.099183753
-0.013038672 0.003983569 0.10002904
-0.01321201 0.0022622026 0.10053062
-0.013283367 0.00050154478 0.10077831
-0.013328341 -0.001255149 0.10114283
-0.013467615 -0.0030152305 0.10169382
-0.013573971 -0.0048078735 0.1026037
-0.013664667 -0.0066939984 0.10336413
-0.013843859 -0.008510276 0.10466847
-0.014147045 -0.010486142 0.10676445
-0.014502856 -0.01251999 0.10940815
-0.0096574829 0.017619668 0.08414308
-0.0098053176 0.016710802 0.086430478
-0.010006677 0.015329712 0.088162231
-0.010005477 0.014054886 0.089862813
-0.0097592641 0.013060236 0.091562579
-0.0095893691 0.011780552 0.092844329
-0.0092729513 0.010400328 0.093733907
-0.0089064085 0.0090027582 0.094643816
-0.0085325372 0.0076537268 0.095755741
-0.0085057597 0.0061273837 0.09699407
-0.0097907085 0.0042727169 0.099139161
-0.011160925 0.0022838964 0.099669675
-0.011432193 0.00050142722 0.10022888
-0.011548692 -0.0012487338 0.10051547
-0.011613245 -0.0030249877 0.10115404
-0.011752916 -0.004847388 0.10228029
-0.011839626 -0.0066320502 0.10308431
-0.011878992 -0.0084531537 0.10385987
-0.012078508 -0.010347416 0.10592938
-0.012404154 -0.012434482 0.10840674
-0.0082143679 0.017568306 0.083971455
-0.0083242055 0.01660698 0.085944267
-0.0085005528 0.015305285 0.087447504
-0.0085478882 0.013952912 0.089082343
-0.0082895253 0.012850246 0.090557746
-0.0080180795 0.011474243 0.091082036
-0.0076297582 0.010220914 0.091856939
-0.0074245851 0.0088000832 0.09258195
-0.0072824795 0.0073261866 0.093573973
-0.0073860418 0.0057703901 0.094566648
-0.0077322423 0.004138081 0.096094494
-0.0083954511 0.0023484932 0.097784973
-0.0091266809 0.00055854913 0.099369869
-0.0095774298 -0.0012472551 0.099954447
-0.0098151642 -0.0030084199 0.10089804
-0.0098872697 -0.0047871966 0.10187841
-0.0099276034 -0.006558394 0.10248761
-0.010020245 -0.0083662234 0.10363715
-0.010258935 -0.010292641 0.10556568
-0.010387065 -0.012291215 0.10768556
-0.010666683 -0.014307524 0.11067773
-0.0068253021 0.017515611 0.083582106
-0.0068349756 0.016525536 0.085194292
-0.006975438 0.015289469 0.086805088
-0.0070542288 0.013874643 0.08800857
-0.0069703941 0.0125488 0.089188802
-0.0066037248 0.011401208 0.090050377
-0.006153304 0.0098297723 0.090230159
-0.0060906986 0.0083423179 0.090809154
-0.006130874 0.0068980875 0.091907665
-0.0062619066 0.0053890082 0.092818918
-0.0064648523 0.0037410716 0.093933858
-0.0068233455 0.0020313579 0.095510888
-0.00743369 0.00029608492 0.097507842
-0.00771976 -0.0014507819 0.099266003
-0.0079368471 -0.0030668691 0.10074465
-0.0080126524 -0.0047778593 0.10163488
-0.008078509 -0.0065509418 0.10222403
-0.0081856328 -0.0083668111 0.10334498
-0.0083384905 -0.010249935 0.1053425
-0.0085041765 -0.012295088 0.10735662
-0.0087446592 -0.01450741 0.11062173
-0.0053790016 0.017486646 0.082888759
-0.0053788153 0.016438021 0.084422191
-0.005460944 0.015227903 0.085918037
-0.0055225138 0.013823089 0.087071925
-0.0055803757 0.012377908 0.088105986
-0.0055392895 0.010898748 0.088421501
-0.0052012933 0.0095359245 0.088863802
-0.0052047138 0.0080018993 0.089150742
-0.0053341505 0.0064365166 0.089705368
-0.0053558183 0.0049337344 0.090891242
-0.005349433 0.0031403208 0.092119192
-0.0055762967 0.0015203678 0.093501309
-0.0057805286 -9.9679537e-05 0.095579776
-0.0059244086 -0.0015497618 0.098698517
-0.0061734224 -0.0031626653 0.10050689
-0.0062694665 -0.0047969571 0.10156099
-0.0062826878 -0.0065519355 0.10213699
-0.0063548691 -0.0083426914 0.10345428
-0.0064742147 -0.010259988 0.10519543
-0.0066282163 -0.012290246 0.10746054
-0.0068064947 -0.014546305 0.11058303
-0.0039220794 0.016318344 0.083556011
-0.0039951423 0.015235534 0.085545846
-0.0040260694 0.013877251 0.086784941
-0.0040723634 0.012401691 0.087817433
-0.0040453563 0.010891679 0.088077572
-0.0040102354 0.0093640639 0.088135702
-0.004203175 0.0078124745 0.087932219
-0.0043119382 0.0062205048 0.088000906
-0.0043171064 0.0045705965 0.088852351
-0.003945836 0.0027552423 0.090927768
-0.0040519245 0.00098676392 0.092075112
-0.0042781502 -0.00067684877 0.093974118
-0.0042295313 -0.0017015782 0.098145276
-0.0044266093 -0.0032628993 0.099988306
-0.0044835019 -0.0047961405 0.10095281
-0.0045433793 -0.0064751096 0.10203148
-0.0045763759 -0.0083226347 0.10334926
-0.0046267505 -0.010260416 0.10522047
-0.0047495845 -0.012304294 0.10763772
-0.004857662 -0.014585656 0.11065262
-0.002106748 0.01649211 0.083546934
-0.0023321682 0.015366693 0.08563716
-0.0025227069 0.013938449 0.086920386
-0.0025477961 0.012452672 0.087617442
-0.002537376 0.010934888 0.088057685
-0.0025471223 0.0093015798 0.087934762
-0.0026694648 0.0075669961 0.087635753
-0.0027847556 0.0059893662 0.087457689
-0.0026698897 0.004413793 0.088413964
-0.0018313037 0.0019805777 0.090423256
-0.0019774123 0.00047198285 0.091691698
-0.0021864813 -0.0010794277 0.093275627
-0.0025453329 -0.0018281661 0.097532491
-0.0026717171 -0.0032689772 0.099876061
-0.0027018338 -0.0048403808 0.10100294
-0.0027429821 -0.0064731462 0.10199861
-0.0028019526 -0.0082154665 0.10352578
-0.0028277881 -0.010169746 0.10512754
-0.0028331337 -0.012349302 0.10756044
-0.0029938583 -0.014709363 0.11028634
-0.00069530403 0.016508058 0.083717545
-0.00087793497 0.015325893 0.085611202
-0.00098004455 0.013985803 0.087183277
-0.0010450049 0.012518563 0.087792787
-0.0010340485 0.010986144 0.088262052
-0.0010260375 0.0094054444 0.088393644
-0.00092667543 0.0074648509 0.087959861
-0.0010686324 0.0059255632 0.087715976
-0.00023037308 0.0037586823 0.088833658
6.5453943e-05 0.0019521317 0.090514735
-0.000123225 0.00053359283 0.092105426
-0.00029843282 -0.00091148897 0.09395009
-0.00084055797 -0.0019583353 0.097373409
-0.00093284275 -0.0032367598 0.099799389
-0.0009611053 -0.0048076891 0.10116631
-0.00095891093 -0.0064774481 0.10239195
-0.0010358185 -0.0082592995 0.10356297
-0.0010459978 -0.010215257 0.10572617
-0.001040255 -0.01254376 0.10794931
-0.00094190378 -0.014987294 0.11056268
0.00072555832 0.016514156 0.083756422
0.00058270739 0.015303319 0.085755268
0.00051546613 0.014049481 0.087212732
0.0004495404 0.012544977 0.088250451
0.00046105006 0.010940636 0.088678889
0.00056725463 0.0091824621 0.089032684
0.00077176825 0.0074555987 0.089342286
0.001133113 0.0055315901 0.089545086
0.0014008364 0.0038104433 0.090811591
0.0013834387 0.002305885 0.092004669
0.0014333675 0.00078602698 0.093032184
0.001213606 -0.00067295903 0.094794547
0.0009000761 -0.0018301435 0.097702886
0.00078733557 -0.0032898585 0.099663543
0.00076448079 -0.0048250964 0.10120004
0.00076042081 -0.0065455833 0.10235699
0.00074994366 -0.0083824651 0.10339368
0.00077825098 -0.010308651 0.10568889
0.00085090787 -0.012553466 0.10789296
0.00095128376 -0.015009218 0.11038702
0.0021285409 0.016534165 0.083898482
0.0020407594 0.015290582 0.085864422
0.0019895754 0.014036478 0.087493367
0.0019253106 0.012600222 0.088745689
0.0018613525 0.010942286 0.089209639
0.0021305984 0.009050752 0.089753528
0.0022957485 0.0073421059 0.090958975
0.0025218651 0.0056998949 0.091443044
0.0026519684 0.0042059864 0.092411327
0.0027402367 0.0027119744 0.093376924
0.0027564448 0.0012494619 0.094359686
0.002608178 -0.00033070928 0.095857876
0.002580276 -0.0016620325 0.098391759
0.0025912129 -0.0032878756 0.099793123
0.002561177 -0.004927651 0.10092654
0.0024903997 -0.0066063867 0.10235154
0.002547096 -0.0084511886 0.10331725
0.0026583369 -0.010379081 0.10547653
0.002762916 -0.012601858 0.10776026
0.0028555438 -0.015022223 0.11011623
0.0035421887 0.016508485 0.083879627
0.0034937929 0.015211711 0.085758273
0.0034448972 0.013944508 0.087729079
0.0033957493 0.012490562 0.088665548
0.0034328999 0.010971605 0.089200315
0.0036430379 0.0091667983 0.089924589
0.0037203862 0.0075303211 0.091341985
0.0038843826 0.0060875467 0.092387818
0.0040139653 0.0046252374 0.093313493
0.0039762195 0.0031854278 0.094285876
0.0040517895 0.00164438 0.095417127
0.0040097901 6.3140632e-05 0.097252965
0.0042531617 -0.0016287664 0.099072059
0.0043346802 -0.0032323618 0.10029021
0.004321379 -0.0049190132 0.10121291
0.0043263794 -0.0066415998 0.10239716
0.0043372967 -0.0085068475 0.10349861
0.0044257881 -0.010515994 0.10560292
0.0046498526 -0.01274545 0.10785166
0.0048574377 -0.015012381 0.11040254
0.0049445149 0.016461496 0.084147687
0.0048903024 0.015226936 0.08574679
0.004858722 0.013942407 0.087532557
0.0048868566 0.01252733 0.088357212
0.0049250348 0.011064052 0.089350855
0.0051506118 0.0093853539 0.090254702
0.0052547913 0.0078698182 0.091321093
0.0052207143 0.0064959189 0.09299468
0.005407714 0.0049905369 0.093981139
0.0054324574 0.0035539789 0.095230537
0.0053052174 0.002076791 0.096993752
0.0054910298 0.00037343282 0.098551822
0.0060082691 -0.0015021163 0.099825844
0.0060554018 -0.0031284334 0.10089677
0.0061116396 -0.0049103424 0.10156489
0.0061464231 -0.006658195 0.10263555
0.0061158918 -0.0085156867 0.10396742
0.0062359244 -0.010768671 0.10554212
0.0065750908 -0.013073296 0.10790958
0.0062797111 0.01639525 0.084662376
0.0063262053 0.015229839 0.085797354
0.0063394385 0.013911547 0.087199465
0.0063577254 0.012490554 0.087933739
0.0064036759 0.011103745 0.089270711
0.0066729486 0.0096292663 0.090159652
0.0068127661 0.0081472617 0.091488202
0.0067873344 0.0067909551 0.093174373
0.0068985218 0.0053521135 0.094611749
0.0070411108 0.0035954314 0.096228478
0.007095557 0.0021975095 0.098115439
0.0074976903 0.00036491298 0.099606104
0.0077262974 -0.0014160783 0.10039425
0.0078198596 -0.003162237 0.10140443
0.0079052699 -0.0049066513 0.10229438
0.0079796873 -0.0067405961 0.10325567
0.0079711347 -0.0087950372 0.10432278
0.008208034 -0.011144102 0.1060012
0.008515782 -0.013547041 0.10791215
0.0087939967 -0.015616058 0.10955575
0.0075814337 0.017521479 0.083756849
0.0076898843 0.01642202 0.08503854
0.0077649293 0.015243647 0.086057976
0.0078221013 0.01394632 0.087307669
0.0078161353 0.012506726 0.087847072
0.0078547435 0.011053139 0.08926786
0.0080113162 0.0096658233 0.09024635
0.0082954491 0.0083660086 0.091406621
0.0082325001 0.0071527747 0.093924689
0.0085362267 0.0053873787 0.094938039
0.0087088921 0.0036947811 0.096605646
0.0089247999 0.0021286184 0.098774247
0.0091742615 0.00040667687 0.10001866
0.0094031108 -0.0013663243 0.10099471
0.0095843974 -0.0030695989 0.10213562
0.0097230713 -0.0049567592 0.10267446
0.0099235267 -0.0070110538 0.10331313
0.010051209 -0.0091466376 0.10460629
0.010220243 -0.011499519 0.10619444
0.010410722 -0.014001289 0.10762841
0.0089724607 0.017559969 0.083873011
0.0091079005 0.016440688 0.085158517
0.009168849 0.01520278 0.086124566
0.009208546 0.013947839 0.087376957
0.0092979763 0.012502676 0.088246283
0.0093703034 0.011095781 0.08943674
0.0094489275 0.0096886701 0.090320302
0.0095875776 0.0081973731 0.091367394
0.0099185059 0.0071640587 0.094170742
0.010231345 0.0053304825 0.094938239
0.01050165 0.0038167636 0.097448945
0.010632635 0.0022101091 0.099091438
0.010813331 0.00047671669 0.10003604
0.011006178 -0.0012078159 0.10128193
0.011316525 -0.0030539739 0.10246136
0.011487502 -0.0049657292 0.10295233
0.01176369 -0.0070497921 0.10397199
0.011988515 -0.009228151 0.10517619
0.012157917 -0.011783154 0.10674343
0.012296742 -0.014292653 0.10798989
0.010343705 0.017597236 0.083950619
0.010461065 0.016470581 0.084878363
0.010476945 0.01519371 0.085819158
0.010640362 0.013949482 0.087092802
0.010759568 0.012582133 0.087979282
0.010892697 0.011188643 0.089276803
0.010953641 0.0097937692 0.090320031
0.011061874 0.00837504 0.09134938
0.011563001 0.0069085935 0.093713063
0.011866915 0.0053567792 0.095404873
0.012117899 0.0039096176 0.097715246
0.012361417 0.0022680205 0.099286648
0.012588826 0.00058279723 0.10031112
0.012746169 -0.0011681313 0.10136824
0.013037771 -0.0029745413 0.10250835
0.013302954 -0.0048768841 0.10341526
0.013589186 -0.0070048522 0.10468037
0.013809984 -0.0094876767 0.10635677
0.014078799 -0.012058416 0.10770383
0.014244312 -0.014248516 0.10856967
0.011802927 0.01776908 0.084650114
0.011888673 0.01654688 0.085101647
0.011886555 0.015242812 0.085831565
0.012116328 0.013965331 0.087193874
0.012245954 0.012597795 0.087927687
0.012348886 0.011203704 0.089114199
0.012437144 0.0098157829 0.09010459
0.012527961 0.0083838646 0.091066892
0.012814436 0.0070307676 0.093622441
0.013463088 0.0053218701 0.095560476
0.013793633 0.0038450703 0.097663204
0.014115563 0.0023246131 0.099498381
0.014329513 0.00069603478 0.10061506
0.014571931 -0.0010364193 0.10126259
0.01483541 -0.0028775022 0.10272398
0.015068869 -0.004810278 0.10363845
0.015413905 -0.0070868579 0.10575101
0.015766881 -0.0098880778 0.10770779
0.016153517 -0.012257691 0.1090658
0.01318893 0.017800834 0.084660324
0.013275907 0.016617112 0.085340818
0.013339267 0.015300483 0.085849913
0.013626106 0.013999971 0.087568611
0.01377342 0.012601828 0.08828109
0.01381497 0.011250946 0.08923053
0.01392924 0.0098792048 0.090141088
0.014042867 0.0084214847 0.09116525
0.014306377 0.0069920807 0.09295618
0.015036754 0.0052127204 0.095518852
0.015641503 0.0038635358 0.098241568
0.015954228 0.0023304427 0.099706344
0.016229787 0.00060943652 0.10089318
0.016326204 -0.0011088238 0.10150978
0.01659814 -0.0028131515 0.10309936
0.017010245 -0.0048754068 0.10488117
0.017462309 -0.0072009734 0.10725756
0.017912019 -0.009875739 0.10917672
0.014684957 0.017945235 0.085101662
0.014812084 0.016768417 0.085828821
0.014933065 0.015453613 0.086555208
0.01513157 0.014050296 0.08744442
0.015266892 0.012694145 0.088386416
0.015412066 0.011310596 0.08950941
0.015500323 0.009898241 0.09044184
0.015696045 0.008465703 0.09194048
0.01615249 0.0070187769 0.093573846
0.016612975 0.0052685359 0.095337053
0.017342664 0.0037777791 0.098238267
0.017686325 0.0022458068 0.099676475
0.017984885 0.00059171114 0.10094889
0.018198106 -0.0010581383 0.10201249
0.018486836 -0.0028849168 0.10363287
0.019075743 -0.0049660732 0.10607599
0.019878226 -0.0074841062 0.10946193
0.016250255 0.018140461 0.085880774
0.016378165 0.016904231 0.086495201
0.016482969 0.015536912 0.087094372
0.016717435 0.014181258 0.087860102
0.016835558 0.012758251 0.088589449
0.017035229 0.011392448 0.090017197
0.017056139 0.0099560628 0.090867259
0.017408129 0.0084496584 0.092135117
0.017987029 0.0069514995 0.094232348
0.01824153 0.0053263769 0.095368336
0.018984554 0.0037723275 0.097991533
0.019392933 0.002232631 0.09945976
0.019772947 0.00067489369 0.10103227
0.020217171 -0.0011357431 0.1026976
0.020633608 -0.0030587986 0.10470841
0.021355296 -0.0051606662 0.10752509
0.022133542 -0.007321533 0.11059447
0.017836988 0.018239756 0.086487003
0.017964858 0.016977086 0.087046365
0.01803705 0.015603296 0.087473194
0.018294912 0.014269885 0.088415921
0.01848241 0.01283039 0.089222896
0.018835651 0.011411249 0.090338953
0.018761518 0.0098819338 0.090910492
0.018939023 0.0083790577 0.092002451
0.019718038 0.0069072167 0.094704581
0.020046322 0.005349108 0.095941869
0.020927793 0.0038308534 0.098561851
0.021292909 0.0022564215 0.10005509
0.021760764 0.00056815009 0.10155235
0.022286875 -0.0014027702 0.10345229
0.023194905 -0.0033886704 0.10616744
0.023608589 -0.0052419285 0.10897936
0.019264247 0.018247882 0.086380653
0.019549724 0.016992908 0.08731171
0.019717357 0.015647448 0.087950542
0.01995596 0.014310002 0.088743803
0.020164771 0.012818257 0.089378191
0.020449719 0.011305271 0.090252801
0.020432417 0.0097950747 0.091002487
0.020592142 0.0083430993 0.092098333
0.021389023 0.0068679786 0.094889308
0.021784255 0.0053881416 0.096195355
0.022776927 0.0038093754 0.098851874
0.023144779 0.0022373585 0.10039025
0.02373612 0.00046330225 0.10220562
0.024517138 -0.001523244 0.10433738
0.025304734 -0.0033588513 0.10711169
0.02600814 -0.0054088 0.11042149
0.020690399 0.018162213 0.086156143
0.02109536 0.01696377 0.087325682
0.021433087 0.015605155 0.088102331
0.021613778 0.01424911 0.088904204
0.021712197 0.012779726 0.089261241
0.021948503 0.011271602 0.089959261
0.021994816 0.0097125722 0.090765198
0.022360069 0.0082855749 0.092493003
0.02290927 0.0067867918 0.09442992
0.023502512 0.0052036494 0.095793289
0.02447215 0.0037762391 0.098664604
0.025342693 0.0021941768 0.10169087
0.025791582 0.00035550526 0.10295033
0.026619566 -0.0015096117 0.1050687
0.027538825 -0.0034064971 0.10864028
0.022335425 0.018126058 0.086436659
0.022619572 0.016882275 0.087227625
0.022975574 0.015583034 0.088112091
0.023150356 0.014179087 0.088728338
0.023230484 0.012719813 0.089066657
0.023527846 0.011273001 0.089959065
0.024338881 0.0099230722 0.091923291
0.024513928 0.0084466034 0.093333567
0.024848233 0.0067540226 0.094569489
0.025915288 0.0052220351 0.097105783
0.026740267 0.0038403171 0.099683727
0.027815009 0.0020873627 0.10293143
0.028345933 0.00036339936 0.10450511
0.028832081 -0.0014561592 0.10641757
0.029790516 -0.0035384737 0.11007624
0.023896118 0.018067421 0.08647795
0.024242741 0.016875371 0.087433174
0.024527375 0.015535866 0.088230905
0.024673213 0.014126929 0.08863725
0.02479725 0.0126926 0.089102104
0.025205703 0.011306661 0.090060795
0.025887736 0.010058109 0.091546704
0.026151538 0.0086425332 0.092543331
0.026631515 0.0070613097 0.09430441
0.027809713 0.0053135232 0.097357817
0.028948922 0.0037876796 0.10086416
0.030353211 0.0021005885 0.10421983
0.030758675 0.00038593876 0.10617462
0.03115788 -0.0014021199 0.1079983
0.031939816 -0.0034049033 0.11068158
0.025353006 0.018046885 0.086243732
0.025769634 0.016833197 0.087393053
0.026060216 0.015474072 0.088233175
0.026208935 0.014111747 0.088629194
0.026346787 0.012650613 0.089066322
0.02674346 0.011270043 0.08961984
0.02706693 0.009954861 0.090501969
0.027439284 0.008541734 0.091638985
0.027876872 0.0070382368 0.093032904
0.029326544 0.0053930925 0.096682265
0.031350223 0.0038457713 0.1022459
0.032402593 0.0021852957 0.10534774
0.032737414 0.00042336174 0.10677798
0.03338927 -0.0013002905 0.10896568
0.026894826 0.018023131 0.086510606
0.027250272 0.01679895 0.087435248
0.027557354 0.015421041 0.088013446
0.027836485 0.014085547 0.088723327
0.028073779 0.012575382 0.088894933
0.028242142 0.011162337 0.089340238
0.028436291 0.009818914 0.090048894
0.028916576 0.0084754409 0.091411655
0.030124058 0.0071006301 0.094529547
0.031013743 0.0054588121 0.09685078
0.033793743 0.0038178777 0.10378406
0.034552135 0.0022995901 0.10663714
0.035063646 0.00055049901 0.10836111
0.035779826 -0.0013024744 0.11046289
0.028021343 0.01790715 0.085609096
0.028726633 0.016773225 0.087360936
0.029072891 0.015420555 0.08801767
0.029300597 0.013985091 0.088300625
0.029462562 0.012484551 0.088518152
0.029623876 0.011056475 0.089016475
0.029756634 0.0096857184 0.0896123
0.030425648 0.0083987216 0.091394121
0.031646108 0.0070855271 0.094318897
0.032334257 0.005569697 0.095986409
0.036421652 0.0040226574 0.10656167
0.037100119 0.0022179386 0.10836923
0.037521908 0.00036157316 0.10956339
0.03851504 -0.0016208587 0.1109952
0.028885272 0.017722368 0.084049316
0.029838041 0.016689207 0.086335912
0.03032141 0.015298125 0.087327095
0.030694512 0.01393769 0.088013165
0.030870451 0.01245801 0.088281734
0.031060263 0.011033818 0.088848293
0.03145828 0.0096449899 0.089966523
0.031785921 0.0082919017 0.090877958
0.032782516 0.0069419501 0.093180078
0.034959669 0.0054621451 0.098085607
0.038995456 0.0040622132 0.10771194
0.039512265 0.0022558777 0.10927866
0.040192613 0.0002667467 0.11041728
0.040637853 -0.0014134525 0.11138344
0.03066689 0.016467896 0.084741324
0.031358903 0.015123649 0.086106524
0.031908389 0.013774589 0.087036773
0.032196422 0.012342463 0.087799994
0.03243991 0.010895074 0.088516819
0.032902513 0.0094843935 0.089759621
0.033404427 0.0081488962 0.0910524
0.03436309 0.0068170749 0.093297576
0.039206977 0.0053193518 0.10313621
0.040915899 0.0040696688 0.10784012
0.041675578 0.0022921856 0.10971486
0.042225262 0.00028363468 0.11059713
0.043024167 -0.001381093 0.11154741
0.032229082 0.015040479 0.084293629
0.032813921 0.01363488 0.085419761
0.033571504 0.012270761 0.087344435
0.033962021 0.010736528 0.088311859
0.034332753 0.0093283293 0.089376797
0.034897899 0.0080559757 0.090736452
0.036996993 0.0067141498 0.095371572
0.041300832 0.0053331079 0.10403446
0.042646283 0.0041775961 0.10767935
0.043428935 0.0024632407 0.10919621
0.04408705 0.00042918503 0.11025869
0.044511388 -0.0014619958 0.11078696
