ply
format ascii 1.0
comment Automatically gnerated by model-converter
element vertex 764
property float x
property float y
property float z
element face 0
property list uchar int vertex_indices
end_header
-0.029313905 0.017889099 0.087994218
-0.029869247 0.016670435 0.089594677
-0.030063835 0.015252293 0.090317513
-0.030285522 0.013756447 0.090943202
-0.030723865 0.012356274 0.09202676
-0.031264239 0.011103461 0.093250982
-0.031618491 0.0098125599 0.09425309
-0.031984156 0.0085879543 0.095148307
-0.032746927 0.0075418709 0.096876738
-0.033579331 0.006523049 0.09930339
-0.034683753 0.005078786 0.10206726
-0.035213152 0.0033840082 0.10319925
-0.035516658 0.001645007 0.10353341
-0.035855051 -4.778599e-05 0.10416301
-0.036298808 -0.0018599954 0.10517169
-0.036878233 -0.0037549449 0.1069048
-0.03755033 -0.0057712515 0.1099061
-0.02840773 0.018202816 0.089285719
-0.028732173 0.016958177 0.090529586
-0.028864811 0.01544807 0.091032416
-0.029082083 0.013934079 0.09162123
-0.02957896 0.012553887 0.092778422
-0.030032553 0.011208963 0.093852212
-0.030459686 0.010010294 0.095174106
-0.030983526 0.0088149613 0.09633333
-0.031572244 0.0076866724 0.097976796
-0.032404365 0.0065268798 0.10021388
-0.033289694 0.0049173303 0.10264017
-0.033757925 0.0032082307 0.10387037
-0.034058407 0.0014705011 0.10423553
-0.034426439 -0.00033472683 0.10505036
-0.034897394 -0.0021995621 0.10624855
-0.035450323 -0.0041645028 0.10785762
-0.036016107 -0.0061932624 0.10969151
-0.026642837 0.018154153 0.088365687
-0.027168645 0.017042153 0.090249367
-0.02760672 0.015496589 0.091588775
-0.027843053 0.014055875 0.092376749
-0.028261781 0.01273998 0.093438854
-0.028595159 0.011314553 0.094357982
-0.02897894 0.0099758501 0.095546317
-0.029481097 0.0088278285 0.096739208
-0.030189907 0.0077202362 0.098905059
-0.03096089 0.0064425111 0.10106162
-0.031673668 0.0047933352 0.10306843
-0.032210489 0.0029246766 0.1045307
-0.032472263 0.0011456414 0.10533227
-0.032817153 -0.00072570316 0.10601775
-0.033254431 -0.002545852 0.10710964
-0.033864371 -0.0045434909 0.10887173
-0.034266756 -0.0065284604 0.11008578
-0.025002818 0.018212088 0.087921908
-0.025601102 0.017127991 0.089971689
-0.026328995 0.015727647 0.09220503
-0.026598601 0.014227208 0.093206376
-0.027116391 0.013015523 0.094754686
-0.027375703 0.011511605 0.095446145
-0.027657095 0.010065591 0.096279115
-0.028007707 0.0088105593 0.097402694
-0.028656504 0.0076291536 0.099327947
-0.029373587 0.0063903982 0.10197509
-0.030034324 0.0046896286 0.10348099
-0.030487953 0.002805366 0.10469663
-0.030863469 0.00076978539 0.10604988
-0.03120028 -0.0010511047 0.10708643
-0.031559388 -0.0027775429 0.10791162
-0.032094638 -0.0045264092 0.10921527
-0.032510205 -0.006579703 0.11062854
-0.02349627 0.018295758 0.087926979
-0.02414659 0.017279923 0.090209399
-0.024903918 0.015927611 0.092408635
-0.025047088 0.014427025 0.093395651
-0.025528492 0.012942928 0.09475639
-0.025778011 0.011467969 0.095604321
-0.026251971 0.01009861 0.097054894
-0.026604559 0.008891051 0.098403844
-0.027079495 0.0074751056 0.099598895
-0.02765215 0.0061722298 0.10200495
-0.028230755 0.0045620338 0.10317319
-0.028562486 0.0025497842 0.10430752
-0.029265554 0.00066554349 0.10633541
-0.029544158 -0.0012323539 0.10769462
-0.029911403 -0.0030002217 0.10871141
-0.030272545 -0.0046802644 0.10979877
-0.030574379 -0.0064820955 0.11092287
-0.021899671 0.018287842 0.087601615
-0.022755706 0.017240285 0.090387625
-0.023260101 0.015978741 0.092422307
-0.023428051 0.014582944 0.093224153
-0.023785188 0.012919344 0.094440842
-0.024130871 0.01134178 0.095625031
-0.024698287 0.010121449 0.097511259
-0.025096222 0.0087233626 0.098603977
-0.025407686 0.0072803412 0.099775205
-0.025866129 0.0058631468 0.1013362
-0.026191543 0.0041930755 0.10248166
-0.026813327 0.0023620245 0.10406863
-0.027392414 0.00042737996 0.10620558
-0.027781001 -0.0013851238 0.10780174
-0.028089059 -0.0032439315 0.10884302
-0.02831227 -0.0049893907 0.10989635
-0.028592064 -0.0067265324 0.11096974
-0.020223299 0.018191229 0.08715458
-0.021145273 0.017248357 0.090168337
-0.021568965 0.016021303 0.092166963
-0.021859869 0.014620872 0.093396997
-0.022154502 0.013150392 0.094529502
-0.022569242 0.011419079 0.09584334
-0.02313851 0.010157139 0.097718088
-0.023415685 0.0087269228 0.098852443
-0.023643875 0.0072407859 0.099764379
-0.023940919 0.0057157656 0.10090222
-0.024199831 0.0040984055 0.10195559
-0.024711906 0.002331881 0.103884
-0.025437146 0.00037390553 0.10597121
-0.025959279 -0.0015285049 0.107671
-0.026246003 -0.0033088509 0.10891641
-0.026400812 -0.005042 0.11008936
-0.026897746 -0.0066594114 0.11071988
-0.018803284 0.018010149 0.087251648
-0.019521933 0.017215983 0.08989356
-0.019952684 0.015986781 0.092018033
-0.020208895 0.014594133 0.093229599
-0.020578576 0.013189804 0.094788442
-0.020897039 0.011574341 0.095825496
-0.021386607 0.01012264 0.097500347
-0.021672784 0.0086674085 0.098800823
-0.021876505 0.0070781919 0.099625322
-0.022185723 0.0056107429 0.10076202
-0.022377584 0.0039895499 0.10158851
-0.022725818 0.0023819242 0.10333538
-0.023295623 0.00052277942 0.10540403
-0.023992854 -0.0014747106 0.1071501
-0.024314192 -0.0033487162 0.1083214
-0.024527269 -0.005201745 0.10950075
-0.024614181 -0.0069192614 0.11053911
-0.017231971 0.0180125 0.086973819
-0.017715037 0.017006112 0.089254801
-0.01821367 0.015920687 0.091511572
-0.018541993 0.014583655 0.093218151
-0.018919797 0.013162285 0.094826169
-0.019170453 0.011512055 0.095648693
-0.019545808 0.010042544 0.097072586
-0.019946645 0.0086917256 0.098891027
-0.020156057 0.0071420423 0.099787961
-0.0203529 0.0055275839 0.10049456
-0.02054245 0.0039739301 0.10134993
-0.020782549 0.0023509918 0.10287726
-0.021066727 0.0006403404 0.10430468
-0.021562945 -0.0013648733 0.10575758
-0.022112996 -0.0033981684 0.10725724
-0.022581739 -0.0052446103 0.10835905
-0.022639108 -0.0070805368 0.10937545
-0.022589691 -0.008932588 0.11031486
-0.015676248 0.017889271 0.086189819
-0.016082166 0.016907102 0.088580452
-0.016404829 0.01577093 0.090557444
-0.016803158 0.014484479 0.092643698
-0.017181213 0.013036437 0.094544076
-0.017358337 0.011464622 0.0956711
-0.017805327 0.0099856216 0.096910482
-0.018215607 0.0087236523 0.098769767
-0.018404157 0.0071609026 0.09962415
-0.018521972 0.0054933047 0.100211
-0.018732359 0.003945663 0.10112416
-0.018842144 0.0023718934 0.102145
-0.019111319 0.00059418893 0.10354586
-0.01942878 -0.0012842337 0.10449461
-0.019681935 -0.0032188733 0.10549977
-0.020019158 -0.0051572355 0.10638762
-0.020163586 -0.0070583792 0.10733844
-0.020393257 -0.0089185154 0.10857886
-0.020716526 -0.010854941 0.11041718
-0.01407788 0.017871593 0.085486913
-0.014490175 0.016810925 0.087811026
-0.014724859 0.015561648 0.089744121
-0.015046152 0.014377984 0.092231748
-0.015291137 0.012911112 0.094090002
-0.015397751 0.011374312 0.095552681
-0.015947004 0.0099744452 0.096911641
-0.016425093 0.0086382848 0.098602901
-0.016573094 0.0071443832 0.099529067
-0.016689623 0.0055587534 0.10014372
-0.016816723 0.0039673171 0.1007819
-0.016954182 0.0022911744 0.10150616
-0.017193126 0.0005703 0.10263147
-0.017307196 -0.0012480614 0.10309267
-0.017417711 -0.0031156769 0.10361614
-0.017508387 -0.0049159182 0.10444049
-0.017849878 -0.0069672681 0.10581605
-0.018024914 -0.0088846388 0.10710707
-0.018358965 -0.010869071 0.10910542
-0.018479009 -0.012426456 0.11083566
-0.012557251 0.017897789 0.08506644
-0.012976559 0.016732582 0.087523602
-0.013097511 0.01548345 0.089130824
-0.013260943 0.01436538 0.091764408
-0.013435751 0.012951962 0.093548074
-0.013372631 0.01152985 0.095111584
-0.013127153 0.010148511 0.096721493
-0.013596667 0.0087342846 0.098258116
-0.014642368 0.0071816507 0.099246767
-0.014595158 0.0056959239 0.10001331
-0.014882364 0.0039875795 0.10055952
-0.015004624 0.0022200583 0.10075677
-0.015162934 0.00049709083 0.10135344
-0.015264325 -0.0012206165 0.10205757
-0.015291212 -0.0030361494 0.10232117
-0.015391124 -0.0048421722 0.10314479
-0.015674765 -0.0068189008 0.10442328
-0.015859124 -0.0087035243 0.10575091
-0.016186721 -0.01065207 0.10776096
-0.016578708 -0.012687071 0.11053532
-0.011114848 0.017842224 0.084721426
-0.011338258 0.016708268 0.086684475
-0.011522018 0.015351845 0.088584033
-0.011514554 0.014164825 0.090637999
-0.011519973 0.013075632 0.092901677
-0.011322813 0.011623938 0.09386085
-0.010996835 0.010283192 0.095068214
-0.010566672 0.0089727777 0.096520821
-0.010113146 0.0076646528 0.097957375
-0.012541041 0.0056455933 0.099026362
-0.013023268 0.0038679608 0.099875311
-0.013193586 0.0021570019 0.10039814
-0.013265558 0.00040514272 0.10067627
-0.01331332 -0.0013472648 0.10105476
-0.013453119 -0.0030990447 0.10162549
-0.013538489 -0.0048559536 0.10254704
-0.013643204 -0.006732096 0.10333233
-0.013828957 -0.0085438502 0.10463311
-0.014141387 -0.010521318 0.10670423
-0.014496926 -0.012524999 0.10934779
-0.0096920704 0.017694739 0.084125504
-0.0098386819 0.016702462 0.086368442
-0.010061725 0.015253423 0.088026735
-0.010036203 0.013934583 0.089706309
-0.0097569159 0.012944794 0.091424637
-0.0095504017 0.011667857 0.092717471
-0.0091680056 0.010306387 0.093611806
-0.0087433327 0.0089199186 0.094511333
-0.0082576629 0.0075945094 0.095608538
-0.0082279506 0.0060391114 0.096870604
-0.009651831 0.0041380231 0.098963248
-0.01114083 0.0021612923 0.099525342
-0.011423526 0.00039379431 0.10009263
-0.011551214 -0.0013597683 0.10036924
-0.011612056 -0.0031246497 0.10103396
-0.011733418 -0.0049058815 0.10221593
-0.011816285 -0.0066622711 0.10305977
-0.011854549 -0.008476475 0.10385475
-0.012063179 -0.010365962 0.10589842
-0.012400179 -0.012449357 0.10837011
-0.0082486657 0.017642525 0.083943719
-0.0083712165 0.01660933 0.085863424
-0.0085798704 0.015249035 0.08728078
-0.0085995222 0.013844596 0.088894499
-0.0082917036 0.012753868 0.090379571
-0.0079937447 0.011402604 0.090919971
-0.0075969728 0.010155339 0.091655182
-0.0073586867 0.0087244365 0.0923348
-0.0071549697 0.0072437604 0.093347932
-0.0072207026 0.0056964555 0.09436247
-0.0075878642 0.0040209576 0.095894413
-0.0083024545 0.0021875773 0.097567339
-0.0091135769 0.00034022422 0.099060223
-0.0095959827 -0.0014864145 0.099601688
-0.0098347167 -0.0031871231 0.10063001
-0.0098709973 -0.004853447 0.10179029
-0.0099064336 -0.0065909999 0.10246537
-0.0099959261 -0.0083761721 0.10364299
-0.010244303 -0.010312506 0.10553398
-0.010385304 -0.012323605 0.10762829
-0.010654093 -0.014301702 0.11063848
-0.0068613943 0.017602002 0.083549698
-0.0068831142 0.016552326 0.085110526
-0.0070507962 0.01525143 0.086635612
-0.0071362246 0.013783209 0.087773514
-0.0070387755 0.012447316 0.08892495
-0.0065937345 0.011337926 0.089858026
-0.00626516 0.0097432646 0.089836813
-0.0061479577 0.0082366687 0.090427739
-0.0061235125 0.0068030549 0.09157065
-0.0062012128 0.0052889786 0.092527533
-0.0063727624 0.0036245445 0.093684038
-0.0067495429 0.0018946281 0.095271426
-0.0074061945 0.00010504468 0.09721801
-0.0077297967 -0.0016966785 0.098913831
-0.0079676143 -0.0033214978 0.1003851
-0.0080042689 -0.004889739 0.10146759
-0.0080730558 -0.0066376194 0.10212998
-0.0081705886 -0.0084035949 0.10331533
-0.0083354351 -0.010326417 0.10525851
-0.0085011649 -0.012336449 0.10728056
-0.008740566 -0.01451409 0.11058544
-0.0054154998 0.017597722 0.082859834
-0.0054271632 0.016492228 0.084339001
-0.0055375296 0.015219174 0.085755083
-0.0056268045 0.013765222 0.086776736
-0.0057192435 0.012291694 0.087700114
-0.0057333328 0.010807528 0.087922841
-0.0054404183 0.0094417644 0.08831654
-0.0054210248 0.0078815917 0.08861497
-0.0054901621 0.0063129532 0.089248595
-0.0054145661 0.0048168185 0.090515047
-0.0052882683 0.0029701888 0.091769484
-0.0055271179 0.0013613378 0.093168144
-0.0057361636 -0.00026169221 0.095263536
-0.0059186577 -0.0017738868 0.09836487
-0.0061999735 -0.003394804 0.10016397
-0.0062657921 -0.0049391414 0.10133473
-0.0062851314 -0.0066771872 0.10195314
-0.0063359281 -0.0084360769 0.10330614
-0.0064673866 -0.010342554 0.10508442
-0.0066239045 -0.012328868 0.10736528
-0.0068100719 -0.014552499 0.11054336
-0.0039598424 0.016408535 0.083490841
-0.0040858507 0.015235855 0.085346577
-0.0041578642 0.01383979 0.086464388
-0.004239485 0.012334139 0.087405726
-0.0042277405 0.010816702 0.087591365
-0.0042336026 0.009266741 0.087560442
-0.0045015984 0.0076832988 0.087300187
-0.0045612577 0.006072565 0.087420752
-0.0044926815 0.0044201147 0.088304612
-0.0038923314 0.0025655526 0.090518696
-0.0039782958 0.00077193723 0.091641148
-0.004230905 -0.00087993798 0.093566504
-0.0042128606 -0.0019077858 0.097854182
-0.0044307133 -0.0034773615 0.099675765
-0.0044871634 -0.0049766003 0.10069043
-0.0045414873 -0.0066255741 0.10181267
-0.0045666007 -0.0084418353 0.10317075
-0.0046214277 -0.010331048 0.10511409
-0.0047487823 -0.012341362 0.10756346
-0.0048569062 -0.014586707 0.11060996
-0.0021031552 0.016582231 0.083379415
-0.0024000129 0.015404453 0.085452867
-0.0026593746 0.013911343 0.086625834
-0.0027069969 0.012403513 0.087254934
-0.0027098376 0.010870404 0.087630374
-0.0027468952 0.0092201748 0.087398117
-0.0029136758 0.007437156 0.086993659
-0.0030011852 0.0058382759 0.086819636
-0.0028276474 0.0042673428 0.087777177
-0.0015248687 0.0016224185 0.089866727
-0.0017146194 0.00014498111 0.091166531
-0.00196599 -0.001382053 0.092770202
-0.0025084284 -0.0020329595 0.097249195
-0.002667866 -0.0034654523 0.099590992
-0.0026991784 -0.0050000215 0.10076841
-0.0027389773 -0.006610087 0.10179707
-0.0028008156 -0.0083316232 0.10334615
-0.0028241801 -0.010232287 0.10503055
-0.0028334831 -0.012372078 0.10750334
-0.00299544 -0.014709322 0.11025267
-0.00069860295 0.016592501 0.083593985
-0.00094130934 0.015361978 0.085464098
-0.0010982578 0.013955093 0.086958659
-0.0011956373 0.012466496 0.087480488
-0.0012041659 0.010921654 0.087885924
-0.0011946926 0.0093356175 0.087975917
-0.0010837197 0.0073313331 0.087388111
-0.0012227667 0.0057939501 0.087094143
8.8728767e-05 0.0034150304 0.088193029
0.00050714329 0.0015316051 0.089946275
0.00024354929 0.00017190637 0.091596166
6.15833e-06 -0.0012175954 0.093480125
-0.00072549747 -0.002180141 0.097027948
-0.00091728655 -0.0034275707 0.099526689
-0.00095457192 -0.0049554232 0.10094242
-0.00095821851 -0.006588387 0.10221735
-0.0010339496 -0.0083444565 0.10343543
-0.0010496703 -0.010259428 0.10564131
-0.001044576 -0.012567527 0.10789423
-0.00094795002 -0.014990695 0.1105278
0.00072044501 0.016596536 0.083677327
0.00051412304 0.015332873 0.085643194
0.00042032779 0.014020913 0.087060372
0.00031125763 0.012473255 0.087992097
0.00030126479 0.010857802 0.088360305
0.0004972088 0.0090470953 0.088728626
0.00082171159 0.0072833545 0.088952641
0.0013858006 0.0052674468 0.089025937
0.0017955294 0.0034603407 0.090264944
0.0017585238 0.0019401751 0.0914603
0.0018043344 0.00045870796 0.092576149
0.0014703286 -0.00095431945 0.094433978
0.0010184749 -0.0020587823 0.097383345
0.00083341768 -0.0034901497 0.099387144
0.00077670566 -0.004974352 0.1009838
0.00076263322 -0.0066433628 0.10221461
0.00075364606 -0.0084596901 0.10328679
0.00077439422 -0.010347553 0.10561614
0.00084624816 -0.012574884 0.10784284
0.00094473189 -0.015013504 0.11035506
0.0021186508 0.016608015 0.083863151
0.0019675319 0.015319158 0.085799833
0.0018872103 0.013997419 0.087370909
0.0018047128 0.012497124 0.088544458
0.001771777 0.010788034 0.088958825
0.0021471705 0.0088681079 0.089455574
0.0023686389 0.0071183401 0.090556706
0.0027426312 0.0054231626 0.090967836
0.002919974 0.0039330482 0.091951661
0.003030071 0.0024444351 0.092934911
0.0030303571 0.0010068736 0.093994342
0.0028188742 -0.00056537064 0.095539381
0.0026707028 -0.0018673425 0.098130162
0.0026525841 -0.0034595338 0.099581172
0.0025969826 -0.0050707824 0.10074505
0.0024924559 -0.0066836442 0.10224186
0.0025509542 -0.0085213113 0.10323532
0.0026560485 -0.010413204 0.10541817
0.0027588559 -0.012623056 0.10771423
0.0028493099 -0.015027405 0.1100875
0.0035321058 0.016582516 0.083892179
0.003420126 0.015247452 0.085736942
0.0033390612 0.013900267 0.087664244
0.0032747307 0.012402387 0.088541806
0.0033762437 0.010836417 0.089012908
0.0036797898 0.0090137227 0.089671513
0.0038090034 0.0073287394 0.091007732
0.0040434828 0.0058897804 0.092032062
0.0041847848 0.0044405573 0.092975937
0.0041601403 0.0029994989 0.09397733
0.0042244787 0.0014709125 0.09515539
0.0041234557 -0.00010646079 0.096999479
0.0042936047 -0.0017654633 0.098901491
0.0043555824 -0.0033325078 0.10016992
0.0043336273 -0.0050001404 0.10113472
0.0043270701 -0.0066939232 0.10233394
0.0043400124 -0.0085506048 0.10344058
0.0044212813 -0.010544272 0.10555606
0.0046447534 -0.012771703 0.10780408
0.0048499391 -0.015020343 0.11037157
0.0049237876 0.016530909 0.084213895
0.0048224257 0.015281692 0.085817118
0.0047500295 0.013940056 0.087550225
0.0047736798 0.012495407 0.088327053
0.0048465226 0.010993468 0.089260062
0.005164517 0.0092868854 0.09009216
0.0053236059 0.0077472879 0.091109728
0.0052921671 0.0063661419 0.092750438
0.0054946967 0.0049002885 0.09378881
0.0055099484 0.0034573032 0.095040933
0.005357522 0.0019724866 0.096805247
0.0055167096 0.00027409959 0.098412171
0.0060028665 -0.0015625802 0.099765668
0.0060507964 -0.0031776444 0.1008484
0.0061166543 -0.0049519677 0.10155569
0.0061326735 -0.006681839 0.10264413
0.0061108546 -0.0085290043 0.10394411
0.0062312853 -0.010794051 0.10549793
0.0065692593 -0.013106658 0.10785751
0.0062379827 0.016440281 0.084763788
0.006262744 0.015305345 0.085930613
0.0062439345 0.013949671 0.087291315
0.0062600865 0.012505175 0.087983365
0.0063031043 0.011088847 0.089269325
0.0066574244 0.0096169872 0.090097561
0.0068554315 0.0081071773 0.091383854
0.00682258 0.0067513753 0.093053159
0.0068934523 0.0053453419 0.094531089
0.0070360295 0.0035823755 0.096192474
0.0070482933 0.0021814269 0.098085825
0.007457001 0.00037282831 0.099660905
0.0077131319 -0.0014323426 0.10042461
0.0077991791 -0.0031678489 0.10142589
0.0078805089 -0.0048996229 0.10234345
0.0079439531 -0.0067201148 0.103336
0.0079649858 -0.0088054885 0.10430658
0.0082025289 -0.011171124 0.10595742
0.0085092336 -0.013597497 0.10783198
0.0087886456 -0.015682915 0.10944725
0.0075594258 0.017518815 0.083824264
0.0076452447 0.016467765 0.085152402
0.007692498 0.015325475 0.086228557
0.0077215498 0.01400385 0.087454669
0.0077220945 0.012548443 0.087958964
0.0077519999 0.011062107 0.089338638
0.0079455568 0.0096849647 0.090286262
0.0082990295 0.008391036 0.091404036
0.0081838848 0.0071848403 0.093905419
0.0085228992 0.0054324282 0.094989632
0.008676455 0.003720038 0.096662024
0.0088464543 0.002161313 0.098869748
0.0091036679 0.00046464804 0.10017013
0.0093579028 -0.0013339008 0.10111584
0.0095259178 -0.0030442265 0.10222657
0.0096603856 -0.0049148747 0.10280758
0.0098700244 -0.0069454556 0.10350808
0.010017267 -0.0091163075 0.1046854
0.010204329 -0.011521457 0.10615082
0.010404916 -0.014075713 0.10747765
0.0089458028 0.01756652 0.08395844
0.0090622231 0.016479836 0.085277784
0.0091097879 0.015281629 0.086324384
0.0091254342 0.01402283 0.087581153
0.0092047428 0.012548064 0.088382175
0.0092752113 0.01112039 0.089541786
0.0093552855 0.0097148856 0.090413488
0.0095014634 0.0082089081 0.091446916
0.0098751314 0.0072537212 0.094262238
0.010226172 0.0053756718 0.095073648
0.010437029 0.0038599118 0.09758132
0.010550769 0.0022745263 0.099261741
0.010737607 0.00057402327 0.10027288
0.010929283 -0.0010788811 0.10158082
0.011233247 -0.0029232896 0.10272808
0.011412627 -0.0048593475 0.10320975
0.01168814 -0.0069397776 0.10424711
0.011927331 -0.0091564202 0.10533482
0.01213206 -0.011813284 0.10668423
0.012288237 -0.014379819 0.10781106
0.010310911 0.017624424 0.084065122
0.010416293 0.016530783 0.085043013
0.010414531 0.015304736 0.086051613
0.010563122 0.014043608 0.087302615
0.010676103 0.012652725 0.088152947
0.010795467 0.011234629 0.089408638
0.010847233 0.0098477872 0.090450828
0.010944529 0.0084368469 0.091478787
0.011524 0.0070083321 0.093887079
0.011824949 0.0053841112 0.095559163
0.012042336 0.0039582392 0.09787709
0.012286397 0.0023382588 0.099488022
0.012515141 0.00069031431 0.10056961
0.012666512 -0.00103348 0.10167085
0.012952998 -0.0028409155 0.10280154
0.013212342 -0.0047312121 0.10373606
0.01348942 -0.0068390594 0.10500676
0.013744956 -0.0094593009 0.10643668
0.014050309 -0.012137159 0.10758712
0.014225825 -0.014351524 0.10838452
0.011753813 0.017831877 0.084780713
0.011839609 0.016633286 0.085278812
0.011815698 0.015369947 0.08608556
0.012040468 0.014059891 0.087403335
0.012165274 0.012674489 0.088117118
0.012247363 0.011279298 0.089268751
0.012326556 0.009891729 0.090254927
0.012403622 0.008459524 0.091219617
0.012682301 0.007109041 0.093770939
0.01338314 0.0053246858 0.095729172
0.01372335 0.00385368 0.097812874
0.014037241 0.0023756241 0.099692303
0.014258296 0.00080511199 0.10087167
0.014491395 -0.00091634954 0.10154882
0.014752311 -0.0027504712 0.10301537
0.014964029 -0.0046576822 0.10400384
0.01529087 -0.0069034373 0.106102
0.015707478 -0.0099440748 0.10770728
0.016100455 -0.012359468 0.10897589
0.013142833 0.017864927 0.084788414
0.013223343 0.016712167 0.085527169
0.013269945 0.015420293 0.086094752
0.01354413 0.014080895 0.087770489
0.013677131 0.012698217 0.088463195
0.013703505 0.011335053 0.089396095
0.013808663 0.0099551394 0.090296628
0.013921278 0.0084972043 0.091322504
0.014160247 0.0070640189 0.09311451
0.014928289 0.0052006593 0.095651045
0.01556812 0.0038654842 0.09833585
0.015884462 0.002359217 0.099848059
0.016158402 0.00068968785 0.10110328
0.016245554 -0.0010135801 0.1017642
0.016516337 -0.0027093235 0.10335931
0.016906492 -0.0047305211 0.10518839
0.017350519 -0.0071455762 0.10744839
0.017816668 -0.0099167573 0.10922581
0.01464977 0.017992377 0.085185796
0.01477069 0.01684637 0.085959007
0.014875021 0.015563033 0.086739734
0.015045828 0.014166559 0.087628134
0.015164974 0.012810343 0.088583859
0.015304124 0.011397875 0.08968398
0.015380412 0.0099650547 0.090599433
0.015560113 0.0085175146 0.09209618
0.015999094 0.0070736592 0.093711063
0.016466626 0.005296544 0.095486005
0.017244747 0.0037797081 0.098353483
0.017614008 0.002265669 0.099808455
0.017922775 0.00062706915 0.10110936
0.018133444 -0.0010165292 0.10218096
0.018420273 -0.002838423 0.1038119
0.018986763 -0.0049025197 0.10628083
0.019802073 -0.0075292943 0.10955357
0.016223849 0.018215082 0.085953956
0.016337087 0.017007293 0.086627255
0.016419999 0.015656522 0.087274467
0.016631284 0.014306414 0.088061253
0.016739831 0.012879513 0.08879623
0.016931601 0.011480487 0.090190756
0.016932647 0.010011509 0.0910061
0.017263723 0.0084889481 0.092261096
0.017834272 0.0069873443 0.094357133
0.018089611 0.0053617029 0.09550907
0.018876886 0.0037771861 0.098117721
0.019314065 0.0022290661 0.099560089
0.019717706 0.0006835157 0.10113364
0.020179177 -0.001160017 0.10276805
0.020598163 -0.0031069507 0.10476842
0.02128546 -0.0052289218 0.10758338
0.022093251 -0.0074318503 0.11060739
0.017809882 0.018346363 0.086605142
0.017924732 0.017096822 0.087205152
0.017978483 0.015726987 0.087657504
0.018215756 0.014396154 0.088618273
0.018388236 0.01294664 0.089399951
0.018730341 0.011471694 0.090408365
0.018619035 0.0099152604 0.091013315
0.018787334 0.0084050577 0.092105123
0.019569775 0.0069224757 0.094811827
0.019902997 0.0053712889 0.096057438
0.020842862 0.0038137581 0.098641604
0.021233149 0.00223045 0.10011005
0.021711354 0.00052863419 0.1015919
0.022258723 -0.0015158278 0.10342053
0.023190608 -0.0035733268 0.10607448
0.023587075 -0.0053913923 0.10894589
0.019240582 0.018365916 0.086540408
0.019516639 0.017109968 0.08747985
0.019668361 0.015764482 0.08812661
0.019886491 0.014411131 0.088894784
0.020074619 0.012876802 0.089443281
0.020342184 0.011325539 0.090265378
0.020292516 0.0098068059 0.091059832
0.020440985 0.008351738 0.092180516
0.021243681 0.0068605339 0.094967248
0.021645058 0.0053920977 0.096272049
0.022682864 0.0037733744 0.098869498
0.023086401 0.0021827097 0.10040774
0.023704461 0.00034049958 0.10215212
0.024507111 -0.0017112789 0.1042283
0.025297014 -0.003544235 0.10701538
0.026011459 -0.0055727386 0.11034376
0.020672763 0.018288682 0.086352639
0.021067799 0.017071349 0.087501133
0.021401532 0.015688694 0.08824713
0.021559159 0.014312135 0.089018384
0.021631979 0.012830868 0.089329501
0.021847354 0.01129517 0.089983235
0.02186033 0.0097155487 0.090804766
0.02221318 0.0082745893 0.092565112
0.022759296 0.0067655514 0.094495855
0.023360775 0.0051933857 0.095829405
0.024392375 0.0037232916 0.098673821
0.025320281 0.0020773619 0.10163376
0.025779595 0.00017116174 0.10283078
0.026604157 -0.0016994456 0.10494592
0.027523902 -0.0035606337 0.10856845
0.022319219 0.01823985 0.086627997
0.022596781 0.016971243 0.087386
0.022945478 0.01564393 0.088226805
0.02310595 0.014236545 0.088819151
0.023163374 0.012771741 0.089143552
0.023439826 0.011304415 0.090008823
0.024253045 0.0099161674 0.091955552
0.024401767 0.0084116558 0.093356088
0.024731353 0.0066991804 0.094572186
0.025841392 0.0051801076 0.097096912
0.026697489 0.0037606323 0.099649844
0.027810796 0.0019034758 0.10280946
0.028315465 0.00018719471 0.10438242
0.028804224 -0.0015929643 0.10634056
0.029774582 -0.0036659356 0.10998796
0.02388527 0.018167351 0.086662118
0.02422501 0.01694639 0.087582526
0.024498507 0.015581187 0.08832707
0.024630156 0.01417494 0.088720106
0.024741709 0.012741568 0.089191452
0.025141155 0.011360888 0.09016039
0.025818466 0.010084966 0.09160012
0.026078403 0.0086514615 0.092575058
0.026542715 0.0070300396 0.094292129
0.02774819 0.0052904986 0.097343338
0.028909202 0.0037056075 0.10083667
0.030319173 0.001961827 0.10408432
0.030711606 0.00026263459 0.10605887
0.031113699 -0.0014887802 0.10793649
0.031925737 -0.0035168889 0.11059557
0.025349459 0.0181482 0.086439168
0.025757048 0.016896835 0.087551609
0.026035077 0.015509956 0.088336023
0.026169218 0.014144994 0.088709653
0.026292885 0.0126891 0.089150707
0.026700028 0.011339962 0.089710608
0.027024211 0.010021212 0.090574786
0.027389197 0.0085937549 0.091694251
0.027814733 0.0070509987 0.093051004
0.029276429 0.0053871316 0.096701873
0.031306608 0.0037647077 0.10221142
0.032346667 0.0020902507 0.1052559
0.032695842 0.00034062555 0.10672119
0.033321677 -0.0013299314 0.10894829
0.026892477 0.018087304 0.086654599
0.027243923 0.016850044 0.08756421
0.027548291 0.015462399 0.088117336
0.02781693 0.014118479 0.088808025
0.028050268 0.012663076 0.088992586
0.028218743 0.011269633 0.089457616
0.028411891 0.0099223705 0.090159444
0.028872548 0.0085512198 0.091499612
0.030085748 0.0071383718 0.094613078
0.030967934 0.0054707373 0.096894528
0.033724025 0.0037581183 0.10372367
0.034470125 0.0022446816 0.10657269
0.034983009 0.00052369219 0.10833348
0.035688269 -0.0013178944 0.11044425
0.028018651 0.017971779 0.085737499
0.028719622 0.016822892 0.087474572
0.029069466 0.015468679 0.088122984
0.02929214 0.014058156 0.088387974
0.029452814 0.012594937 0.088638266
0.02961448 0.011186495 0.089166659
0.029748483 0.0098209047 0.08976603
0.030395687 0.0085098032 0.091537408
0.031614239 0.0071593993 0.094435414
0.032303526 0.0056059557 0.096077047
0.036351352 0.0039811234 0.10656365
0.03702305 0.0021655242 0.10835736
0.037433769 0.0002832402 0.10951679
0.038432794 -0.0018166578 0.11079408
0.028886298 0.017794823 0.084181808
0.0298375 0.016748352 0.086456544
0.030319713 0.015362126 0.087433124
0.030686562 0.014030782 0.088107206
0.030863738 0.012567502 0.088397575
0.031056858 0.011169765 0.089011019
0.031453905 0.0098036649 0.090166253
0.031779965 0.0084483642 0.091073679
0.032765048 0.0070509788 0.093318269
0.034931587 0.0054636601 0.098209883
0.038914819 0.0040044522 0.1077481
0.039431153 0.0021500714 0.10924695
0.040113684 7.2545623e-05 0.11026803
0.040562469 -0.0016606952 0.1111301
0.030676304 0.016536547 0.084864202
0.031379138 0.015207787 0.086233462
0.031926457 0.013877464 0.08716015
0.032203216 0.012456987 0.087939479
0.032441581 0.01102816 0.088679599
0.032900476 0.0096240127 0.089936115
0.03339331 0.0082756262 0.091208135
0.034344811 0.0069244463 0.093454321
0.039122255 0.0053571052 0.1032031
0.040834465 0.0040036441 0.10787905
0.041595943 0.0021178998 0.10964143
0.042145805 5.6227233e-05 0.11040092
0.042950198 -0.0016525482 0.11125101
0.032278497 0.015139206 0.084433807
0.032870556 0.013747291 0.085574575
0.033591932 0.012388093 0.087503369
0.033971065 0.010857556 0.088467906
0.034334311 0.0094557374 0.089543663
0.034887477 0.0081821065 0.09089726
0.036962183 0.0067755339 0.095535551
0.041210232 0.0053818099 0.10411372
0.04255981 0.0041224459 0.10770798
0.043341519 0.0023071146 0.10910142
0.044002678 0.0002147945 0.11003744
0.044417898 -0.0016987303 0.11043804
