ply
format ascii 1.0
comment Automatically gnerated by model-converter
element vertex 764
property float x
property float y
property float z
element face 0
property list uchar int vertex_indices
end_header
-0.029391335 0.018427335 0.088202457
-0.029986922 0.017276585 0.089856804
-0.030218194 0.015867076 0.090614931
-0.030436503 0.014366729 0.091250984
-0.030868343 0.012897501 0.092332633
-0.031314089 0.011433692 0.093390788
-0.031485554 0.009893571 0.094066525
-0.031679557 0.0084436303 0.09468517
-0.032251744 0.0069035002 0.095980069
-0.032833735 0.0053158142 0.097853301
-0.033755402 0.0035959307 0.10003245
-0.034270113 0.0019365134 0.10117842
-0.034404502 0.00023607915 0.10163484
-0.034751467 -0.0013452031 0.10239681
-0.035328297 -0.0030575546 0.10355698
-0.036127587 -0.0048261609 0.10536689
-0.037312307 -0.0065145036 0.10843129
-0.028487417 0.018763842 0.089494652
-0.028857047 0.017580177 0.090791303
-0.029028993 0.016075717 0.091344141
-0.02926363 0.01455441 0.091974369
-0.029737715 0.013069181 0.093120681
-0.030098088 0.011546979 0.094005691
-0.030394969 0.010088872 0.095079661
-0.03072972 0.0085449233 0.095895663
-0.031188749 0.0070370144 0.097197518
-0.03188048 0.0054701946 0.099013614
-0.03257697 0.0037226767 0.10097371
-0.033024278 0.002062198 0.10221092
-0.033129597 0.0003439531 0.10265833
-0.03354176 -0.0013428863 0.10360096
-0.034158306 -0.0031296947 0.10492491
-0.034898252 -0.0049655558 0.10659126
-0.035706377 -0.0068065709 0.10850338
-0.026703947 0.018594974 0.088500522
-0.027252148 0.017603062 0.090466128
-0.027776777 0.016139959 0.091930335
-0.028051934 0.014686417 0.092802298
-0.028423698 0.013243096 0.093813299
-0.028658023 0.0116955 0.094555144
-0.028943088 0.010161787 0.095541176
-0.029262257 0.0086861297 0.096439098
-0.029892488 0.007143139 0.098284948
-0.030654002 0.0055592093 0.10015268
-0.03116361 0.0038704022 0.10182846
-0.031678034 0.0020692423 0.10327446
-0.031869711 0.00036182034 0.10419545
-0.032218834 -0.0014050978 0.10500499
-0.032690035 -0.0032053181 0.10605822
-0.033532932 -0.0051099468 0.10789048
-0.034038621 -0.0069598027 0.10922566
-0.025071214 0.018537044 0.087993167
-0.025660001 0.017586498 0.090103886
-0.026459611 0.016359657 0.092514676
-0.02683734 0.01486132 0.093770549
-0.027304458 0.013453339 0.095250736
-0.027482657 0.011874331 0.095759806
-0.027679867 0.010302317 0.096388267
-0.027871569 0.0087897832 0.097286313
-0.028410464 0.0072316723 0.098911046
-0.029226869 0.0056763621 0.10131111
-0.029707228 0.0039445644 0.10260973
-0.030060637 0.0022180695 0.10383779
-0.030506445 0.00028444679 0.10533165
-0.030849692 -0.0014861281 0.10645579
-0.031192593 -0.0032805109 0.10722296
-0.031797289 -0.0050237354 0.1084365
-0.032391296 -0.0069287197 0.11000386
-0.023563949 0.01852743 0.087917139
-0.024198079 0.017628065 0.090233753
-0.024963152 0.016378593 0.092498761
-0.025217929 0.014986437 0.093780646
-0.02570999 0.013480165 0.095270269
-0.025893633 0.01191501 0.095955497
-0.026316899 0.010385256 0.097273578
-0.026558831 0.0089208562 0.098513666
-0.026901176 0.0072983048 0.099435128
-0.027547927 0.0056955121 0.10160041
-0.027969696 0.0040040782 0.10262548
-0.028183814 0.0022247772 0.10395121
-0.028959531 0.00036149042 0.10594155
-0.029317715 -0.0015566897 0.1073801
-0.02969198 -0.0033518025 0.10827043
-0.030127689 -0.0050813437 0.10927301
-0.030559168 -0.0068583207 0.11040967
-0.021964645 0.01842119 0.087501748
-0.022808232 0.017516956 0.090332216
-0.023327782 0.016319862 0.092395574
-0.023520621 0.0149357 0.093231053
-0.023919335 0.013470314 0.09474522
-0.024245613 0.011888334 0.09600718
-0.024746573 0.010455985 0.097867642
-0.025065673 0.0089225385 0.098936057
-0.025311384 0.0073127053 0.099808777
-0.025710465 0.0056947226 0.10115125
-0.026056838 0.0039541038 0.10223029
-0.026661356 0.0022181905 0.10394554
-0.027102509 0.00023584904 0.10614334
-0.027587356 -0.0015767963 0.1076742
-0.027975934 -0.0034810532 0.10869971
-0.028334169 -0.0053164667 0.10964743
-0.028716024 -0.0071105698 0.11060707
-0.020272598 0.018252508 0.086962968
-0.021198947 0.017457176 0.090050492
-0.021640125 0.016304078 0.092072737
-0.021950826 0.014957635 0.093375185
-0.022257768 0.013546296 0.094596036
-0.022664733 0.011907716 0.096166115
-0.023173969 0.010549216 0.098233784
-0.023441551 0.0090030547 0.099350701
-0.023614607 0.0073694815 0.10002411
-0.023874082 0.0057046998 0.10087761
-0.024154629 0.0039850328 0.10182262
-0.024654309 0.0021926277 0.10374803
-0.025214822 0.00029798306 0.10606773
-0.025759866 -0.0016944668 0.10774758
-0.026178065 -0.003571777 0.10896824
-0.026515449 -0.0054113551 0.11002466
-0.027054091 -0.0070147658 0.110557
-0.018763353 0.018188769 0.087041788
-0.019576807 0.017393427 0.089751221
-0.020033787 0.016277629 0.091935497
-0.020298906 0.014934442 0.09317869
-0.020686648 0.013577231 0.094825267
-0.020977926 0.0120094 0.096111709
-0.021435097 0.010555212 0.097984852
-0.021704569 0.0090353334 0.099328072
-0.021847786 0.0073812176 0.10000193
-0.022108691 0.0057243456 0.10091602
-0.02231003 0.0039837219 0.1015763
-0.022701193 0.0022736542 0.10321679
-0.023208808 0.0004552132 0.10538393
-0.023776318 -0.0015601413 0.10733557
-0.024135892 -0.0035221436 0.10851236
-0.024498927 -0.0055043901 0.10962319
-0.024793925 -0.0073328064 0.11057527
-0.017182575 0.018140047 0.086775914
-0.017741156 0.017233861 0.089111563
-0.018287419 0.016217837 0.091421455
-0.018648586 0.01496885 0.09318582
-0.019048578 0.013616134 0.094900339
-0.019252781 0.011992879 0.095945173
-0.019601849 0.010502863 0.097551901
-0.020002336 0.0090837583 0.099408396
-0.020198675 0.0074311898 0.10016939
-0.020367935 0.0056878164 0.10072792
-0.020519546 0.0039900245 0.10145381
-0.020791538 0.0022980865 0.10279522
-0.021079309 0.00054107434 0.10428511
-0.021475332 -0.0013794888 0.10583271
-0.021906747 -0.0034682465 0.10743502
-0.022418613 -0.0055069402 0.10857054
-0.022610911 -0.0074396531 0.10951194
-0.022758132 -0.0093425211 0.11041513
-0.015605097 0.017939606 0.086018908
-0.01608713 0.017099777 0.088470313
-0.016509718 0.016012652 0.090498887
-0.016934818 0.014881058 0.092600424
-0.017375186 0.013584292 0.094631044
-0.017579102 0.012070714 0.095889537
-0.017882439 0.010487418 0.097361806
-0.018285324 0.0090921678 0.09925496
-0.018439171 0.0074595391 0.099957148
-0.018535871 0.0056717373 0.10044783
-0.018726567 0.003992739 0.10132135
-0.018876521 0.0023311897 0.10221284
-0.019123427 0.0005675446 0.1036371
-0.019389485 -0.0012786457 0.1046762
-0.019579341 -0.0031722245 0.10577331
-0.019842438 -0.0051040917 0.10670158
-0.020121171 -0.0071287631 0.10759565
-0.020376253 -0.0090644482 0.10874709
-0.020756491 -0.011114249 0.11050909
-0.013982878 0.017795929 0.085315653
-0.014474423 0.016941714 0.087729493
-0.014789079 0.015819332 0.089721865
-0.015228285 0.014758627 0.092178367
-0.015613872 0.013413067 0.094067418
-0.01590865 0.011940625 0.095537034
-0.016161646 0.010528157 0.097326794
-0.016492095 0.009049898 0.099027862
-0.01665322 0.007408285 0.099859111
-0.016785061 0.0056948359 0.10037758
-0.016898571 0.0040161677 0.10105701
-0.016981225 0.0023209636 0.10174269
-0.017183213 0.00060604635 0.10284096
-0.017254984 -0.0012040522 0.10335884
-0.017325781 -0.0030495354 0.10394255
-0.017453525 -0.0049051139 0.10467574
-0.017822451 -0.0069756033 0.10607619
-0.018008277 -0.0089465829 0.10731725
-0.018350521 -0.01101355 0.10920555
-0.018481493 -0.012664957 0.11085026
-0.012441911 0.017722756 0.084906843
-0.012948157 0.016858612 0.087508781
-0.013139587 0.015716818 0.089182343
-0.013497701 0.01467823 0.091724041
-0.013840543 0.013327998 0.093501462
-0.014086525 0.011870865 0.094917084
-0.014304591 0.010364706 0.096330163
-0.014554544 0.0089400539 0.098081465
-0.014850748 0.0073835595 0.099348847
-0.014958544 0.0057137777 0.099956167
-0.015092404 0.0040535924 0.10076773
-0.015086913 0.0023088822 0.10111118
-0.015153612 0.00059753362 0.10171845
-0.015252817 -0.0011673546 0.10236086
-0.015282557 -0.0029809567 0.10254789
-0.015404056 -0.0048225186 0.10333254
-0.015685897 -0.0068061493 0.10463528
-0.015873867 -0.0087614801 0.10596763
-0.016190496 -0.010754225 0.10787412
-0.016570623 -0.012944225 0.11052174
-0.010983891 0.01764209 0.084638236
-0.011292355 0.016733479 0.08670935
-0.011536499 0.015577611 0.088717076
-0.011732411 0.014489488 0.090688861
-0.012012875 0.01328106 0.092850982
-0.012096311 0.011761067 0.093661278
-0.012205022 0.010255819 0.094608243
-0.01225842 0.0088155601 0.095871294
-0.012301193 0.0073491136 0.097196705
-0.013040133 0.0055961158 0.098801409
-0.013211049 0.0039883523 0.10007404
-0.013265924 0.0023220171 0.10075862
-0.013250776 0.00056537596 0.10112614
-0.013265534 -0.0011945023 0.1014757
-0.013401313 -0.0029712005 0.101986
-0.01355478 -0.0048161676 0.10281857
-0.013641102 -0.006716528 0.10350719
-0.013827969 -0.0085617235 0.10477008
-0.014131835 -0.010589746 0.10679147
-0.014507955 -0.012746268 0.10933071
-0.0095143452 0.017522961 0.084173646
-0.0097792048 0.016711979 0.086487442
-0.0099607179 0.015564413 0.088379857
-0.010156854 0.014309588 0.090029667
-0.010178663 0.013105705 0.091553953
-0.010275582 0.011696747 0.092643468
-0.010270004 0.010187998 0.093331896
-0.01018443 0.0087151747 0.094171892
-0.010118428 0.0072977462 0.095277502
-0.010139648 0.0058657071 0.096694699
-0.010781985 0.0041017509 0.098952891
-0.011345024 0.0022996569 0.099757303
-0.011390827 0.00061093841 0.10060284
-0.011464835 -0.0011407653 0.10092046
-0.011528294 -0.0029360319 0.10152054
-0.011710676 -0.0048190947 0.10253157
-0.011815121 -0.0066306914 0.10322463
-0.011865666 -0.0084987777 0.10393274
-0.01206322 -0.010454161 0.10594265
-0.012425007 -0.012654976 0.10833489
-0.0080612212 0.017488489 0.084102315
-0.0082394993 0.016617889 0.086121347
-0.008386164 0.015500001 0.087802449
-0.0085758092 0.01424587 0.089452089
-0.0085977252 0.012977337 0.090774768
-0.0084944211 0.011451836 0.091080133
-0.0083502842 0.010096638 0.091849673
-0.008309138 0.0086570406 0.092601539
-0.0083039589 0.0072209003 0.093562192
-0.0084487787 0.0056432856 0.094587649
-0.0086172687 0.0041080002 0.096195679
-0.0090152992 0.0023457073 0.097963132
-0.0094400583 0.00058848008 0.099701147
-0.0096849275 -0.0012074736 0.10029356
-0.0097784788 -0.0029075518 0.10130804
-0.0098676204 -0.004724988 0.10214051
-0.0099082172 -0.0065418389 0.10264318
-0.010009778 -0.0084118136 0.10372726
-0.01023831 -0.010404073 0.10552984
-0.010378787 -0.01246376 0.1075709
-0.010687384 -0.014595034 0.11051808
-0.0066523405 0.017412127 0.083781899
-0.0067209999 0.016487341 0.085438946
-0.0068646872 0.015386489 0.087192014
-0.0069855032 0.014114476 0.088553061
-0.0070274329 0.012798932 0.089740558
-0.0069289343 0.011419848 0.090287985
-0.0066493425 0.0098579198 0.090737733
-0.0065855823 0.0084195549 0.091410063
-0.006722085 0.007030454 0.092477375
-0.0068182933 0.0054906071 0.093297864
-0.0069718005 0.0039056578 0.09438629
-0.0071685186 0.0022508819 0.095998922
-0.0075738529 0.00052587087 0.097987256
-0.0077923501 -0.0012086657 0.099657719
-0.0080100527 -0.0029198098 0.10107179
-0.0080448816 -0.0046463379 0.10191476
-0.008074022 -0.0064050522 0.10251263
-0.0081671046 -0.008287221 0.10355012
-0.0083301356 -0.010266791 0.10539854
-0.0084976312 -0.012394351 0.10731273
-0.0087509801 -0.014751471 0.11054202
-0.0051735857 0.017345962 0.083146429
-0.0052329206 0.016349931 0.084733922
-0.0053287986 0.01521816 0.086334111
-0.005418852 0.013945284 0.087698249
-0.0054901998 0.012621844 0.088995523
-0.0054508973 0.01116608 0.089533504
-0.0052594857 0.0097328661 0.090000246
-0.0051998563 0.008254936 0.090404938
-0.005242183 0.0067522121 0.090904975
-0.0053420892 0.005248502 0.091857498
-0.0054880932 0.0036160726 0.093048975
-0.0056163404 0.0020316091 0.094414736
-0.0057210225 0.00038840933 0.096342674
-0.005993271 -0.0012002142 0.09925631
-0.0062219443 -0.002916483 0.10097541
-0.0062975911 -0.0045906138 0.10194234
-0.006287048 -0.0063123791 0.10256507
-0.0063581726 -0.0081029046 0.10388157
-0.0064698703 -0.010205883 0.10534169
-0.0066269958 -0.012362068 0.10750192
-0.0068085362 -0.014724934 0.11051734
-0.0037594228 0.016195837 0.083917824
-0.0038446007 0.015151053 0.086020514
-0.0038999213 0.013901159 0.087436415
-0.0039479248 0.012603515 0.088745956
-0.0039337965 0.011154478 0.089271955
-0.0038876234 0.0096755603 0.089641166
-0.003843768 0.0081139639 0.089769173
-0.0038731676 0.0065821885 0.090002297
-0.0039627269 0.0050836126 0.090913206
-0.0039628707 0.0034174258 0.092200697
-0.0040593663 0.0017864212 0.093478076
-0.0041322486 0.00014827879 0.095312762
-0.004256477 -0.0012362635 0.098762241
-0.0044520915 -0.0029117608 0.10053079
-0.0044961351 -0.0045020904 0.10142163
-0.0045528905 -0.0061751588 0.10251822
-0.0045786311 -0.0080155211 0.10385134
-0.004626757 -0.010173106 0.105397
-0.0047425623 -0.012331985 0.10771051
-0.0048609477 -0.014717846 0.11063417
-0.0022314393 0.0162796 0.083791417
-0.0022995398 0.015259401 0.085898448
-0.0024029857 0.013951508 0.08750215
-0.0024205547 0.012599547 0.088477053
-0.0024124751 0.011192912 0.089214036
-0.0024030659 0.0096425392 0.089526339
-0.0023887752 0.0080641871 0.08988301
-0.0024030626 0.0064951948 0.08999378
-0.0024660295 0.0050764697 0.091151509
-0.0024525649 0.0033236983 0.092375226
-0.0024409397 0.0016899553 0.093476553
-0.0024955354 2.040906e-05 0.094930402
-0.0025698714 -0.0013037763 0.098215772
-0.0026957879 -0.0029050347 0.10042344
-0.0027171145 -0.0045596146 0.10143106
-0.0027589215 -0.0062024199 0.10241935
-0.0027906505 -0.0079008123 0.10399962
-0.0028280076 -0.010051918 0.10534066
-0.0028396001 -0.012354164 0.10766792
-0.0029834604 -0.01476849 0.11030207
-0.00081196589 0.016278243 0.083813803
-0.00084436083 0.015228416 0.085766014
-0.00085701699 0.014004581 0.087553691
-0.00090582913 0.012662951 0.088520894
-0.00089879175 0.011249884 0.089326772
-0.00091402448 0.0097311536 0.089751451
-0.00098386944 0.0081007836 0.090374181
-0.00099519762 0.0065649854 0.090460649
-0.0010853678 0.0051759728 0.091600836
-0.00096730386 0.003577991 0.092657511
-0.00088192099 0.0018687027 0.093862806
-0.00084542901 0.00014887042 0.095384987
-0.0010081489 -0.0013890601 0.098248443
-0.00096286251 -0.0028834967 0.10032825
-0.00097512374 -0.0045486437 0.10156907
-0.00095847291 -0.0062665995 0.10271463
-0.0010415781 -0.0080802299 0.10383911
-0.0010478864 -0.010129442 0.10590691
-0.0010382235 -0.01251612 0.10804329
-0.00094117435 -0.014969143 0.11065713
0.00060851207 0.016264234 0.083721013
0.00063038748 0.015207248 0.085800478
0.00062658422 0.014030686 0.087318568
0.00060974922 0.012689829 0.088751292
0.00059985839 0.01123389 0.089563158
0.00041834995 0.009668724 0.090263501
0.00030052705 0.0082214128 0.091181885
0.0002293047 0.0067756899 0.091993027
0.00035551451 0.0052956142 0.093152876
0.00055124525 0.0036625943 0.094053969
0.00069400317 0.0019803723 0.094650723
0.00073814495 0.00027801828 0.095941244
0.00074639422 -0.0013048782 0.098500064
0.00074949793 -0.0029343619 0.10018967
0.00074733478 -0.0045657734 0.10160245
0.00075513795 -0.006364574 0.10263669
0.00073827766 -0.0082241811 0.10362717
0.00077669878 -0.010223293 0.10585732
0.00085092068 -0.01249645 0.10802618
0.00095368846 -0.014938115 0.11051983
0.0020200646 0.016268707 0.083745526
0.0020959516 0.015182368 0.085781513
0.0021224723 0.014030019 0.087486191
0.0021303246 0.012741096 0.088898128
0.0019857863 0.011215651 0.089570604
0.0019357563 0.0096361848 0.090750166
0.0019967266 0.0083970217 0.092613796
0.0019839487 0.0069268985 0.093534884
0.0021014422 0.0053333375 0.094316295
0.0021950419 0.0037106474 0.094978095
0.0022713908 0.0020900761 0.095587219
0.0022949277 0.00033832884 0.096843174
0.0025043218 -0.0012772181 0.099024321
0.0025408015 -0.0030035467 0.10018135
0.0025396044 -0.0047165712 0.1011994
0.0024837322 -0.0064586319 0.10257832
0.0025343108 -0.0083055675 0.10350634
0.0026555014 -0.010289525 0.10563409
0.0027638094 -0.012509236 0.10792207
0.002861276 -0.014918894 0.11029967
0.0034278895 0.016230672 0.083585782
0.003545491 0.015086722 0.085556281
0.0035948938 0.013955666 0.087542213
0.0035942317 0.012623875 0.088630544
0.0035099319 0.011194724 0.089442916
0.0034400227 0.0096827842 0.09074986
0.0034946388 0.0084149182 0.092665782
0.0036309216 0.0068940372 0.093835491
0.0037168182 0.0053858459 0.094593378
0.0037376386 0.0038676503 0.095459902
0.0038396849 0.0022003504 0.096248923
0.0039917133 0.00042441398 0.097891363
0.004249822 -0.0013829731 0.099443474
0.0043432832 -0.0030931932 0.10049565
0.0043237554 -0.0047973804 0.10137793
0.0043185031 -0.006542416 0.10255458
0.0043252218 -0.008410457 0.10364698
0.0044243115 -0.010433206 0.10575288
0.0046495767 -0.01262833 0.10803545
0.0048567608 -0.014879284 0.11059999
0.0048626052 0.016170502 0.0837199
0.0049726951 0.015027409 0.085307147
0.0050359449 0.01390242 0.087203656
0.0050834623 0.012578778 0.08817085
0.0050370185 0.011219117 0.089457487
0.0050147606 0.0097853861 0.090859715
0.0050419699 0.0084340015 0.09217097
0.0051953378 0.0069769115 0.093875405
0.0053234584 0.0054102772 0.094744756
0.0053858533 0.0039599863 0.095954818
0.0054761112 0.0022853732 0.097525008
0.005723519 0.00044368058 0.098824009
0.006079601 -0.0014680889 0.099872079
0.0061131522 -0.0030916041 0.10097358
0.0061252669 -0.0048626329 0.10164299
0.0061482255 -0.0066275283 0.10268989
0.0061189044 -0.0084728066 0.10406861
0.0062316768 -0.010705442 0.10568001
0.0065734163 -0.012961188 0.1080921
0.0063283666 0.016118721 0.084024442
0.0064166264 0.014974487 0.085200305
0.0065014266 0.013791694 0.086760384
0.0065296608 0.012464306 0.087644449
0.006578339 0.011188469 0.089205615
0.0065796783 0.0097955251 0.090506719
0.0066260094 0.0084271996 0.091973638
0.0067531231 0.0069925743 0.093553459
0.006981883 0.0054884603 0.094947646
0.0071593366 0.0037317254 0.09652949
0.0073437757 0.0021800739 0.098240672
0.0077052267 0.00013856164 0.099198396
0.0078082388 -0.0015078124 0.10024119
0.0079070955 -0.003198306 0.10133548
0.0079618449 -0.0049327758 0.10227186
0.0080165636 -0.0067922925 0.10321131
0.0079749303 -0.0087583508 0.10443428
0.0082036752 -0.011097192 0.10612761
0.008507107 -0.013452366 0.10809977
0.0087847522 -0.015456126 0.10982396
0.0076588779 0.017238427 0.083023552
0.0077795987 0.016161385 0.084338516
0.0078781465 0.014990365 0.085371146
0.0079887155 0.013803018 0.086754636
0.0079850295 0.012431279 0.087458314
0.008068195 0.01115013 0.089107588
0.0081259545 0.0097749211 0.09031276
0.0081786744 0.0084322444 0.091527927
0.0084104624 0.0070836718 0.093959333
0.0086256435 0.0054140011 0.09503319
0.0088556214 0.0037420233 0.096681459
0.0091623127 0.0020255674 0.098704113
0.0093891268 0.00016728998 0.099572679
0.009549352 -0.0015633756 0.10064328
0.0097300874 -0.0031573416 0.10195976
0.0098061245 -0.0050401107 0.10255733
0.0099470792 -0.0070743265 0.10330507
0.010039621 -0.0091188271 0.10473691
0.010209303 -0.011459105 0.10636076
0.010384344 -0.013934358 0.10786143
0.0090730796 0.017262068 0.083127715
0.0092111616 0.016187306 0.084430714
0.0092962697 0.014957318 0.085382082
0.0093790812 0.013797692 0.08673593
0.0094986081 0.012486711 0.087908258
0.0095974093 0.011198878 0.089222877
0.0096891429 0.0098071367 0.090204587
0.0098120104 0.0083860654 0.091319027
0.010076814 0.0070556642 0.094098132
0.010287285 0.0054076488 0.09494368
0.010696261 0.0037644067 0.097376981
0.01086657 0.0020404236 0.098841353
0.01102496 0.00022369837 0.099561925
0.011217096 -0.0015260643 0.10065085
0.011508515 -0.003360609 0.10191518
0.011617998 -0.0051834736 0.10259733
0.01183853 -0.0071964051 0.10376877
0.012017186 -0.0092856414 0.10518968
0.012157903 -0.011775897 0.10689942
0.012261708 -0.014233588 0.1082641
0.010473839 0.017262938 0.083177113
0.010593741 0.016171287 0.084131244
0.010650897 0.014911535 0.085105409
0.010823527 0.013766823 0.086510009
0.010940304 0.012495947 0.087541218
0.011108229 0.011230549 0.089016606
0.011221561 0.0098591522 0.090126825
0.011359828 0.0084489498 0.091223078
0.011684897 0.0070545575 0.093763566
0.01200693 0.0054252611 0.09532543
0.012337285 0.0038165405 0.097550224
0.012580284 0.0020816511 0.098957177
0.012781747 0.00034094788 0.099868563
0.012943443 -0.0014705477 0.10080268
0.013236918 -0.003288977 0.1019442
0.01347087 -0.0051714063 0.10292845
0.013728041 -0.0072675262 0.10432943
0.01388616 -0.009574379 0.10632595
0.014099332 -0.012060674 0.10784802
0.014232036 -0.014217478 0.10881248
0.011971465 0.017429807 0.083854598
0.012050181 0.016223924 0.084363595
0.012083257 0.014948002 0.085151541
0.012293551 0.013794416 0.086635418
0.012440442 0.012506827 0.087472439
0.012595698 0.011197328 0.08882116
0.01272371 0.0098238898 0.089875196
0.012847167 0.0084213545 0.090885925
0.013195435 0.0071461933 0.093527105
0.013691926 0.005409557 0.095448667
0.013999731 0.0038254347 0.097446884
0.014319998 0.0021702995 0.099207244
0.014501449 0.00048009568 0.1002631
0.014766824 -0.0012799963 0.1008093
0.015031854 -0.0031779748 0.10220571
0.01528322 -0.0051414091 0.10302156
0.01564498 -0.0074359983 0.10521819
0.015870845 -0.0099654623 0.10764604
0.016236073 -0.012284067 0.10911992
0.013371864 0.017460905 0.083918598
0.013460551 0.016295715 0.084617756
0.013549516 0.015008923 0.085192124
0.013804734 0.013880729 0.087054968
0.013997512 0.012522502 0.087931745
0.014105439 0.011222375 0.088957284
0.014249475 0.0098553324 0.089914236
0.014397226 0.0084288222 0.0909729
0.014705854 0.0070902666 0.092798076
0.015322518 0.0053723052 0.095480569
0.015826884 0.0038656067 0.098167656
0.016131139 0.0022764248 0.099570717
0.016386964 0.0005065127 0.10075569
0.016504019 -0.001285836 0.10114999
0.016826808 -0.0031194406 0.10259422
0.017294031 -0.0052825121 0.1042469
0.01776626 -0.0075330941 0.10678199
0.018128707 -0.010047639 0.10896682
0.014845591 0.017680693 0.084501956
0.014970825 0.016518453 0.08525248
0.015103799 0.015222743 0.086011877
0.015346292 0.013889338 0.08704872
0.015505905 0.012575809 0.088030597
0.015694681 0.011271349 0.089206816
0.015815638 0.0098994644 0.09017113
0.016064126 0.0085351657 0.091688077
0.016539081 0.0071315997 0.093491259
0.016963403 0.0054523406 0.095338051
0.017569631 0.0038665784 0.098223175
0.017862489 0.0022884011 0.099647955
0.018130848 0.0005604879 0.10080797
0.01835144 -0.0011461752 0.10177118
0.018680496 -0.003098718 0.1032487
0.019356031 -0.0053043438 0.10554783
0.020116015 -0.0076659603 0.10913831
0.01637165 0.017922131 0.085383229
0.016523699 0.016680231 0.085979629
0.016669186 0.015314806 0.08657459
0.016929285 0.013987345 0.087386488
0.017059388 0.012628971 0.088179724
0.017308411 0.011354953 0.089670426
0.017389526 0.0099656103 0.090584751
0.017773521 0.0085266309 0.091978471
0.018347978 0.0071430386 0.094217864
0.018597176 0.0055367852 0.095387625
0.019229703 0.0039057759 0.097968928
0.019559213 0.0023063337 0.099434452
0.019890623 0.00068435321 0.1009506
0.0203251 -0.0011295521 0.10263882
0.020767126 -0.0031099625 0.10453137
0.021554404 -0.0052749091 0.10724395
0.022322041 -0.0073905615 0.11037967
0.017949224 0.018038011 0.086031935
0.018107147 0.01676561 0.086556498
0.018216913 0.015382826 0.086949198
0.018508746 0.014084379 0.087920926
0.018713233 0.012702081 0.08884169
0.019066706 0.011427309 0.090190816
0.019103897 0.0099574096 0.090806261
0.019311004 0.0085040906 0.091944234
0.020062275 0.0071643935 0.094748139
0.020377402 0.0055899775 0.096039765
0.02109144 0.0039423304 0.09859554
0.021439419 0.0023273632 0.10005827
0.021889582 0.00061130545 0.1015196
0.02237862 -0.0012820907 0.10347034
0.023243791 -0.0032670785 0.10617354
0.023723111 -0.0052348084 0.1088265
0.019379137 0.018062239 0.085944618
0.019673926 0.016821753 0.086880377
0.019868577 0.015477212 0.087496774
0.020134633 0.014177609 0.088353689
0.020369769 0.012797765 0.089208692
0.020675526 0.011400324 0.090264434
0.020753342 0.0099410398 0.091016725
0.020958645 0.0085331715 0.092123889
0.021726998 0.0071943983 0.09501442
0.022080359 0.0056555577 0.09638909
0.022931756 0.0039698899 0.098947994
0.023280771 0.0023375263 0.10042341
0.02382874 0.00060620796 0.10227943
0.024567316 -0.0013365329 0.10442995
0.025327729 -0.003199203 0.1071276
0.026052834 -0.0053090074 0.11037388
0.020803885 0.01798872 0.085709802
0.021212313 0.016841384 0.086947678
0.021552116 0.015537108 0.087809716
0.021763937 0.014209266 0.088641562
0.021906713 0.012773325 0.08913167
0.022172116 0.011348708 0.089985885
0.022303489 0.0098810438 0.090840445
0.02270821 0.0085465573 0.092547612
0.023263646 0.0071426639 0.094563778
0.023718548 0.0055441923 0.096034723
0.024592528 0.003978476 0.098751397
0.02542142 0.0023325116 0.10177402
0.025857625 0.00056679981 0.10309422
0.026643053 -0.001300148 0.10515988
0.027560974 -0.0032500232 0.10864292
0.022443104 0.017996654 0.08605053
0.022735365 0.016809141 0.086926916
0.023094576 0.015566475 0.087914323
0.02329784 0.014154644 0.088558389
0.023412733 0.012706904 0.08894666
0.023735597 0.011321671 0.089933367
0.024439181 0.010015651 0.091729611
0.024688228 0.0086275459 0.093258558
0.025007529 0.0070003264 0.094549731
0.025945993 0.0055226434 0.097258598
0.026745893 0.0040743553 0.099794381
0.027798581 0.0023444619 0.10308604
0.028325329 0.00060229221 0.1046156
0.028818971 -0.0012683663 0.10644001
0.02979718 -0.0033658846 0.11013753
0.023994416 0.017965897 0.086123331
0.02434808 0.016822567 0.087135172
0.02465217 0.015515739 0.088018352
0.024823206 0.014108727 0.088473445
0.024966598 0.012676587 0.088947716
0.025377879 0.011284851 0.089877978
0.025961153 0.010027862 0.091320451
0.026181642 0.0086108049 0.092306991
0.026619319 0.0071273411 0.094192566
0.027774395 0.0055701174 0.0974587
0.028908891 0.0040186328 0.10094467
0.030235005 0.0024036272 0.10438404
0.030677081 0.00058134992 0.10628736
0.031118051 -0.0012548933 0.10800994
0.031907434 -0.0032075809 0.11073731
0.025428088 0.017913288 0.085818511
0.025864997 0.01675409 0.087011346
0.026178672 0.015452589 0.087965748
0.026352548 0.01410425 0.088434921
0.026510963 0.012643267 0.088898882
0.026877414 0.011239392 0.08942758
0.02716018 0.0099152148 0.090298729
0.027502297 0.0085050771 0.091459027
0.027875775 0.0070355803 0.092899759
0.029267677 0.0055570629 0.096779372
0.031268316 0.004088244 0.10230832
0.032320805 0.0024129063 0.10548334
0.032667714 0.00059515124 0.10683338
0.033362371 -0.0012178204 0.10891541
0.02698227 0.017964278 0.08617343
0.027345636 0.016786416 0.087148496
0.027677298 0.015446061 0.087819473
0.027976093 0.014134039 0.088585984
0.028225077 0.012591152 0.088822049
0.028374711 0.011144192 0.089223419
0.028542779 0.0097788717 0.08989421
0.028981948 0.0084266583 0.091274013
0.03005705 0.0070591285 0.094427599
0.030922047 0.0055391356 0.096850076
0.033725406 0.0040290085 0.10385258
0.034520578 0.0024397571 0.10670416
0.035044659 0.00063534653 0.10834686
0.035748712 -0.0013114517 0.11034006
0.028147268 0.017863381 0.085356544
0.028830149 0.016823742 0.087177627
0.029193416 0.015519704 0.087930977
0.029467503 0.014073034 0.08834152
0.029641166 0.01253933 0.088553589
0.02977718 0.01107316 0.088979014
0.029877619 0.0096609147 0.089498702
0.030465383 0.0083138986 0.091249145
0.031545945 0.006943343 0.094165137
0.032178072 0.0054832932 0.095870508
0.036366868 0.0041092115 0.10643591
0.037084356 0.0021891528 0.10825329
0.03748575 0.00028275588 0.10940385
0.038432926 -0.001730337 0.11074726
0.029070014 0.017643989 0.083838245
0.029976475 0.016748132 0.086212349
0.030486832 0.015418137 0.087353443
0.030881741 0.014042798 0.088176587
0.031071614 0.012545941 0.088429242
0.031227462 0.011073897 0.088901229
0.031558937 0.0095929864 0.089913614
0.031833284 0.0081748198 0.090741832
0.032698623 0.0067511677 0.093038902
0.034827694 0.0053877979 0.098035024
0.039002277 0.0039690786 0.10751724
0.039517963 0.002114389 0.10906054
0.04015152 0.00011538521 0.11012717
0.040568457 -0.0015954423 0.1110477
0.030887386 0.016515935 0.084708859
0.031581743 0.01525483 0.086202508
0.032127875 0.013909355 0.08721858
0.032407972 0.012455055 0.087973735
0.032630162 0.010960149 0.088632582
0.033026542 0.0094600531 0.089775757
0.033460478 0.0080495965 0.091015404
0.034280908 0.0066284898 0.093208134
0.039086378 0.0053528295 0.1029862
0.040905273 0.0039191237 0.10755698
0.041657351 0.0021057443 0.10936698
0.042179209 7.2193886e-05 0.11021724
0.042954733 -0.0016383108 0.11111256
0.032524647 0.015194588 0.084431104
0.033081645 0.013802257 0.085586182
0.033790991 0.012405272 0.087545983
0.034164922 0.010817516 0.088474448
0.034483855 0.0093379721 0.08945953
0.034976382 0.0079759959 0.090774476
0.036849991 0.0065180577 0.095359756
0.041171914 0.0053221294 0.10376731
0.042620298 0.0039907564 0.10732282
0.043393026 0.0022358981 0.10879522
0.044032363 0.00016785271 0.1098199
0.044414855 -0.0017490344 0.1103036
