ply
format ascii 1.0
comment Automatically gnerated by model-converter
element vertex 764
property float x
property float y
property float z
element face 0
property list uchar int vertex_indices
end_header
-0.029310986 0.018061991 0.088133858
-0.029835074 0.016725592 0.089659271
-0.030005722 0.015224642 0.090246077
-0.030215412 0.013668685 0.09075914
-0.030638672 0.012204981 0.091762928
-0.031186729 0.010942832 0.092985372
-0.031549944 0.0096458849 0.093990819
-0.031917341 0.0084141068 0.094877878
-0.032679212 0.0073564343 0.096605405
-0.033508695 0.0064180618 0.099080326
-0.034588913 0.0048000371 0.10169645
-0.035070339 0.0029648509 0.10262434
-0.035261973 0.0011557716 0.10272349
-0.035448543 -0.00067401695 0.10303925
-0.035810088 -0.0026379645 0.10379132
-0.036388349 -0.0047587223 0.10528155
-0.037171748 -0.0070867886 0.10800545
-0.028366731 0.018275322 0.089399728
-0.028670578 0.016941852 0.090572613
-0.028790775 0.015373634 0.090947993
-0.02899435 0.013801668 0.091415065
-0.029482778 0.01237201 0.092503162
-0.029949638 0.011031032 0.093578942
-0.030386157 0.0098223977 0.094905425
-0.030912874 0.008628576 0.096062114
-0.031503217 0.0075169613 0.097727188
-0.032342073 0.0064185795 0.10000972
-0.033212082 0.0046517951 0.10230761
-0.033644264 0.0028007134 0.10335133
-0.033836418 0.00099968253 0.10349851
-0.034078878 -0.00094428938 0.1040159
-0.034499762 -0.0029646227 0.10498101
-0.035025599 -0.0051377987 0.10632691
-0.035621443 -0.0073672736 0.10799046
-0.026618229 0.018273499 0.088428895
-0.027120668 0.017043334 0.090258303
-0.027524668 0.015389156 0.091486475
-0.02773859 0.013867719 0.09213856
-0.028158502 0.012525073 0.093149723
-0.028505444 0.011106036 0.094065846
-0.028900475 0.0097642266 0.095258612
-0.029413186 0.0086369032 0.096477391
-0.030122032 0.0075751442 0.098685616
-0.030907233 0.0063381417 0.10088163
-0.031614748 0.0045915676 0.10280567
-0.03212966 0.0025645917 0.10409246
-0.032308534 0.00068264169 0.10467555
-0.032542631 -0.0013064498 0.10508993
-0.032952103 -0.0032452887 0.1059848
-0.033526935 -0.0054454064 0.1074849
-0.033880715 -0.0075502823 0.10852526
-0.024979688 0.018338033 0.087949945
-0.025561954 0.017138447 0.089954254
-0.026245808 0.015583385 0.092089636
-0.026475389 0.013977505 0.092914098
-0.026999076 0.012752335 0.094427732
-0.027272318 0.011251597 0.095114903
-0.027568364 0.0098121374 0.095954702
-0.027935529 0.008602521 0.097132843
-0.028588404 0.0074982188 0.099130914
-0.029327235 0.0062917511 0.10180384
-0.029998198 0.0045705637 0.10331118
-0.030420512 0.0025717496 0.10440091
-0.030732333 0.00035547536 0.10548608
-0.03101584 -0.0016015415 0.10628328
-0.031328901 -0.0034094738 0.10694023
-0.031837688 -0.0053111847 0.1080165
-0.032206525 -0.0074906376 0.10923577
-0.02346336 0.018391197 0.087923258
-0.02410312 0.017248268 0.090159509
-0.024844184 0.01577363 0.092268601
-0.024955961 0.014195788 0.093147168
-0.025415316 0.012654177 0.094420698
-0.025672899 0.011169277 0.09525326
-0.026156779 0.0097794609 0.096679882
-0.026523606 0.0086848093 0.098132298
-0.027029335 0.0073385914 0.099413222
-0.027588738 0.0060622747 0.10184714
-0.028185542 0.0044881038 0.10304515
-0.028458884 0.0024833225 0.10415493
-0.029168159 0.00035149904 0.10591531
-0.029428249 -0.0017017485 0.10705359
-0.02975486 -0.003585859 0.10788351
-0.030083869 -0.0054094326 0.10874154
-0.030348919 -0.0073006318 0.10969774
-0.021863231 0.018385735 0.087587304
-0.022709391 0.017185361 0.09032007
-0.023203486 0.015834483 0.092282223
-0.023367173 0.014421691 0.093063293
-0.023696974 0.012668479 0.094179784
-0.02402748 0.011020291 0.095274825
-0.024612173 0.0097763972 0.097112359
-0.025036612 0.0084529612 0.098267648
-0.025361446 0.0071034809 0.099582762
-0.025798183 0.0057611129 0.10119677
-0.026135734 0.0041036689 0.10238269
-0.0267429 0.0022681854 0.10395187
-0.027290421 0.00019830862 0.10588998
-0.027686848 -0.0017124573 0.10736262
-0.027953761 -0.0036761958 0.10821863
-0.028150597 -0.0055141047 0.10911074
-0.02840484 -0.0073438386 0.11000864
-0.020184665 0.018287026 0.087142177
-0.021100426 0.01720644 0.090111635
-0.021517725 0.015902287 0.092058062
-0.021803115 0.014468879 0.093257686
-0.022090937 0.012965805 0.094350995
-0.022473353 0.011135503 0.095549807
-0.023068441 0.0098130376 0.097361467
-0.023342367 0.0084407643 0.098486399
-0.023583377 0.0070348409 0.099502133
-0.02388959 0.0055878712 0.10077481
-0.024152959 0.0039989276 0.10186428
-0.024648337 0.002214272 0.10374644
-0.02535867 0.00021896338 0.10578328
-0.025867029 -0.0017383878 0.10738798
-0.026134545 -0.0036174164 0.10847165
-0.0262718 -0.0054454902 0.10949682
-0.026710037 -0.0071356095 0.10997567
-0.018790658 0.018048356 0.08724029
-0.01947421 0.017190759 0.089839211
-0.019905628 0.015885526 0.091934965
-0.020157986 0.014458003 0.093111301
-0.020521138 0.013018462 0.094627557
-0.020808465 0.011326642 0.095594534
-0.021313883 0.0098132277 0.097201562
-0.021615539 0.0083668325 0.098468136
-0.021840086 0.0068156925 0.09937253
-0.022139808 0.0054438156 0.1005932
-0.022334331 0.0038365797 0.10145481
-0.022677543 0.0022584618 0.10320565
-0.023234455 0.00037111935 0.10526146
-0.023881797 -0.0015951069 0.10700095
-0.024176382 -0.0034893979 0.10809539
-0.024349099 -0.0054309266 0.10910955
-0.024409008 -0.0072322471 0.11001092
-0.017226267 0.018036602 0.086956789
-0.017691835 0.017016494 0.089235648
-0.0181665 0.01584937 0.091442956
-0.018495054 0.014462083 0.093113288
-0.018869155 0.012996077 0.094675622
-0.019077431 0.011279563 0.095445851
-0.019468079 0.0097290844 0.096805177
-0.019891369 0.0083961145 0.098589958
-0.020118076 0.0068871577 0.0995423
-0.020321603 0.0053306338 0.10032724
-0.020516708 0.003809079 0.10120832
-0.020747453 0.0022144456 0.10275789
-0.021031506 0.00051695332 0.10418709
-0.021527141 -0.0014970918 0.1056158
-0.021971843 -0.0034685896 0.10714381
-0.022331702 -0.0053116834 0.10814243
-0.022351742 -0.0072050808 0.10905454
-0.022322664 -0.0091139782 0.10990766
-0.015672031 0.017919414 0.086159995
-0.016071244 0.016918619 0.088557133
-0.016364426 0.015747447 0.090520336
-0.016762597 0.014393469 0.092572401
-0.017134384 0.012892201 0.094424413
-0.017291476 0.011263327 0.095515148
-0.017721524 0.0096667239 0.096652008
-0.018162604 0.0084307316 0.098503363
-0.01836843 0.0069051787 0.099415868
-0.018489862 0.0052984756 0.10007722
-0.018704317 0.0038011822 0.10101067
-0.018811965 0.0022462104 0.10205028
-0.019080267 0.00047783603 0.10344102
-0.019414471 -0.0014184476 0.10435531
-0.019678123 -0.0033666615 0.10531333
-0.020029212 -0.0053171129 0.10613457
-0.020157326 -0.0071606643 0.10716713
-0.020381366 -0.009017115 0.10842703
-0.020693866 -0.010957924 0.11024529
-0.014080691 0.017911915 0.085468778
-0.014483976 0.016823894 0.087781136
-0.01470876 0.015543429 0.089703382
-0.015002927 0.014294066 0.092170389
-0.015240032 0.012779051 0.094004716
-0.015334425 0.011204594 0.095437834
-0.015865517 0.0096747821 0.096690305
-0.016372916 0.0083404663 0.098365992
-0.016541838 0.0068946655 0.099341951
-0.01667411 0.0053739637 0.099982473
-0.016793191 0.0038280116 0.10063084
-0.016919916 0.0021783314 0.10141231
-0.017166242 0.00046921832 0.10254821
-0.017272057 -0.0013506941 0.10299321
-0.017391311 -0.0032251741 0.10349404
-0.017509072 -0.0050213127 0.10428675
-0.017859181 -0.007062756 0.10567504
-0.018029821 -0.008984036 0.10696147
-0.018367237 -0.010971469 0.10896849
-0.01849511 -0.012520256 0.11069362
-0.012559371 0.017954059 0.085059151
-0.012971501 0.01673698 0.087484735
-0.013088921 0.01545824 0.089076215
-0.013221706 0.014275072 0.091693184
-0.01338085 0.012833451 0.093470941
-0.013306827 0.01137112 0.095018148
-0.01304154 0.0099484615 0.096576234
-0.013519785 0.0084590683 0.098060598
-0.014637775 0.0069457207 0.099005223
-0.014607501 0.0055358121 0.099715543
-0.014864756 0.0038644978 0.10035684
-0.014965753 0.0021108168 0.10065234
-0.015118049 0.00040795893 0.10131009
-0.015205453 -0.0012966332 0.10200957
-0.015238751 -0.0031128516 0.10227584
-0.015361091 -0.0049148088 0.10306044
-0.015658804 -0.0068866887 0.10432769
-0.015851049 -0.0087823414 0.10564483
-0.016164602 -0.01073144 0.10763013
-0.016582132 -0.012772297 0.11040127
-0.01111552 0.017905569 0.084715684
-0.011340195 0.016718912 0.086643762
-0.011519526 0.015318952 0.088516848
-0.011480534 0.0140936 0.090549611
-0.011473567 0.012972191 0.092831637
-0.011249008 0.011508992 0.093772518
-0.010892272 0.01015222 0.09497029
-0.010421638 0.0088344058 0.096402018
-0.0099356699 0.0075146305 0.097823777
-0.012551093 0.0054915906 0.098764505
-0.013003709 0.0037512752 0.099699512
-0.013152232 0.0020595646 0.1002838
-0.013212852 0.00031960101 0.1006128
-0.013266054 -0.0014304125 0.10098925
-0.013418998 -0.0031833579 0.10155397
-0.013495535 -0.0049160726 0.10246717
-0.013609712 -0.0067781063 0.10328309
-0.013805009 -0.0085954243 0.10457791
-0.014129413 -0.010592494 0.10660828
-0.014494563 -0.012598801 0.10925124
-0.0096928516 0.017773546 0.084130615
-0.0098417483 0.016719947 0.086327542
-0.01006168 0.015244213 0.087952494
-0.010014073 0.013893725 0.089632807
-0.0097141949 0.012892908 0.091357344
-0.0094805019 0.011605654 0.092659699
-0.00903358 0.010254419 0.093546812
-0.0085581717 0.0088756907 0.094422646
-0.0079687816 0.0075798847 0.095494504
-0.0079617007 0.0059953134 0.096778713
-0.0095244098 0.0040407077 0.098789749
-0.01109444 0.0020582768 0.099399428
-0.011375109 0.00030785364 0.10000899
-0.011515466 -0.0014528768 0.10026832
-0.011581266 -0.0032147508 0.10093491
-0.011697575 -0.0049595775 0.10215581
-0.011777478 -0.0066839507 0.10304639
-0.011808491 -0.0084990726 0.10385311
-0.012039631 -0.010413671 0.10583438
-0.012395485 -0.012513915 0.10828905
-0.0082466989 0.01772627 0.083946527
-0.0083787654 0.016642528 0.085818367
-0.0086032503 0.015262594 0.087196935
-0.0085898264 0.013831646 0.088804408
-0.008249287 0.012744297 0.090289219
-0.0079217915 0.011400432 0.090817073
-0.0075266209 0.010137434 0.091505517
-0.0072744898 0.0087030668 0.092152934
-0.0070022402 0.007215294 0.093188098
-0.0070085017 0.0056862664 0.09422209
-0.0074038674 0.003955621 0.095759824
-0.0081513085 0.0020912746 0.097441264
-0.0090011477 0.00025255598 0.098869639
-0.0095250071 -0.0015701403 0.099400342
-0.0098144358 -0.0032961073 0.10045822
-0.0098329585 -0.0048673221 0.10175456
-0.0098606425 -0.0065672721 0.10251295
-0.0099503227 -0.0083510699 0.10370064
-0.010218957 -0.010344756 0.10548826
-0.010382497 -0.012389575 0.10753709
-0.010658497 -0.014360964 0.11054482
-0.006860119 0.017693619 0.083546621
-0.0068913256 0.016602171 0.085065928
-0.0070735008 0.01526438 0.086538471
-0.0071609684 0.013770472 0.087652163
-0.0070485007 0.012451775 0.088757241
-0.006540596 0.011359063 0.089749111
-0.0064003957 0.0096938317 0.089473296
-0.0062041204 0.0081631863 0.090122511
-0.0060902047 0.006762594 0.091321275
-0.0060817451 0.0052469935 0.092331152
-0.0061982825 0.0035767809 0.093550235
-0.0065715197 0.0018322928 0.095132395
-0.007286349 1.2895272e-05 0.097045916
-0.0076507857 -0.0017964614 0.098712118
-0.007932107 -0.0034065897 0.10018757
-0.0079703522 -0.0048973898 0.10140099
-0.0080477346 -0.0065992337 0.10219688
-0.0081339486 -0.0083066525 0.10346269
-0.0083246953 -0.010385703 0.10521046
-0.008501184 -0.012401176 0.10718548
-0.0087481107 -0.014574623 0.11050288
-0.0054122788 0.017708591 0.082862371
-0.0054344 0.016562228 0.084301727
-0.0055598221 0.015240869 0.085658022
-0.0056878188 0.013768831 0.086575038
-0.0058252721 0.012262129 0.087400108
-0.0059201819 0.0107564 0.087501902
-0.0057092038 0.009380061 0.08781657
-0.0056565291 0.0077674777 0.088150746
-0.0056270109 0.0062176975 0.08890464
-0.0054179864 0.004748271 0.090255125
-0.0051333033 0.0028738992 0.091562684
-0.0053590432 0.0012914533 0.093003194
-0.0055713112 -0.00033047846 0.095094655
-0.0058320149 -0.0018902064 0.098138997
-0.0061685981 -0.0035242752 0.09994425
-0.0062412059 -0.0049883033 0.10120925
-0.0062773374 -0.0066714385 0.10195576
-0.0063036618 -0.008360956 0.10337591
-0.0064539776 -0.010381559 0.10504121
-0.00661976 -0.012382297 0.10726481
-0.0068272535 -0.014613094 0.11047379
-0.0039587826 0.016507582 0.083472792
-0.0041291828 0.01525345 0.085207363
-0.004260878 0.013833238 0.086215438
-0.0043767394 0.012302422 0.087069284
-0.004398574 0.010774267 0.087168917
-0.0044685315 0.0091888076 0.087041192
-0.0048235343 0.0075343767 0.08675808
-0.004810862 0.0059047284 0.086997901
-0.0046510721 0.0042836001 0.087957277
-0.003770295 0.0024434792 0.090274643
-0.0038199915 0.00065325904 0.091409911
-0.0040524528 -0.00096130877 0.09337237
-0.0041372521 -0.0020543281 0.097654142
-0.0043928482 -0.0036247568 0.099453269
-0.0044687922 -0.0050769764 0.10054092
-0.0045283088 -0.0066566394 0.10176723
-0.0045535378 -0.0084039608 0.10321282
-0.004614079 -0.010349865 0.10507265
-0.0047480397 -0.012390464 0.10749475
-0.0048647548 -0.014634669 0.11054186
-0.0021331596 0.016621165 0.083203652
-0.0024789107 0.015383316 0.085220453
-0.0027752247 0.013887665 0.086366417
-0.0028453405 0.01237102 0.086947848
-0.0028683704 0.010829361 0.087266099
-0.0029519019 0.0091564539 0.086927685
-0.0031713403 0.0072930607 0.086477742
-0.0032234882 0.0056507658 0.08638495
-0.0029929246 0.0041229992 0.087393417
-0.0012358081 0.0013796381 0.089509903
-0.0014455011 -7.2569496e-05 0.090832894
-0.0017116645 -0.0015775237 0.092455645
-0.0024271527 -0.0022030802 0.097042563
-0.0026296667 -0.0036192925 0.099383166
-0.0026759665 -0.0051109481 0.10061651
-0.0027293566 -0.0066743203 0.10171615
-0.0027957037 -0.0083328779 0.10333364
-0.0028227239 -0.010254033 0.10499177
-0.0028361752 -0.012409901 0.10745198
-0.0030051616 -0.014746775 0.11020142
-0.00073544645 0.016632545 0.083444597
-0.0010172225 0.015362746 0.085284859
-0.0012074808 0.013906854 0.086721889
-0.0013261642 0.012415225 0.087196416
-0.0013572257 0.010867732 0.087558572
-0.0013594371 0.0092795405 0.087617018
-0.0012780047 0.0071792276 0.086980518
-0.0014036925 0.00564032 0.086699007
0.00035161795 0.0031678801 0.087829476
0.00087985946 0.0012495453 0.089556099
0.00057867745 -7.6233323e-05 0.091245114
0.00032147244 -0.0014355268 0.093124417
-0.00058480936 -0.0023681876 0.096762837
-0.00087492381 -0.0035974707 0.099316375
-0.00092712139 -0.0050830877 0.10077401
-0.00094350113 -0.0066694141 0.10210724
-0.0010343119 -0.0083940836 0.10337473
-0.0010614065 -0.010288518 0.10559853
-0.0010615102 -0.012606753 0.10784861
-0.00097244406 -0.015031703 0.11048029
0.00068227414 0.016640713 0.083563241
0.00043320654 0.015345625 0.085502626
0.00032279746 0.013980899 0.086871275
0.00019154836 0.012404021 0.087737296
0.00016631481 0.010776318 0.088059393
0.00044136764 0.0089036337 0.088432376
0.00085494166 0.0071209694 0.088660423
0.0015747369 0.0050772816 0.088703446
0.0021337689 0.0032361848 0.089906544
0.00211356 0.001680654 0.091095172
0.0021601887 0.00021742328 0.092247126
0.0017336696 -0.0011841666 0.09414606
0.0011679446 -0.0022606304 0.097133479
0.00090233981 -0.003675577 0.099162065
0.00080563246 -0.0051176041 0.10081564
0.00076628735 -0.0067197854 0.10213291
0.00075139946 -0.00851452 0.1032357
0.00076110672 -0.010377838 0.1055838
0.00082770705 -0.01260887 0.10780849
0.00091768808 -0.015051723 0.11031691
0.0020730329 0.016649596 0.083784353
0.0018815571 0.015343681 0.085702203
0.0017804022 0.013972437 0.08721922
0.0016936575 0.012427976 0.08833331
0.0017033519 0.010656519 0.088678546
0.0021654573 0.0087133471 0.089176129
0.0024306058 0.006972485 0.09024689
0.0029443614 0.0052484423 0.090645567
0.0031838804 0.003767274 0.091635579
0.0033287418 0.0022469142 0.092616666
0.0033204592 0.00081127898 0.093707405
0.0030566893 -0.00078696884 0.095311129
0.0027898952 -0.0020724051 0.097949131
0.0027110944 -0.0036233687 0.09942678
0.0026352616 -0.0052103873 0.10061221
0.0024928825 -0.0067491211 0.10218816
0.0025470182 -0.0085743725 0.10320125
0.0026434403 -0.010444576 0.10539844
0.00274075 -0.012655998 0.10768774
0.0028218192 -0.015063469 0.11005835
0.0034841142 0.016633008 0.083853506
0.0033299262 0.015295566 0.085681423
0.0032306951 0.01390516 0.087580442
0.0031670163 0.012379064 0.088421134
0.0033112806 0.010747269 0.088838709
0.0036927578 0.0089264801 0.089489134
0.0038617759 0.0072370698 0.090805011
0.00417475 0.0057749577 0.09181387
0.0043470782 0.0043303859 0.092743572
0.0043615472 0.00285176 0.093751239
0.0044394111 0.00133989 0.094941011
0.0042782057 -0.00027163109 0.096781192
0.0043497681 -0.0019062733 0.098784211
0.0043699039 -0.0034453371 0.10009677
0.0043298144 -0.0050842219 0.10112995
0.004308488 -0.0067405589 0.10234099
0.004332441 -0.0085953778 0.10342763
0.0043950541 -0.010579025 0.10554965
0.0046173337 -0.012811601 0.10778285
0.0048161665 -0.015060399 0.11034845
0.0048652608 0.016593619 0.084215986
0.0047394366 0.015363194 0.085854994
0.0046479064 0.013987036 0.087548616
0.004670497 0.012523328 0.088296318
0.0047528216 0.010990761 0.089206092
0.0051270677 0.0092930452 0.090054018
0.0053333989 0.0077617136 0.091072414
0.0053294467 0.0063320907 0.092640508
0.0055786112 0.0048681679 0.093692785
0.0056076648 0.0033914449 0.094905321
0.0054622569 0.0018769434 0.096637204
0.0055980866 0.00015562389 0.098306821
0.005998685 -0.0016702823 0.09970774
0.0060420407 -0.0032572782 0.10083094
0.0061021723 -0.0050136511 0.1016233
0.006075737 -0.006712549 0.10274239
0.0060906386 -0.0085487389 0.10397492
0.0062008353 -0.010825604 0.10550744
0.0065324066 -0.013154766 0.10784352
0.0061741119 0.016477323 0.08477746
0.0061874222 0.01540121 0.08600798
0.006149889 0.014021792 0.087340909
0.0061654464 0.012562924 0.088010632
0.006198827 0.011136685 0.08928103
0.006594015 0.0097158266 0.090166337
0.0068270084 0.0082150049 0.091460351
0.0068083238 0.0068180785 0.093057836
0.0068742266 0.0053931613 0.094515746
0.0070341762 0.0035858446 0.096203798
0.0070212228 0.0021532536 0.09808047
0.0074454052 0.00027146038 0.099600509
0.0077085766 -0.0015189991 0.10041653
0.007780708 -0.003219276 0.10145779
0.0078395489 -0.0049181371 0.10244959
0.0078641984 -0.0067128611 0.10352358
0.0079366854 -0.0088115915 0.10437809
0.008167111 -0.011204887 0.10598133
0.008455742 -0.013655647 0.10781635
0.0087208953 -0.015749144 0.10941171
0.0075293376 0.017430447 0.083688249
0.0075966163 0.016490991 0.085119384
0.0076164569 0.015420622 0.086311123
0.0076235154 0.014085976 0.087537382
0.0076240161 0.012618648 0.088024065
0.0076519992 0.011120174 0.089387853
0.0078530872 0.0097960076 0.090384432
0.0082375611 0.0085557927 0.09153578
0.0080874348 0.0072916287 0.09400453
0.0084899964 0.0055108722 0.095096602
0.0086373257 0.0037423596 0.096757452
0.0087732305 0.0021557167 0.098963557
0.00905001 0.00041734536 0.10019852
0.0093287425 -0.0013985676 0.10113774
0.0094773933 -0.0030796443 0.10228898
0.0095563163 -0.0049136944 0.10299825
0.0097364479 -0.0068797452 0.10393533
0.0099075709 -0.0090372046 0.10499036
0.01012655 -0.011525185 0.10625369
0.010322939 -0.014143494 0.10745648
0.0089202637 0.017456605 0.083796273
0.0090183384 0.016463887 0.085206033
0.0090468816 0.015357549 0.086393134
0.0090446801 0.01411827 0.08768648
0.0091171499 0.012615649 0.088456434
0.009180206 0.011179968 0.089607129
0.0092560909 0.009784133 0.09048958
0.0094037601 0.0083001719 0.09154451
0.0097991177 0.0073882434 0.094411505
0.010197245 0.0054390265 0.095242952
0.01036858 0.003875545 0.097713617
0.010474039 0.0022736091 0.099396753
0.01066888 0.00054996808 0.10038771
0.010877014 -0.0011175606 0.10168601
0.011164182 -0.0029289197 0.10285601
0.011321885 -0.0048452119 0.10345268
0.01155932 -0.0068553028 0.10465451
0.011785976 -0.0090575983 0.10570941
0.012021857 -0.011826548 0.10680575
0.012174391 -0.014437082 0.10784425
0.010289489 0.017501433 0.083886841
0.010377114 0.016497984 0.084978463
0.01035826 0.015373209 0.086133153
0.010494454 0.014124629 0.087397599
0.010594481 0.012729756 0.08824569
0.010701587 0.011302937 0.089491001
0.010744837 0.0099444949 0.090562137
0.010827166 0.0085731961 0.091639213
0.01146398 0.0071916873 0.094124165
0.011768164 0.0054076366 0.095724754
0.011963363 0.0039648256 0.098014217
0.012217983 0.0023261356 0.099636678
0.012452459 0.00066658747 0.10069052
0.012607613 -0.0010545068 0.10179885
0.012884372 -0.0028411137 0.1029601
0.013124794 -0.0047010168 0.10398052
0.013365687 -0.0067389364 0.10537617
0.013609386 -0.0094293646 0.10666987
0.013917439 -0.012198188 0.10766479
0.01408558 -0.014415375 0.10845132
0.011734728 0.017745899 0.084565844
0.011808502 0.01659787 0.085181131
0.011753526 0.015429691 0.086172827
0.011974121 0.014116491 0.087476723
0.012087902 0.012731789 0.088200699
0.01215655 0.011357576 0.089357491
0.012218641 0.0099926159 0.090387169
0.01228206 0.0085926615 0.091408172
0.01255713 0.0073471644 0.094009228
0.013302367 0.0053224599 0.095897189
0.013645232 0.0038274432 0.097921855
0.013953809 0.0023374272 0.099832341
0.014194084 0.00079084476 0.10100327
0.014431136 -0.00092694644 0.10170372
0.014684609 -0.0027432266 0.10319128
0.014878376 -0.0046297052 0.10424695
0.015177619 -0.0068049112 0.1064036
0.015561622 -0.010000048 0.10784614
0.015931689 -0.012424585 0.10909903
0.013133453 0.017760289 0.08456471
0.013197267 0.016681222 0.085439745
0.013214149 0.015442476 0.086140973
0.013477905 0.014107228 0.087798755
0.013601246 0.012736756 0.088501832
0.013611425 0.011393693 0.089479628
0.013698608 0.01004191 0.090423642
0.013808228 0.0086210545 0.091517955
0.014013532 0.0072631873 0.093374118
0.014827912 0.0051937133 0.095805923
0.015477991 0.0038233029 0.098424938
0.015805413 0.0023243662 0.099945051
0.016089316 0.00069198529 0.10127472
0.016177487 -0.0010093198 0.10192961
0.016454498 -0.0027263365 0.10349967
0.016833332 -0.0047125659 0.10537334
0.017236027 -0.0071534865 0.10763624
0.017652618 -0.009958928 0.10940313
0.014654312 0.017882525 0.084945077
0.014755493 0.016804203 0.08582721
0.014830882 0.015580463 0.086718635
0.014986018 0.01419254 0.087635615
0.015086894 0.012846953 0.088630057
0.015217249 0.011447034 0.089753382
0.015273359 0.010036782 0.090715992
0.015432767 0.0086473721 0.092272664
0.015861394 0.0072175664 0.093911674
0.016328557 0.0053735407 0.095677999
0.017139121 0.0037782247 0.098481223
0.017527143 0.0022596334 0.099930866
0.017850269 0.00062869343 0.10124897
0.018069313 -0.0010206936 0.10231944
0.01836159 -0.0028661503 0.10392345
0.01890928 -0.0049229293 0.1064295
0.0196954 -0.0075769063 0.10970019
0.016229804 0.018155099 0.085735059
0.016320827 0.01699851 0.086518228
0.016379881 0.015678435 0.087255078
0.01657408 0.014342289 0.088082905
0.016669522 0.012924842 0.088848101
0.016850076 0.011531864 0.090249367
0.016829442 0.010066456 0.091105491
0.017140155 0.0085960182 0.092431367
0.017693251 0.0071113132 0.094551777
0.017947023 0.0054724589 0.095718505
0.018760965 0.0038204281 0.098277104
0.019225109 0.0022301472 0.099676661
0.019645354 0.00068595406 0.10125639
0.020117999 -0.0011699053 0.10287883
0.020543043 -0.0031532033 0.10483858
0.021185953 -0.0053081809 0.10768046
0.022021657 -0.0075257926 0.11068645
0.01780371 0.018334018 0.086457924
0.017905128 0.017114007 0.08714191
0.01794408 0.015756883 0.087650233
0.018163515 0.014440743 0.088643326
0.01832254 0.012995243 0.089426946
0.018651237 0.011520674 0.090412875
0.018504062 0.010006012 0.091159345
0.018660577 0.008501664 0.092269218
0.019429514 0.0070359339 0.094999191
0.019762375 0.0054831129 0.096262499
0.020735492 0.0038313286 0.098765979
0.02115441 0.0022310249 0.10020152
0.021634354 0.00052134294 0.10168087
0.02218202 -0.0015693307 0.10347145
0.023118138 -0.0037043031 0.10605937
0.023529129 -0.00552502 0.10896234
0.019238875 0.018368325 0.086462377
0.019501925 0.017137617 0.087444894
0.019638186 0.015807048 0.088127611
0.019841497 0.014449217 0.088889718
0.020018312 0.012908648 0.089429622
0.020267391 0.01137318 0.09029341
0.020181604 0.009882171 0.091180582
0.020315169 0.0084382983 0.092339277
0.021103405 0.0069631063 0.095130209
0.021496325 0.0054989768 0.09645548
0.02255971 0.0037976873 0.098949277
0.022999979 0.0021673084 0.10047908
0.023620632 0.00029222277 0.10219567
0.024425571 -0.0018088692 0.10423545
0.025229475 -0.0036778634 0.10697957
0.025980701 -0.0057055376 0.11030076
0.020682302 0.018298404 0.086332173
0.021060611 0.017091172 0.08748621
0.021395048 0.01570373 0.088236906
0.021529972 0.014341337 0.089027775
0.021590436 0.01287279 0.089371715
0.02179187 0.011353084 0.090065743
0.021761698 0.0097862398 0.090937481
0.022087343 0.0083493091 0.092715908
0.022622328 0.0068510851 0.094656793
0.023194656 0.0053129156 0.095982861
0.024279334 0.0037448234 0.098761608
0.025246211 0.002023059 0.10166289
0.025696945 9.382186e-05 0.10284572
0.026510293 -0.0018021853 0.10491872
0.0274593 -0.0036794508 0.10855484
0.022325443 0.018257033 0.086629971
0.022598578 0.016983464 0.087386318
0.022940167 0.015651265 0.088215409
0.023096605 0.014272716 0.088847798
0.02314403 0.012822326 0.089226155
0.023400837 0.011379699 0.090134936
0.02416336 0.0099482044 0.091931256
0.024277597 0.0084197024 0.093347097
0.024591324 0.0067037757 0.094563654
0.025722253 0.005246942 0.097177904
0.026595064 0.0037545292 0.099674052
0.027726715 0.0017949825 0.10277789
0.028191925 9.0778269e-05 0.10432778
0.028710334 -0.0016780805 0.10630646
0.029712399 -0.0037433974 0.10994052
0.023892396 0.018184037 0.086673473
0.024226882 0.016958045 0.087581902
0.024494721 0.015595867 0.088314541
0.024624943 0.014212736 0.088751498
0.02473459 0.01280009 0.089282683
0.02512937 0.01145161 0.090282623
0.025747016 0.010123309 0.091576854
0.025988663 0.0086666864 0.092519692
0.026403754 0.0070402551 0.094241371
0.02762466 0.0053793155 0.097396766
0.028802762 0.0036891253 0.10087612
0.030192889 0.0018749416 0.10395465
0.030587074 0.00016885609 0.10595332
0.030996602 -0.0015402476 0.1078858
0.031864486 -0.0035713731 0.11053898
0.025355992 0.018154642 0.086435964
0.025761279 0.016898361 0.08753901
0.026037653 0.015526408 0.088331708
0.026169716 0.014179392 0.088741706
0.026287631 0.012744806 0.089232126
0.026706461 0.011437836 0.089766668
0.027017837 0.010117063 0.090597403
0.027359215 0.0086848444 0.09171324
0.027744114 0.0071181955 0.09305979
0.029178221 0.0054986254 0.096829226
0.031178592 0.0037455934 0.10223284
0.032200717 0.0020343021 0.105167
0.03257665 0.00028819856 0.10667555
0.033172951 -0.001324041 0.10891972
0.026894217 0.018085291 0.086599098
0.027253588 0.016886602 0.087553289
0.027584655 0.015535169 0.088168587
0.027859568 0.014218401 0.088906372
0.028101287 0.012820853 0.089125938
0.028263682 0.01144144 0.08958877
0.02844966 0.010086104 0.090274395
0.028854708 0.0086876818 0.091602181
0.030031388 0.007301368 0.094803598
0.030865568 0.0055995422 0.097050889
0.033564082 0.0037353713 0.10365995
0.034300393 0.0022196995 0.1064931
0.034826846 0.00052551793 0.10830398
0.035489058 -0.0012767007 0.11044634
0.028048283 0.017970287 0.085711193
0.028731919 0.016916421 0.087503205
0.029116986 0.015622442 0.088243826
0.0293789 0.01425494 0.088602112
0.029549944 0.012823502 0.088884728
0.029703089 0.011426199 0.089412354
0.029831078 0.010054782 0.089989698
0.030400405 0.0087094238 0.091765407
0.03156689 0.0073459392 0.094685332
0.032226179 0.0057392477 0.096303155
0.036224148 0.0039285712 0.10652656
0.036856564 0.0021106876 0.10829106
0.03721753 0.00022144047 0.10946703
0.038181731 -0.0020503063 0.11053413
0.028972357 0.017753068 0.084199894
0.029893355 0.016852088 0.086550492
0.03040656 0.015554369 0.087645666
0.030787617 0.01427702 0.088418637
0.030983089 0.012831344 0.088727588
0.031169627 0.011455388 0.089359835
0.031535728 0.010102459 0.09053221
0.031851035 0.0087380378 0.091432468
0.032751814 0.0072644177 0.093610754
0.034856644 0.0055023929 0.098510926
0.038792318 0.0038555493 0.1076613
0.039272604 0.0019608617 0.10911553
0.039914454 -0.0002315391 0.10999892
0.040335796 -0.0020326653 0.11073537
0.030820552 0.016627259 0.085036675
0.031560906 0.015439776 0.0865534
0.032107367 0.014166171 0.087551736
0.03235901 0.012758032 0.088348683
0.032580184 0.011345079 0.08909756
0.032998905 0.0099300081 0.090342411
0.033439238 0.0085253194 0.091559927
0.03432524 0.0071258333 0.093793969
0.038950155 0.0053354174 0.10320636
0.040704357 0.0038023901 0.10779624
0.041438962 0.0017825183 0.10941564
0.041948476 -0.00034830918 0.1100307
0.042728644 -0.0021231027 0.11074991
0.032589575 0.015408866 0.084817897
0.033188256 0.014082319 0.086039558
0.033784205 0.01272266 0.087995671
0.034127853 0.011182383 0.088928116
0.034450734 0.0097614222 0.089984883
0.03494079 0.008441038 0.091297481
0.036885216 0.0068876452 0.095938053
0.041037972 0.0053281566 0.10409297
0.04241768 0.003905495 0.10759394
0.043164743 0.0019463053 0.10881206
0.043793824 -0.00022502985 0.10959376
0.044157359 -0.0021700707 0.10983976
