ply
format ascii 1.0
comment Automatically gnerated by model-converter
element vertex 764
property float x
property float y
property float z
element face 0
property list uchar int vertex_indices
end_header
-0.029392878 0.018201204 0.088302392
-0.029892692 0.016866904 0.089907052
-0.030001687 0.015306641 0.090419439
-0.030132955 0.01368064 0.090792043
-0.030421669 0.012077425 0.091579753
-0.030924487 0.010758607 0.092698728
-0.031318788 0.0095014777 0.093739261
-0.031714009 0.0082990071 0.094642649
-0.032583493 0.0072833845 0.096371564
-0.033632828 0.0065047668 0.099131184
-0.034862348 0.0048887792 0.10206673
-0.035327711 0.0030652619 0.10304674
-0.035454723 0.001249534 0.10314497
-0.035488821 -0.00061344023 0.10336728
-0.03568139 -0.0026730185 0.10394132
-0.036159528 -0.0049475927 0.10523509
-0.036973552 -0.0074193253 0.1078514
-0.028419459 0.018400456 0.089513091
-0.028692906 0.01707115 0.090758833
-0.028779609 0.015465971 0.091107515
-0.028906862 0.013820514 0.091435075
-0.029264646 0.012259747 0.092297392
-0.02971026 0.010898529 0.093338561
-0.030206754 0.0097381519 0.094704069
-0.030803824 0.0085825364 0.095882769
-0.031494539 0.0075432487 0.097614837
-0.032463543 0.0065737152 0.10010468
-0.033472505 0.0047459916 0.10263455
-0.033916483 0.0029301612 0.10379036
-0.034069131 0.0011526999 0.10398275
-0.034198134 -0.00079612282 0.10446767
-0.034475513 -0.0029382804 0.10524632
-0.034883201 -0.0052505134 0.10643682
-0.035444869 -0.0075539464 0.10801926
-0.026664307 0.018368952 0.088433231
-0.027146282 0.01718118 0.090344394
-0.027503537 0.015499145 0.091622539
-0.027627188 0.013878171 0.092117844
-0.027969671 0.012484724 0.093019267
-0.028298687 0.011058908 0.093918232
-0.028732709 0.009740497 0.095138935
-0.029341619 0.0086495305 0.096383999
-0.030166256 0.0076837315 0.098689691
-0.031015135 0.0065168208 0.10099757
-0.031837014 0.0046721332 0.10300714
-0.032410445 0.0027280087 0.1045085
-0.032598936 0.00090858306 0.10528925
-0.0327784 -0.0010551353 0.10571803
-0.033131207 -0.003029881 0.10658827
-0.033497909 -0.0054255634 0.10775738
-0.033789092 -0.0075849742 0.10877932
-0.025011926 0.018386518 0.087871748
-0.025583599 0.017269709 0.089974749
-0.026217891 0.015721999 0.092163128
-0.026351337 0.014042604 0.092920844
-0.026880604 0.012804084 0.094374659
-0.027127678 0.011300327 0.095048947
-0.027431888 0.0098535689 0.095901082
-0.027898637 0.0086687086 0.097127845
-0.028645296 0.0076345551 0.099205966
-0.029448465 0.0064453605 0.10189939
-0.030182473 0.0046832752 0.10343457
-0.030679976 0.0027484183 0.10478592
-0.031057018 0.00067926272 0.10617973
-0.03130184 -0.0012777149 0.10699982
-0.031564298 -0.0030961805 0.1076355
-0.031980884 -0.0050549622 0.10861399
-0.032223943 -0.0073071223 0.10970397
-0.023490229 0.018410233 0.087812675
-0.024118742 0.017355229 0.090122613
-0.02482316 0.015954385 0.092273089
-0.024871278 0.014434662 0.093327659
-0.025315133 0.012835625 0.094559473
-0.025543053 0.01132569 0.095338083
-0.026055183 0.0098958276 0.096721592
-0.026508017 0.0087956532 0.09818313
-0.027062209 0.0074850408 0.099513819
-0.027682814 0.0062156278 0.10195159
-0.028322806 0.004638741 0.1031758
-0.028687777 0.0026702918 0.10458053
-0.029439796 0.00067617042 0.10649966
-0.029665652 -0.0013723502 0.10770034
-0.029972325 -0.0032458774 0.10853927
-0.030269915 -0.0050732166 0.10938647
-0.030435024 -0.0069864222 0.11024895
-0.021888096 0.018364241 0.087448738
-0.022718454 0.017290788 0.09027263
-0.023177214 0.016022015 0.092291469
-0.023310982 0.014644934 0.093184422
-0.023599334 0.012952845 0.094428264
-0.023903292 0.011299173 0.095524507
-0.024553947 0.0099371988 0.097256387
-0.025009001 0.0085621861 0.098382764
-0.025387551 0.0072790031 0.099714448
-0.025866487 0.0059240044 0.10135382
-0.026204443 0.0042744983 0.10262143
-0.026841715 0.0025196029 0.10432765
-0.027471036 0.00045833143 0.10630639
-0.027881434 -0.0013971238 0.10787708
-0.028102504 -0.0033587612 0.1087237
-0.028227146 -0.0052149439 0.10953367
-0.028407723 -0.0070801447 0.11036664
-0.020214741 0.018208981 0.08700902
-0.021109853 0.017292773 0.090051919
-0.021493513 0.016095634 0.092078462
-0.021741107 0.014716144 0.093360347
-0.022007539 0.013243312 0.094528759
-0.022366869 0.011433436 0.095817134
-0.02302872 0.0099532344 0.097560443
-0.023319536 0.0085624671 0.098591656
-0.02359859 0.0071569545 0.099683101
-0.023913774 0.0057560012 0.10097469
-0.024212373 0.004136913 0.10207086
-0.0247164 0.0023667864 0.10396502
-0.025509751 0.00042993902 0.10609791
-0.026037647 -0.0014530512 0.10781091
-0.026263647 -0.0033013488 0.10884646
-0.026274719 -0.0051798457 0.10971853
-0.026679072 -0.0068783987 0.11020705
-0.018844534 0.01803166 0.087208105
-0.019474206 0.017269805 0.089750501
-0.01988082 0.016111896 0.091996312
-0.020103432 0.014735403 0.093253895
-0.020432022 0.013312192 0.094775547
-0.02069272 0.011611533 0.095820017
-0.021256025 0.0099869895 0.097453868
-0.021568541 0.0084926812 0.098622178
-0.021840107 0.0069361016 0.099551151
-0.02215099 0.0055865475 0.10077389
-0.022370959 0.0039384952 0.10161578
-0.022767589 0.0023192878 0.10337279
-0.023337869 0.00047497163 0.1054384
-0.02403704 -0.0013931159 0.10732396
-0.024331869 -0.0031867987 0.10844374
-0.024419998 -0.0051121897 0.10934484
-0.024359547 -0.0069544132 0.11009826
-0.017284078 0.018047103 0.086943817
-0.017708792 0.017129183 0.089246993
-0.018117488 0.016114426 0.091528592
-0.018426717 0.01476594 0.093264453
-0.018775436 0.013308204 0.094828238
-0.018962491 0.011550894 0.095704101
-0.019399273 0.0099120839 0.097090612
-0.019849734 0.0085179951 0.098781938
-0.02011135 0.0070000926 0.099725172
-0.020321245 0.0054362034 0.10049144
-0.020541062 0.0038767866 0.1013747
-0.020785849 0.0023073437 0.10286612
-0.021076529 0.00059565466 0.10432311
-0.021598588 -0.001371887 0.10585083
-0.022094831 -0.0032410427 0.10737974
-0.02245751 -0.004996844 0.10828204
-0.022379465 -0.0068610531 0.10909074
-0.022245827 -0.0088859331 0.1098198
-0.015729795 0.017933442 0.08613375
-0.016096108 0.017019595 0.088569216
-0.016308701 0.016061799 0.090663865
-0.016679415 0.014729106 0.092753664
-0.017013761 0.01321505 0.094571473
-0.017157501 0.011556948 0.095710712
-0.017621982 0.0098489023 0.096930112
-0.018119894 0.0085526332 0.098736358
-0.018355576 0.0070075854 0.099647952
-0.018466091 0.0053935154 0.10025818
-0.018707346 0.0038602171 0.10114653
-0.018837355 0.0023081454 0.10219561
-0.019102474 0.0005511374 0.10355772
-0.019429958 -0.0013207753 0.10456003
-0.019685711 -0.0032384584 0.10556283
-0.020022471 -0.005139415 0.10649467
-0.020150574 -0.0071046425 0.10734537
-0.020352015 -0.0089852326 0.10857842
-0.020630726 -0.010942359 0.11036103
-0.01415778 0.017939373 0.0854792
-0.014513645 0.016917945 0.087798509
-0.014683583 0.015768226 0.089828484
-0.014900432 0.014620907 0.092339575
-0.015108232 0.013070532 0.09414913
-0.015181213 0.011466988 0.095548938
-0.015766651 0.009849585 0.096943711
-0.016328856 0.0084586466 0.0986325
-0.016523674 0.0069822067 0.099593625
-0.016664451 0.0054446532 0.10015713
-0.016795681 0.0038932385 0.10071726
-0.016937865 0.0022628799 0.10153106
-0.017193682 0.0005325768 0.10264554
-0.017286365 -0.0012856263 0.10307324
-0.0174107 -0.003150877 0.10366056
-0.017465853 -0.0049154302 0.10452579
-0.017828808 -0.0070123483 0.10583609
-0.017988842 -0.0089514755 0.10709905
-0.018312762 -0.010960356 0.10910851
-0.01842472 -0.012522863 0.11082773
-0.012641126 0.017974485 0.085047185
-0.012996434 0.0168372 0.087484626
-0.013072171 0.015656644 0.089176903
-0.013112904 0.014518261 0.091766263
-0.013250415 0.013055095 0.093542948
-0.013150045 0.011565947 0.095070076
-0.012864006 0.010118059 0.096567755
-0.013392437 0.0085916535 0.098198429
-0.014630847 0.0070486763 0.099245034
-0.014564979 0.0056202525 0.099837413
-0.014831489 0.0039452263 0.10045651
-0.014945765 0.002184255 0.10078646
-0.015122035 0.00047526448 0.10141483
-0.01520315 -0.0012288912 0.10206119
-0.015228858 -0.0030515313 0.10237919
-0.015345642 -0.0048396589 0.10319363
-0.015623275 -0.0068081602 0.1044608
-0.015818294 -0.0087298261 0.1057983
-0.016132873 -0.010705385 0.10777757
-0.016514293 -0.012769338 0.11047975
-0.01120204 0.017901711 0.084669049
-0.011392106 0.016752544 0.086612548
-0.011500856 0.0155137 0.08860712
-0.011413419 0.014295345 0.090583188
-0.011340328 0.013127693 0.092832176
-0.011108878 0.011671958 0.093778499
-0.010707238 0.010297365 0.094963809
-0.010217056 0.0089683145 0.096341945
-0.0097438333 0.0076136665 0.097762617
-0.012494414 0.0055853237 0.098955026
-0.012962455 0.0038259783 0.099834
-0.013132809 0.002129795 0.10038827
-0.013215868 0.00038000702 0.10067974
-0.013290961 -0.0013811275 0.10101173
-0.013464006 -0.003140384 0.10159061
-0.013496832 -0.0048727539 0.10251439
-0.013604193 -0.0067165165 0.10340679
-0.013780026 -0.0085298372 0.10473954
-0.014093945 -0.010550106 0.10675585
-0.014430352 -0.012579853 0.10939586
-0.0097859437 0.017797352 0.084116149
-0.00991559 0.016702406 0.086241853
-0.010081308 0.015366461 0.087958413
-0.010016193 0.014055289 0.089663617
-0.0096270271 0.013005757 0.091417296
-0.0093192359 0.011733324 0.092633476
-0.0088506965 0.010385568 0.093530643
-0.0083637104 0.0089798312 0.094392374
-0.0076667866 0.0076847336 0.095417336
-0.0075842588 0.0061311857 0.096724783
-0.00919702 0.0041928124 0.098882881
-0.011030504 0.0021506985 0.099552326
-0.011375168 0.00034494109 0.10005218
-0.011561135 -0.0014196415 0.10024515
-0.011637439 -0.0032029384 0.10090351
-0.011708525 -0.0049501914 0.10215771
-0.011774653 -0.0066296973 0.10312184
-0.01179058 -0.0084233809 0.10401843
-0.012013581 -0.010334718 0.10598669
-0.012347161 -0.012486543 0.1084325
-0.0083340261 0.017773245 0.08393531
-0.0084720813 0.016649545 0.085725519
-0.0087205721 0.015304484 0.087136447
-0.008604421 0.013971408 0.088759596
-0.008182381 0.0128658 0.090260985
-0.0078412906 0.011545229 0.090766214
-0.0074236635 0.010232603 0.091393935
-0.0071950295 0.0087997926 0.092023651
-0.00684283 0.0072923581 0.093053616
-0.0067611262 0.0057888639 0.09410807
-0.0071343781 0.0040419182 0.095787754
-0.0078416068 0.0022284394 0.097561715
-0.008718503 0.00043710892 0.099008478
-0.0093609197 -0.0013829272 0.099523812
-0.0098359812 -0.0032449191 0.10040245
-0.0098393088 -0.0048126209 0.1017438
-0.0098593418 -0.0064943035 0.10260765
-0.0099325003 -0.0082744471 0.10386332
-0.010182413 -0.010259031 0.10563943
-0.010347147 -0.012386514 0.10764365
-0.010597408 -0.01439057 0.1106021
-0.0069495922 0.017745266 0.08351209
-0.0069867077 0.016633867 0.084965485
-0.0071828688 0.015287931 0.086413846
-0.0072517912 0.013845451 0.087584274
-0.0071104998 0.012562389 0.088692407
-0.0065413595 0.011503814 0.089663712
-0.0064647858 0.0097840518 0.089149398
-0.0062580973 0.0082221289 0.089822002
-0.0060701603 0.0068235571 0.091052051
-0.0059771581 0.0052907074 0.092171075
-0.0060046304 0.003616247 0.093507297
-0.0063624942 0.0019029227 0.095151271
-0.0070913231 9.3011451e-05 0.097107656
-0.0074972678 -0.0016976187 0.098732494
-0.0078650855 -0.0033152906 0.10026358
-0.007940581 -0.0048227377 0.10149047
-0.0080477176 -0.0064944991 0.10236653
-0.0081168183 -0.0081673339 0.10367603
-0.0083033573 -0.010363727 0.10530472
-0.0084834816 -0.012423979 0.10723751
-0.0086979115 -0.014633028 0.11051835
-0.0055001898 0.017780267 0.082832041
-0.0055244483 0.016609821 0.084231081
-0.0056765958 0.015259688 0.085537893
-0.0058198385 0.013852672 0.086477031
-0.0059568317 0.012376112 0.087245027
-0.0060704349 0.010935572 0.087201335
-0.0058795821 0.0095452784 0.087367671
-0.0058183111 0.0079064537 0.087660695
-0.0057314441 0.0062859692 0.088488301
-0.0054457529 0.0047938206 0.089954823
-0.0050506646 0.0029367107 0.091433808
-0.0052309564 0.0013653889 0.09296029
-0.0054327436 -0.00030424994 0.095053087
-0.0057511185 -0.001886834 0.098060509
-0.0061186737 -0.0035221742 0.099868494
-0.0062168217 -0.0049690632 0.10116911
-0.0062883597 -0.0066392828 0.10205798
-0.006294135 -0.0082610675 0.10350566
-0.0064387315 -0.010373726 0.10509342
-0.0065742276 -0.012394198 0.10723031
-0.0067728211 -0.014672102 0.11045239
-0.0040381511 0.016607814 0.083474355
-0.0042669624 0.015277875 0.085057966
-0.004378326 0.014039049 0.086212901
-0.0045162327 0.012513653 0.086967916
-0.0045273812 0.010998892 0.086906642
-0.0046106519 0.0094010855 0.086573141
-0.0050504712 0.0077107758 0.086142262
-0.0049877103 0.0060420232 0.08643946
-0.0047731797 0.0043929073 0.08740864
-0.0037404733 0.0024599935 0.090136699
-0.0037821316 0.00070211052 0.091344081
-0.0039461955 -0.00088461302 0.093338264
-0.0040831699 -0.0021325106 0.097578441
-0.0043801791 -0.0036959162 0.099367521
-0.0044731886 -0.0051165021 0.10049917
-0.00453266 -0.006641961 0.1017975
-0.0045542211 -0.008344012 0.10329674
-0.0045986279 -0.010348253 0.10510098
-0.0047135038 -0.01242726 0.10748981
-0.004808698 -0.014711334 0.11051126
-0.0021901449 0.01677561 0.083149577
-0.0025612236 0.015617959 0.085258993
-0.0028996334 0.014162427 0.086509938
-0.0029881754 0.012632971 0.087008598
-0.0030096879 0.011076698 0.08719631
-0.0030662851 0.0094082805 0.086622969
-0.0033118404 0.0074868308 0.08589952
-0.0033462422 0.0058342982 0.085757678
-0.0031017764 0.0042675577 0.086756401
-0.0013456426 0.0014769988 0.08950802
-0.0015465602 2.8024832e-05 0.0908317
-0.0017981701 -0.0014748122 0.092457178
-0.0023937104 -0.0022695963 0.096981396
-0.0026285155 -0.0036864665 0.09932141
-0.0026769824 -0.0051676951 0.10056978
-0.0027358218 -0.0067062409 0.10170178
-0.0027991487 -0.0083244657 0.10335966
-0.0028116441 -0.010265133 0.10499886
-0.0028063664 -0.012448669 0.10743397
-0.0029572992 -0.01482201 0.11015708
-0.00079011973 0.01675012 0.083386264
-0.0011052533 0.01553934 0.085309051
-0.0013394961 0.014136909 0.086888633
-0.0014842094 0.012662247 0.087345471
-0.0015244869 0.011106965 0.087614762
-0.0014994274 0.0095216032 0.087553767
-0.0013771941 0.0073739283 0.086603939
-0.0014941428 0.0058344863 0.086231249
0.00030348502 0.0032515469 0.087678018
0.00074735952 0.0013357702 0.089488966
0.00042798499 1.0816449e-05 0.091260269
0.00019972008 -0.0013401827 0.093113775
-0.00066124293 -0.0023373003 0.096768258
-0.00088953368 -0.0036640661 0.099259943
-0.00093506886 -0.0051544909 0.1007109
-0.0009451188 -0.0067330701 0.10205437
-0.0010350074 -0.0084348262 0.10334802
-0.0010475911 -0.01032533 0.10557458
-0.001035646 -0.012658933 0.10780998
-0.00093241742 -0.015093734 0.11043285
0.00063140568 0.016728463 0.0835182
0.0003426757 0.015492427 0.085537002
0.00020931396 0.014145036 0.086973287
2.0589646e-05 0.012612388 0.087882566
-7.3458709e-06 0.010976553 0.088169838
0.00039054256 0.0090206926 0.088387085
0.00085150064 0.0072045588 0.088554993
0.0015809726 0.0051410844 0.088645803
0.0020857972 0.0032659304 0.089865906
0.0020191182 0.001737876 0.091030183
0.0020557313 0.00028901075 0.092209332
0.0016240641 -0.0011203187 0.09408917
0.0010644988 -0.0022260043 0.097114357
0.00084424776 -0.0037152118 0.099134144
0.00078784952 -0.0051774178 0.10075208
0.00076219242 -0.0067832232 0.10206954
0.00074769555 -0.0085748847 0.10318168
0.00077354562 -0.01043157 0.10553489
0.00085197913 -0.012671957 0.10775001
0.00095349331 -0.015118155 0.11025478
0.0020205548 0.01670775 0.083731865
0.0017915095 0.015479019 0.085739093
0.0016632511 0.014126231 0.087326554
0.001549942 0.01258798 0.088437301
0.0015653939 0.010794759 0.088816643
0.0020351888 0.008814925 0.089285466
0.0023216819 0.0070412329 0.090219587
0.0028597107 0.0052955053 0.090613154
0.0030835634 0.0038146257 0.091599124
0.0032493992 0.0022722237 0.092562206
0.0032473707 0.00082498725 0.093695203
0.0029599475 -0.00077011574 0.095285033
0.0027113453 -0.0020820894 0.097976602
0.0026314398 -0.003641263 0.099410449
0.0025952635 -0.0052550859 0.10056689
0.0024913599 -0.0068371619 0.10209597
0.0025411251 -0.0086564624 0.10311866
0.0026523977 -0.010515303 0.10532449
0.0027628606 -0.012731526 0.10760755
0.002853397 -0.015140095 0.1099768
0.0034303263 0.01666477 0.0838137
0.0032284446 0.01541411 0.085725665
0.0030861902 0.014038333 0.087703601
0.0030028699 0.012515408 0.088551675
0.0031051826 0.010864014 0.08906802
0.0034868875 0.0090432223 0.089687804
0.0036569397 0.0073270908 0.090938722
0.0039809362 0.0058283633 0.091928179
0.0041600911 0.0044050116 0.092777334
0.004261172 0.0028624852 0.093765659
0.0043531681 0.0013641377 0.09492747
0.0041781597 -0.00027740369 0.096782468
0.0042786291 -0.0019150568 0.098787554
0.0043099299 -0.0035221823 0.10003188
0.0042828068 -0.005205763 0.1010314
0.0042999921 -0.0068653836 0.1022082
0.0043291515 -0.0086997652 0.10331549
0.0043984242 -0.010680408 0.10544188
0.0046329382 -0.012903758 0.10767999
0.0048472523 -0.015150921 0.11024511
0.0048057401 0.016619443 0.084201229
0.0046077687 0.015492491 0.085998582
0.0044965882 0.014106548 0.087667577
0.0044960654 0.012631738 0.088417853
0.0045511943 0.011062765 0.08937486
0.0049051386 0.0093864814 0.090267117
0.0050736883 0.0078327919 0.09131598
0.0051408708 0.0064141173 0.092814403
0.0054082304 0.0048750139 0.093827103
0.0054803767 0.0034145733 0.094954364
0.0053390335 0.0018801054 0.096594872
0.0055176585 0.0001140759 0.098351675
0.0059597225 -0.001760679 0.099673197
0.0060069091 -0.0033760686 0.10069516
0.0061010013 -0.0051598515 0.10150472
0.0060708028 -0.0068842643 0.10257669
0.0060958489 -0.0086833791 0.10383105
0.0061975267 -0.010956983 0.10537271
0.0065381469 -0.013272064 0.10771553
0.0060616308 0.016499616 0.084811658
0.0060659642 0.015514127 0.086166858
0.0059967864 0.014120858 0.087475126
0.0059921806 0.012653244 0.088148999
0.0060040865 0.011181025 0.089370968
0.0063869275 0.0097601218 0.090283819
0.0065934793 0.0082914271 0.091671387
0.0065758602 0.006880534 0.09323807
0.0067033244 0.0054030606 0.094633033
0.0069240779 0.0035330233 0.096254907
0.0069286808 0.0020774926 0.098088543
0.0074050908 0.0001864089 0.099607972
0.0076899412 -0.001636869 0.10034668
0.0077684754 -0.0033749047 0.10130096
0.0078522923 -0.0051070823 0.10229721
0.0078444574 -0.0069051695 0.1033183
0.0079424158 -0.0089725784 0.10421452
0.008164078 -0.011362809 0.10582075
0.0084457115 -0.013817469 0.10764043
0.0087086962 -0.015913031 0.10922012
0.0074378289 0.01733079 0.083543926
0.0075105121 0.016518763 0.085058197
0.0074953113 0.015507788 0.086425923
0.007469129 0.014150512 0.087676545
0.0074297823 0.012667839 0.088154863
0.0074821668 0.011082287 0.0894009
0.0076815861 0.0097235894 0.090357867
0.0080201685 0.0085668915 0.091587576
0.0078959881 0.0073298897 0.094143433
0.0083640711 0.005452168 0.095140949
0.0085476476 0.0036296039 0.096753426
0.0086973772 0.0020327893 0.098961957
0.0090098713 0.00027800823 0.1001934
0.0093079091 -0.0015496361 0.1010596
0.0094726085 -0.0032735352 0.10211155
0.0095493471 -0.0051085367 0.10282606
0.0097218811 -0.0071009485 0.10384589
0.0098968425 -0.0092311753 0.10481388
0.010115947 -0.01172399 0.1060491
0.010300566 -0.014353156 0.1072255
0.0088309648 0.017345948 0.083626767
0.0089176697 0.016448128 0.085130908
0.0089302628 0.015393926 0.086437615
0.008899599 0.014086867 0.087705165
0.0089678935 0.01256106 0.08846963
0.0090369129 0.011054526 0.089527058
0.0091050258 0.0096152298 0.090322167
0.0092635797 0.0081286977 0.091356948
0.0096474454 0.0073334899 0.094388812
0.010097405 0.0053347135 0.095238949
0.010285106 0.0037392653 0.097691226
0.010402644 0.002133372 0.099412469
0.010604905 0.00042252625 0.10035028
0.010825594 -0.0012712116 0.10161121
0.011142938 -0.0031207612 0.1027263
0.011306985 -0.0050514087 0.10331826
0.011541971 -0.0070687872 0.10453307
0.011763595 -0.009272798 0.10552962
0.012001342 -0.012040993 0.10659335
0.01214548 -0.014656986 0.10761612
0.010200971 0.017397193 0.083714602
0.010277718 0.01651006 0.084903208
0.010227948 0.015408341 0.086193376
0.010356681 0.014065859 0.087379215
0.010465242 0.012653936 0.088195846
0.010558912 0.011174549 0.089383443
0.010612797 0.0097605304 0.090383068
0.010698459 0.0083559696 0.091395194
0.011324471 0.0069891866 0.093937551
0.011660182 0.0052584202 0.09570829
0.011880978 0.0038181071 0.097993751
0.012144033 0.0021967671 0.099645075
0.012417625 0.00053046347 0.10062647
0.012587846 -0.001213864 0.1017448
0.012862286 -0.0030077473 0.10287488
0.01311982 -0.0048864102 0.10387742
0.013372788 -0.0069579142 0.10523125
0.013571322 -0.0096439133 0.10648836
0.013875015 -0.012410996 0.10748122
0.014044967 -0.014631846 0.10825515
0.011639114 0.017713071 0.084380905
0.01170053 0.016641056 0.085141241
0.011620713 0.015480755 0.086285526
0.011839008 0.014087316 0.087474938
0.011980288 0.01266637 0.088165832
0.012018235 0.011252914 0.089235805
0.012098621 0.0098662324 0.090223504
0.012170516 0.0084183738 0.091229473
0.012359968 0.0071701224 0.093739634
0.013177155 0.0051841092 0.095867274
0.013555357 0.0036996387 0.097903718
0.013880963 0.0022025233 0.099799688
0.014148722 0.00065487288 0.10093044
0.014398998 -0.0010553349 0.10166206
0.014661797 -0.002882516 0.10313465
0.014870464 -0.0048019282 0.10416143
0.015172943 -0.0070300807 0.10621709
0.015491174 -0.010226169 0.10772508
0.015863811 -0.012626928 0.10896061
0.01302892 0.017758878 0.084444029
0.01307283 0.016778596 0.085489683
0.013097795 0.015537255 0.086316106
0.013335682 0.014084889 0.087803597
0.013467545 0.012684788 0.088446838
0.01348811 0.011329164 0.089409044
0.013572873 0.0099479327 0.090319904
0.013691732 0.0085238181 0.091399618
0.013847574 0.0071337801 0.093259479
0.01469601 0.0050826077 0.095797996
0.015363783 0.0036913395 0.098377943
0.015721388 0.0021836476 0.099866534
0.016047149 0.00054363757 0.10123978
0.016128761 -0.0010989827 0.10188856
0.016437671 -0.0028613813 0.1034433
0.016822397 -0.004886982 0.10523913
0.017207753 -0.007324608 0.10754896
0.017585282 -0.010131966 0.10932746
0.014547754 0.017910028 0.08487572
0.014634737 0.016905321 0.085884064
0.014687784 0.015687657 0.086809523
0.014856252 0.014211161 0.087663044
0.01496492 0.012855184 0.08866782
0.015068157 0.011433282 0.089741146
0.015128954 0.0099829914 0.090691852
0.015247559 0.0085985002 0.092231185
0.015659063 0.0072264395 0.09395876
0.016165173 0.0053337879 0.095762936
0.017013216 0.0036988967 0.098500979
0.017428295 0.0021613353 0.099916796
0.017776617 0.00055231719 0.10125541
0.0180202 -0.0010849486 0.10233568
0.018326898 -0.0029498299 0.10388993
0.018882927 -0.0050773754 0.10634924
0.019612515 -0.0076840248 0.109666
0.016143233 0.018203476 0.085685437
0.016220068 0.01707684 0.086545599
0.016262399 0.0157472 0.08732759
0.016433276 0.014412814 0.088182425
0.016543972 0.012994394 0.088966427
0.016681745 0.01156255 0.09031827
0.016667892 0.010058288 0.091171484
0.016961228 0.0086323302 0.092545519
0.017481759 0.007155035 0.094688396
0.017767983 0.0054931476 0.095869748
0.018621909 0.0038181563 0.098397657
0.019134231 0.0022228336 0.099738673
0.019576316 0.00066085839 0.1013252
0.020049081 -0.0011671141 0.10295489
0.02047507 -0.0031663143 0.10486784
0.021112505 -0.0053887774 0.10771053
0.021908825 -0.0075645215 0.11071634
0.017737073 0.018381783 0.086422863
0.017823893 0.01718417 0.08719112
0.017840007 0.015828929 0.087741956
0.018020978 0.014529698 0.088766925
0.018171887 0.013104118 0.089608254
0.018479081 0.011619114 0.090545076
0.018332406 0.010082682 0.091313909
0.018481136 0.008572105 0.09242821
0.019209196 0.0070991426 0.095168965
0.0195775 0.005538519 0.096436818
0.020611925 0.0038843906 0.098947227
0.021052835 0.0022693158 0.10032362
0.021552595 0.00053209336 0.10178127
0.022089493 -0.0015413191 0.10357813
0.022964722 -0.0035998863 0.10623998
0.023410297 -0.0055070271 0.1090376
0.01919893 0.01841058 0.086480486
0.019443537 0.01720557 0.087514793
0.01955174 0.015883089 0.088225583
0.019740027 0.014534639 0.089035397
0.019890558 0.012986588 0.089584177
0.020096701 0.011457769 0.09045846
0.019998726 0.0099727101 0.091358416
0.020133792 0.0085293092 0.092538526
0.020881238 0.007048902 0.095287278
0.021323614 0.0055763526 0.096609893
0.022435963 0.0038470962 0.099079254
0.022900033 0.0021870373 0.10061817
0.023529121 0.00028034193 0.10224256
0.024290732 -0.0017273122 0.10439654
0.025070243 -0.0035724855 0.10719724
0.025837441 -0.0055967343 0.11043546
0.020656445 0.018323538 0.086394884
0.021017164 0.017133932 0.087556466
0.021354891 0.015763162 0.088367395
0.021459026 0.014414189 0.089228151
0.021480746 0.012934102 0.08957549
0.021641447 0.011409306 0.090272807
0.021587641 0.0098782954 0.091166077
0.021899777 0.0084566998 0.092961277
0.022407936 0.0069564797 0.094886775
0.023029553 0.0054167624 0.096163541
0.024166928 0.0038024719 0.098918569
0.025135443 0.0020100567 0.10173113
0.025594121 0.0001134739 0.1029598
0.026315425 -0.0016506918 0.1050746
0.027307191 -0.0035849896 0.10871285
0.022300989 0.018230336 0.08662461
0.022566965 0.016974478 0.087426339
0.022898375 0.015675437 0.088325208
0.023040055 0.01429946 0.089011523
0.023055972 0.012853178 0.089439735
0.023271043 0.011410777 0.090340296
0.024057805 0.0099809213 0.092173872
0.024130356 0.0084800397 0.093569182
0.024434216 0.0067656827 0.094788648
0.02562898 0.0053734998 0.097388613
0.026486537 0.003825194 0.099823274
0.027594002 0.0018282879 0.10290539
0.028009265 0.00026916736 0.1045939
0.028541642 -0.0015507368 0.10654751
0.029540989 -0.003604869 0.11014246
0.023868528 0.018097467 0.086607315
0.024200125 0.016905049 0.08757247
0.024449898 0.01557474 0.088364845
0.024562687 0.014191953 0.088852435
0.024657825 0.012789872 0.089440306
0.025033822 0.011459548 0.090431499
0.025659162 0.010104099 0.091728312
0.025897674 0.0086530481 0.092676845
0.026298265 0.007060202 0.094381606
0.027558233 0.0055036775 0.097560636
0.028697229 0.003728379 0.10106939
0.02998319 0.0019903883 0.10411675
0.030418471 0.00028596944 0.1061467
0.03082552 -0.0014138584 0.10811739
0.031679475 -0.0033841136 0.11077848
0.025321966 0.017995195 0.086306448
0.025730074 0.016790798 0.087473008
0.025996548 0.015465703 0.088345061
0.026108603 0.014129165 0.088811534
0.026211312 0.012694305 0.089335079
0.026640454 0.011386775 0.089905088
0.026951869 0.010095354 0.090763653
0.027297713 0.0086929357 0.09191368
0.027677235 0.0071246243 0.093273762
0.029138527 0.0055978486 0.097098738
0.031067824 0.0037249488 0.10236728
0.032102808 0.0020197964 0.10527912
0.032459268 0.00031245697 0.10681319
0.033050337 -0.0013125853 0.1090335
0.026865358 0.01789862 0.086406809
0.027222541 0.016743316 0.087409201
0.027558102 0.015453106 0.088134261
0.027836799 0.014188538 0.088975747
0.028087784 0.012777743 0.089348093
0.028226463 0.011402928 0.089765159
0.02840892 0.010068461 0.090458
0.028791763 0.0086919309 0.091800069
0.030127112 0.0074367146 0.095102653
0.030848304 0.0056590211 0.097288109
0.033506462 0.0035479549 0.10360114
0.034279355 0.0021022348 0.10648702
0.034781642 0.00042690401 0.10829032
0.035423296 -0.0012690095 0.11050422
0.02800134 0.017738235 0.085504154
0.028701757 0.016755376 0.087310131
0.029102207 0.015527643 0.088152255
0.029385583 0.014182821 0.088686526
0.029552001 0.012747078 0.089055201
0.029692811 0.011374313 0.089592477
0.029810898 0.010026055 0.090181527
0.030383774 0.0087322472 0.092014077
0.031659448 0.0074478869 0.094974925
0.032254977 0.0057107405 0.096576383
0.036367652 0.0035456903 0.10618339
0.036934319 0.0017929039 0.10793485
0.037178887 6.6658177e-05 0.10933361
0.038030632 -0.0019986202 0.11080778
0.028903324 0.017452956 0.084020195
0.029852661 0.016638958 0.086360844
0.030375848 0.015385618 0.087530096
0.030785824 0.014130498 0.088415697
0.030974492 0.01269246 0.088794162
0.03117501 0.01134624 0.089468293
0.031558599 0.010044189 0.090645492
0.031887015 0.008752102 0.091652408
0.032818341 0.0072971691 0.093883984
0.034893154 0.0051613518 0.098599106
0.039001013 0.0031737977 0.10687416
0.039414973 0.0014834316 0.10861516
0.039912266 -0.00052676571 0.10988672
0.040191459 -0.0021889928 0.1109106
0.030742655 0.016324259 0.084835246
0.031480855 0.015166227 0.086374899
0.03203864 0.013917569 0.087411242
0.032324816 0.012548904 0.088296183
0.032581601 0.011167529 0.089123075
0.033019571 0.0098122457 0.090415336
0.033465012 0.0084758482 0.091748288
0.034372362 0.007013718 0.093970212
0.039071352 0.0042541585 0.10256511
0.040938233 0.002851138 0.10687769
0.041601323 0.0011238362 0.10882419
0.041946319 -0.0008702343 0.10985716
0.042556927 -0.0025710906 0.11081867
0.032442309 0.015000904 0.084542758
0.033085143 0.013737076 0.08585038
0.033750852 0.01248805 0.087893918
0.034166603 0.011017489 0.088977409
0.034483971 0.009639599 0.090102144
0.034947852 0.0083345582 0.091437804
0.036994259 0.006478852 0.095971391
0.041143345 0.0040088058 0.10314636
0.042621119 0.0026730371 0.1065255
0.043286506 0.00095518841 0.10809995
0.043746775 -0.0010633479 0.10929027
0.043896708 -0.002956617 0.10986258
