ply
format ascii 1.0
comment Automatically gnerated by model-converter
element vertex 764
property float x
property float y
property float z
element face 0
property list uchar int vertex_indices
end_header
-0.029397415 0.018240293 0.088282712
-0.029902047 0.01691724 0.089901226
-0.030009825 0.015362835 0.090438227
-0.030137614 0.013735682 0.090820705
-0.030414025 0.012127815 0.091599763
-0.030907328 0.010799249 0.092696525
-0.031292984 0.0095347538 0.093732481
-0.031675965 0.0083160472 0.094619423
-0.032550159 0.0072414347 0.096291246
-0.033620477 0.0063967428 0.098999595
-0.03481928 0.0047781705 0.10187702
-0.035284961 0.0029741542 0.10287796
-0.035417522 0.0011682447 0.10301717
-0.035497952 -0.00067303244 0.10332445
-0.035764261 -0.0026714349 0.10402941
-0.03628624 -0.0048468849 0.10545246
-0.03709294 -0.0071833402 0.10816649
-0.028431853 0.018459498 0.089495177
-0.028702557 0.017135751 0.090748603
-0.028789618 0.015532788 0.091122928
-0.028912601 0.013883725 0.091463918
-0.029264374 0.012320363 0.092326579
-0.029707036 0.010955045 0.093361646
-0.03020876 0.0097940372 0.094728902
-0.03080222 0.0086076619 0.095877913
-0.031502509 0.0075214591 0.097571445
-0.032477016 0.0064798216 0.1000111
-0.033440021 0.0046400218 0.1024593
-0.033879453 0.0028343353 0.10363653
-0.034046414 0.0010815516 0.10383998
-0.034194602 -0.00085469042 0.10442006
-0.034531523 -0.0029171711 0.10531647
-0.034962444 -0.0051565653 0.10661067
-0.035563385 -0.0073718966 0.10828952
-0.026669426 0.018427367 0.088427668
-0.027161898 0.017257183 0.090352952
-0.027513149 0.015572239 0.091638051
-0.027638363 0.013953669 0.092161171
-0.027981209 0.012563735 0.093074515
-0.028308285 0.011138035 0.093974315
-0.028748725 0.009828087 0.09520752
-0.029359951 0.0087134937 0.096425992
-0.030193814 0.0076755641 0.098682113
-0.031050852 0.006432724 0.10094591
-0.031811325 0.0045616011 0.10282665
-0.032371756 0.002627496 0.10433811
-0.03254902 0.00081698047 0.10513149
-0.032751067 -0.001106397 0.10563025
-0.033132866 -0.0030354916 0.10655908
-0.033543697 -0.0053389583 0.10785915
-0.033875736 -0.0074327191 0.10898694
-0.025010821 0.018444668 0.087870612
-0.02560037 0.017358553 0.090002949
-0.026234943 0.015817431 0.092185254
-0.026368121 0.014137229 0.092984634
-0.02691024 0.012911202 0.094451822
-0.027157283 0.011414732 0.095138178
-0.027467183 0.0099764499 0.096011621
-0.027939331 0.0087767616 0.097230044
-0.028678067 0.0076492334 0.099228293
-0.029495438 0.0063642569 0.10187318
-0.030178057 0.0045571261 0.10327326
-0.030637001 0.002626889 0.10459144
-0.030997435 0.00059778959 0.10600547
-0.031256395 -0.0013206581 0.10688858
-0.031548523 -0.0031108407 0.10759415
-0.031993818 -0.0050136032 0.10865005
-0.032282796 -0.0071967548 0.10984363
-0.023494257 0.018476766 0.087833961
-0.024139579 0.017457026 0.090163509
-0.024851824 0.016082422 0.092323323
-0.024891641 0.014560988 0.093428391
-0.025348832 0.012972062 0.094685664
-0.025576647 0.011470867 0.095472855
-0.026106075 0.010069 0.096884266
-0.026544066 0.008909942 0.098318977
-0.027101655 0.007523727 0.099599352
-0.027733608 0.0061776121 0.10196175
-0.028344747 0.0045481905 0.10309165
-0.02865419 0.0025399543 0.10440062
-0.029391224 0.00059640968 0.10633977
-0.029636529 -0.0014311829 0.10759834
-0.029961574 -0.0032448839 0.10849858
-0.030289201 -0.0050307526 0.10942044
-0.030482899 -0.0068979869 0.11034852
-0.021892102 0.018427479 0.087480451
-0.022745871 0.017402862 0.090342279
-0.023205796 0.016157401 0.092371141
-0.023338677 0.014784188 0.09329503
-0.023626976 0.013100402 0.094573364
-0.023940025 0.011473448 0.095707317
-0.024597832 0.010134781 0.097484156
-0.02500696 0.0087267107 0.098571479
-0.025411519 0.0073691426 0.099852704
-0.025908203 0.0059441536 0.10142137
-0.026221789 0.0042283199 0.10263062
-0.026836262 0.0024379399 0.10428388
-0.027431183 0.00042188713 0.10624382
-0.027861717 -0.0014257365 0.10782381
-0.028103435 -0.0033532422 0.10872949
-0.028258432 -0.0051720212 0.1096062
-0.028470529 -0.0070034031 0.11050407
-0.020222723 0.01826003 0.087053835
-0.021136153 0.017404429 0.090128861
-0.02152151 0.016232803 0.092173264
-0.021768792 0.014861476 0.093478588
-0.02203559 0.013393456 0.094661014
-0.02239619 0.011628082 0.096031348
-0.023051187 0.010158561 0.097836768
-0.023331383 0.0087337618 0.098823619
-0.023606639 0.0072762976 0.099863937
-0.023926047 0.0058145613 0.10108124
-0.024209509 0.0041308285 0.10210967
-0.024705706 0.0023282978 0.10396367
-0.025491227 0.00041815246 0.10611438
-0.026022306 -0.001446882 0.10783545
-0.026272245 -0.0032897014 0.10889555
-0.026318467 -0.0051445203 0.10982382
-0.026744388 -0.0068251353 0.11036183
-0.018862332 0.018078802 0.087252719
-0.01949699 0.017371027 0.089820397
-0.019907819 0.016250319 0.092105091
-0.020131474 0.014889015 0.093391908
-0.020459789 0.013470633 0.094914476
-0.020714815 0.011831856 0.096065057
-0.021269452 0.010211029 0.097750768
-0.021572422 0.0086765817 0.098875707
-0.021830115 0.0071071211 0.09974198
-0.022152863 0.0056749272 0.10090819
-0.022355158 0.0039712669 0.10168805
-0.022749186 0.0023177253 0.10341119
-0.023309572 0.00048928013 0.10551121
-0.024014332 -0.0013405809 0.10743875
-0.024334956 -0.0031717995 0.10854671
-0.024437447 -0.0050941777 0.10947615
-0.024425711 -0.0069236315 0.11027791
-0.017299351 0.018101127 0.086991437
-0.017731993 0.017204458 0.089309253
-0.018137172 0.016236119 0.09162842
-0.018449144 0.014911195 0.09339943
-0.018797195 0.013466717 0.094973371
-0.018983913 0.011785262 0.095972104
-0.019401202 0.010155537 0.097404559
-0.019846692 0.0087066389 0.099042676
-0.020109911 0.0071300311 0.099935826
-0.020298385 0.0055346126 0.10064847
-0.020526468 0.0039287019 0.10149028
-0.020758922 0.0023423606 0.10295319
-0.021020577 0.00067328066 0.10448003
-0.021533684 -0.0012721441 0.10604765
-0.022046247 -0.0031586687 0.10757786
-0.022456273 -0.0049791081 0.1084556
-0.022410645 -0.0068485073 0.10929924
-0.022299453 -0.0088748742 0.11005406
-0.015739619 0.017991185 0.086190696
-0.016116911 0.01708839 0.088629676
-0.016328388 0.016166489 0.090758222
-0.016694525 0.014856207 0.092879966
-0.017023489 0.013353669 0.094700046
-0.017168319 0.011745747 0.095906804
-0.017619255 0.010103375 0.097239469
-0.018109256 0.0087426261 0.09899961
-0.018343969 0.0071498216 0.09986184
-0.018438872 0.0054944266 0.10042626
-0.018675449 0.0039297616 0.10127546
-0.018801099 0.0023655866 0.10231855
-0.019042697 0.00063950873 0.10372934
-0.019346757 -0.001204061 0.10479332
-0.019582193 -0.0030964761 0.10584129
-0.019906202 -0.0049853016 0.10681123
-0.020124118 -0.0070318817 0.10755436
-0.020339285 -0.0089311202 0.10876385
-0.02062614 -0.01091069 0.11052314
-0.014163259 0.018012936 0.085562249
-0.014531386 0.016984412 0.087868241
-0.0147052 0.0158558 0.089921904
-0.014912154 0.014728905 0.092452938
-0.015112037 0.013180806 0.094270634
-0.01517355 0.011583995 0.095679541
-0.015775725 0.01007556 0.097242005
-0.016313803 0.0086519647 0.098897969
-0.016496106 0.0071216485 0.099822472
-0.016625371 0.0055517664 0.10035091
-0.01674509 0.0039832265 0.10088928
-0.01689254 0.002345396 0.10168212
-0.017129799 0.00062804161 0.10282839
-0.01719726 -0.0011779181 0.10330374
-0.017291951 -0.0030323085 0.10394802
-0.01736043 -0.0047592128 0.10482264
-0.017776959 -0.0068788834 0.10607346
-0.017947014 -0.0088391593 0.10730564
-0.018279898 -0.010884136 0.10927099
-0.018403187 -0.012483253 0.11095691
-0.012637694 0.018055186 0.085134203
-0.013015255 0.016896994 0.08755177
-0.013092285 0.015736497 0.089269054
-0.013122516 0.014593547 0.091850949
-0.013255058 0.013134937 0.093636426
-0.013122938 0.011659767 0.095187083
-0.012774746 0.010250057 0.096737983
-0.013264829 0.008769912 0.098454421
-0.014577172 0.0071795252 0.09951022
-0.01448629 0.0057283476 0.10010676
-0.014762116 0.0040404911 0.10067539
-0.014880578 0.0022733364 0.10098828
-0.015046107 0.00057301375 0.10161227
-0.015130653 -0.0011202271 0.10227467
-0.015155291 -0.0029265762 0.1026261
-0.01527147 -0.0046874522 0.10345047
-0.01557102 -0.0066601642 0.10472003
-0.015768677 -0.0085944928 0.10602733
-0.016098533 -0.010612741 0.107957
-0.016488227 -0.012718819 0.11060488
-0.011193462 0.01798247 0.084760768
-0.011403985 0.016811659 0.086691395
-0.011525726 0.015594418 0.088696276
-0.011448616 0.014340782 0.090638258
-0.011346858 0.013170135 0.092885472
-0.0110899 0.011734354 0.093869952
-0.010611503 0.010402196 0.095111363
-0.010033156 0.0091209067 0.096515882
-0.0094530002 0.007832624 0.097953456
-0.012403462 0.0057037125 0.099253878
-0.012890361 0.0039362078 0.10006831
-0.013070701 0.0022313294 0.1005955
-0.013149823 0.00048045516 0.10087544
-0.013222914 -0.0012738501 0.10122111
-0.013397981 -0.0030297744 0.10183251
-0.01342584 -0.0047367959 0.10275597
-0.013544392 -0.0065696758 0.10365708
-0.013727436 -0.0083845329 0.10497967
-0.01405567 -0.010439142 0.1069563
-0.014396829 -0.012509696 0.10956182
-0.0097708541 0.017886317 0.084230639
-0.0099192879 0.016762983 0.086327389
-0.01010856 0.015421123 0.088047877
-0.01005351 0.014076463 0.089726202
-0.0096489672 0.013015451 0.091472688
-0.0093198347 0.011764892 0.092684177
-0.0087849659 0.010452322 0.093609857
-0.0082658908 0.0090765727 0.094505226
-0.0074972007 0.0077907524 0.095522757
-0.0073281685 0.0062331009 0.096861832
-0.0089560393 0.0043183969 0.099097632
-0.010943107 0.0022597631 0.099788683
-0.011308362 0.00044703721 0.10025304
-0.011496513 -0.00131121 0.10045282
-0.011567728 -0.0030861199 0.10113511
-0.011640324 -0.0048191565 0.1023891
-0.011715304 -0.0064915957 0.10335219
-0.011736154 -0.0082879054 0.10426027
-0.011966896 -0.010204732 0.10620552
-0.01230939 -0.012397542 0.10861111
-0.0083141283 0.017867057 0.08406275
-0.0084708438 0.016718854 0.085823889
-0.008747532 0.015361265 0.087237656
-0.0086433515 0.014009398 0.088814119
-0.0082249114 0.012890095 0.090316514
-0.007865821 0.011564949 0.090815959
-0.0074359072 0.010245723 0.091461638
-0.0071834312 0.0088236922 0.092091496
-0.0067743365 0.0073185826 0.093137776
-0.0066377209 0.0058489377 0.094213138
-0.0069507943 0.0041114277 0.095949016
-0.0076581051 0.0023330459 0.097772914
-0.0085459752 0.00057488248 0.099212711
-0.0092320107 -0.0012275262 0.099739675
-0.0097609352 -0.0031087982 0.1006345
-0.0097685109 -0.0046599529 0.10198664
-0.0097986087 -0.0063468738 0.10284823
-0.0098772791 -0.0081410762 0.10409551
-0.010136455 -0.010135431 0.10584235
-0.010309977 -0.012299263 0.10780737
-0.01055081 -0.014339058 0.11073006
-0.006924661 0.017844545 0.083648736
-0.0069716139 0.016712103 0.085086552
-0.0071922494 0.015352291 0.086515784
-0.0072752941 0.013892181 0.087661314
-0.0071583957 0.012598885 0.08875904
-0.0065782627 0.011527246 0.089707402
-0.0064957069 0.0097955909 0.089202133
-0.0062827586 0.008229455 0.089876416
-0.0060801417 0.0068334939 0.091109191
-0.0059540654 0.0053215053 0.092256866
-0.0059185759 0.0036668152 0.093636853
-0.0062538838 0.0019488206 0.095323051
-0.0069663471 0.00017831112 0.097283813
-0.0073866657 -0.0015877642 0.098906306
-0.0077790932 -0.0031782181 0.10047851
-0.0078605795 -0.0046669564 0.10174192
-0.0079900374 -0.0063431289 0.10262448
-0.0080614201 -0.008018539 0.10391886
-0.0082721841 -0.010266601 0.10546826
-0.0084519827 -0.012350573 0.10737096
-0.0086552327 -0.014598564 0.11061059
-0.0054675615 0.017889599 0.082985332
-0.0055018173 0.016704846 0.084370019
-0.0056761536 0.015337614 0.085668107
-0.0058424055 0.013912099 0.086586389
-0.0060002065 0.012418092 0.087337745
-0.0061141671 0.010977951 0.087284555
-0.0059149602 0.0095845225 0.087431848
-0.0058317033 0.0079376306 0.087703143
-0.0057432396 0.006301957 0.088532634
-0.0054720239 0.0047970799 0.090014617
-0.0050550111 0.0029527632 0.091504241
-0.0052093961 0.0013936399 0.093045801
-0.0053759643 -0.00026567085 0.095199245
-0.0056754009 -0.0018134698 0.098189031
-0.0060500694 -0.0034343164 0.1000235
-0.0061360815 -0.0048653451 0.10135381
-0.006246681 -0.0065353392 0.10226392
-0.0062495786 -0.0081506592 0.10370004
-0.0064138787 -0.01029448 0.10522613
-0.0065439339 -0.012337386 0.10732201
-0.0067334599 -0.014651386 0.11052612
-0.0040116853 0.016715975 0.08364024
-0.0042662461 0.015359497 0.085205788
-0.0044169026 0.014091236 0.086365963
-0.0045629796 0.012564555 0.087094523
-0.0045681545 0.011048279 0.087007614
-0.0046390894 0.009453762 0.086636158
-0.0050651668 0.0077630984 0.086163948
-0.0049853999 0.0060890724 0.086464738
-0.0047638767 0.0044273212 0.087427865
-0.0037639058 0.0024729455 0.090206538
-0.0038119187 0.00071619235 0.091421155
-0.0039539955 -0.00086561577 0.093422286
-0.0040272743 -0.0021000829 0.097691441
-0.0043338784 -0.0036473556 0.099489746
-0.0044363383 -0.0050491536 0.10063322
-0.0044981683 -0.006559833 0.10194651
-0.0045216407 -0.0082548304 0.10345188
-0.0045752294 -0.010288372 0.10520748
-0.0046825323 -0.012392685 0.10757575
-0.0047689013 -0.014710333 0.11057164
-0.0022402421 0.016832126 0.083255793
-0.00260661 0.015692216 0.085407503
-0.002948709 0.01422763 0.0866916
-0.0030409177 0.01269392 0.087185922
-0.0030662197 0.011135635 0.087353746
-0.0030935933 0.0094737665 0.086736932
-0.0033183554 0.0075567838 0.085934522
-0.0033342288 0.0059032633 0.085766392
-0.0030834201 0.0043252026 0.086752802
-0.0014257483 0.0015211331 0.08960211
-0.001618082 6.0920781e-05 0.09091827
-0.0018588856 -0.0014563826 0.092532302
-0.0023641587 -0.0022566836 0.097072547
-0.002592927 -0.0036597091 0.099414855
-0.0026476224 -0.0051351163 0.10066424
-0.0027114626 -0.0066613757 0.1018082
-0.0027743048 -0.0082662962 0.103474
-0.0027941406 -0.010226986 0.10507778
-0.0027803313 -0.012432124 0.10749564
-0.0029254724 -0.014828255 0.11019659
-0.00083918751 0.016796606 0.083481235
-0.0011522526 0.015608674 0.085440193
-0.0013939712 0.014207071 0.087074314
-0.0015428257 0.012729918 0.08754455
-0.001583841 0.011168455 0.087803736
-0.0015460419 0.0095842254 0.087727904
-0.001384611 0.0074526867 0.08669062
-0.0014848596 0.0059170552 0.086291157
0.0002409198 0.0033247601 0.08776183
0.00064486795 0.0014070703 0.089585389
0.00033461602 6.8274497e-05 0.091344436
0.00011263432 -0.0013030444 0.093216382
-0.00070430849 -0.0023207149 0.096864154
-0.0008665649 -0.0036562142 0.099328583
-0.00090869658 -0.0051463426 0.1007784
-0.00091786318 -0.0067192499 0.10212639
-0.0010235116 -0.0084118588 0.10341195
-0.001035412 -0.010307429 0.10563012
-0.001019507 -0.012652378 0.10785531
-0.00091097649 -0.015106747 0.11045832
0.00058308071 0.01676903 0.083606263
0.00029458906 0.015554432 0.085659799
0.00016103073 0.014212401 0.087134135
-3.9048846e-05 0.01268585 0.088074205
-6.929277e-05 0.011044887 0.088364156
0.00033900052 0.009082114 0.088495321
0.00079733147 0.0072511897 0.088653276
0.0014850319 0.0052078439 0.088780595
0.0019615733 0.0033172318 0.089985572
0.001911797 0.0018275383 0.091135154
0.0019456583 0.0003571329 0.092319315
0.0015311028 -0.0010689412 0.094167585
0.0010086156 -0.0022026422 0.097214304
0.00082744982 -0.0037167154 0.099209244
0.0008079723 -0.0051821699 0.10080154
0.00077214975 -0.0067713738 0.10212655
0.00075390399 -0.0085609838 0.10323355
0.00078353332 -0.010423555 0.10557972
0.0008657526 -0.012675153 0.10778131
0.00097044034 -0.015138642 0.11026746
0.0019755983 0.016743977 0.083805971
0.0017466205 0.015540375 0.085852216
0.0016138445 0.014197009 0.08747822
0.0014989018 0.012667124 0.088601808
0.0015012233 0.010876351 0.088975519
0.0019340353 0.0088909489 0.089432518
0.0022071195 0.0071090412 0.090345499
0.0027118828 0.0053744527 0.090768944
0.0029312346 0.0038885164 0.091741453
0.0031112906 0.0023436623 0.092690718
0.0031241085 0.00089724255 0.09381673
0.0028589084 -0.00071536903 0.095385688
0.002666795 -0.0020578453 0.098091475
0.0025904273 -0.0036104015 0.099488524
0.0025782373 -0.0052566547 0.10063592
0.002496042 -0.0068241443 0.10215275
0.002544912 -0.0086477949 0.1031657
0.0026603797 -0.010515642 0.1053594
0.0027744076 -0.012745717 0.10762323
0.0028661457 -0.015170348 0.10997489
0.003382721 0.016692734 0.08388147
0.0031835519 0.015472784 0.085826144
0.003032772 0.014090292 0.08783369
0.0029482547 0.012571308 0.08868357
0.0030189031 0.010937841 0.089229921
0.0033528654 0.0091217195 0.089859436
0.0034995592 0.0074051551 0.091111705
0.0038127994 0.0059032814 0.092119609
0.0039922961 0.0044728556 0.092951742
0.0040968348 0.0029334445 0.0939286
0.0041998743 0.0014426079 0.095086373
0.0040497361 -0.00021135526 0.096913013
0.0042238841 -0.0018735526 0.09888619
0.0042701581 -0.0034934292 0.10012018
0.0042393127 -0.0051868643 0.10113073
0.0042846652 -0.0068427491 0.1022873
0.0043317838 -0.008694917 0.10336019
0.0043925453 -0.010683744 0.10547523
0.0046348038 -0.012926123 0.10768736
0.0048566203 -0.015193285 0.11023186
0.0047607414 0.016645443 0.084268612
0.0045552358 0.015532764 0.086113309
0.004446679 0.014136689 0.08775686
0.0044401437 0.012658683 0.088506542
0.0044649381 0.01109927 0.08949886
0.0047771983 0.0094481483 0.090443837
0.0049135556 0.0079006165 0.091509466
0.0049874485 0.0064836977 0.092981996
0.0052528016 0.004938647 0.093983737
0.0052994926 0.0035049515 0.09514905
0.0051438694 0.0019765387 0.096789318
0.005381615 0.00017497177 0.098508813
0.0059147534 -0.0017310832 0.099770466
0.00596767 -0.0033529798 0.10077279
0.0060639288 -0.0051293243 0.1015989
0.0060364654 -0.0068562859 0.10267117
0.0060900383 -0.0086707429 0.10389039
0.0061876117 -0.010950492 0.1054207
0.0065303996 -0.013291144 0.10773049
0.006003414 0.016533242 0.084891655
0.0060101889 0.015553181 0.086254045
0.005946021 0.01413751 0.087554202
0.0059365427 0.012666005 0.088223333
0.0059356282 0.011190994 0.089453297
0.0062723267 0.0097957533 0.09041888
0.0064453389 0.0083362805 0.091833037
0.0064209443 0.0069352424 0.093377548
0.0065628643 0.0054577147 0.094780142
0.0067798186 0.0036236464 0.096446648
0.0068019388 0.0021631666 0.098266321
0.0073593558 0.00021374634 0.099717838
0.0076455698 -0.0016310379 0.10042766
0.0077339176 -0.0033618053 0.10136305
0.0078130597 -0.0050957679 0.10237481
0.0078014008 -0.0068759876 0.10340717
0.0079300267 -0.0089470642 0.10429732
0.0081510792 -0.011349176 0.10588381
0.0084233191 -0.013814788 0.10768593
0.008805424 -0.015934203 0.1091618
0.0073837581 0.017387548 0.083636336
0.0074601968 0.016554825 0.085154362
0.0074443443 0.015528867 0.086507899
0.0074236111 0.014148405 0.087750366
0.0073754523 0.012667416 0.088222663
0.0074239806 0.011066676 0.08946535
0.007596869 0.0097192526 0.090450597
0.0079007056 0.0085815589 0.091702277
0.0077672154 0.0073652294 0.094259632
0.008245945 0.0054986345 0.095277116
0.008456577 0.0036739871 0.096877344
0.0086465052 0.0020560232 0.099061412
0.0089766033 0.0002719489 0.10023851
0.0092780668 -0.0015482196 0.10111101
0.009447383 -0.0032747262 0.10214556
0.0095282672 -0.0051169195 0.10291023
0.0096820028 -0.0070650132 0.10399763
0.0098651961 -0.0091854355 0.10495426
0.010081881 -0.011689421 0.10615902
0.010253879 -0.014320659 0.10733465
0.0087749796 0.01741532 0.083730519
0.0088659814 0.016499239 0.085221204
0.0088792835 0.015422927 0.086530276
0.0088495156 0.014078222 0.087772988
0.0089097942 0.01253313 0.088519283
0.0089854688 0.01101872 0.089573495
0.0090535978 0.0095766081 0.090368405
0.0091988786 0.0081012072 0.091415917
0.0095335108 0.0073535493 0.094457621
0.0099988713 0.0053510343 0.095327718
0.010229059 0.0037377041 0.097740591
0.010369435 0.0021149554 0.099449885
0.010590594 0.00037604349 0.10031477
0.010816472 -0.0013408159 0.10156524
0.011132839 -0.0031654798 0.10268685
0.011291119 -0.0050551641 0.10335911
0.011515778 -0.0070435266 0.10463397
0.011726269 -0.009235216 0.10566557
0.011946355 -0.011998891 0.10673527
0.012075872 -0.014606959 0.10778213
0.010141385 0.017481518 0.083831218
0.010220062 0.016588402 0.085025186
0.010173742 0.015465291 0.086328094
0.010306834 0.014074856 0.087470166
0.010422623 0.012632313 0.088239084
0.010508085 0.011128097 0.089403818
0.010579692 0.0097209681 0.090395339
0.010663692 0.008293814 0.091394243
0.011255307 0.00695749 0.093949293
0.011587685 0.0052409793 0.09573515
0.011844964 0.0037773725 0.098009194
0.012119574 0.0021551912 0.099637011
0.012397558 0.00048921046 0.10055315
0.012576022 -0.001268413 0.10169197
0.012850238 -0.0030386241 0.10285655
0.013110368 -0.0048968568 0.10390856
0.013370811 -0.0069419011 0.10529843
0.013518984 -0.0096041536 0.10661188
0.01379581 -0.012359544 0.10765251
0.013958148 -0.014569363 0.10845725
0.011575198 0.017806672 0.084503181
0.011643977 0.016739818 0.085287889
0.0115651 0.015552161 0.086450331
0.011790198 0.014112748 0.087572478
0.011942057 0.01266532 0.088220142
0.011976075 0.011211657 0.089246218
0.012070017 0.0098257258 0.090218621
0.012143533 0.0083667822 0.091214396
0.012331414 0.0071013873 0.093704355
0.013132703 0.0051368127 0.095849278
0.013527864 0.003647523 0.0979042
0.013859743 0.0021526254 0.099770074
0.014128463 0.00060789262 0.10087356
0.014386909 -0.0010895649 0.10164116
0.01464417 -0.0028891468 0.10314631
0.014877045 -0.0048077026 0.10419447
0.015172388 -0.0070057707 0.10625823
0.01541012 -0.010186508 0.10787386
0.015774125 -0.012555316 0.10914615
0.012965448 0.017849168 0.084568677
0.013009775 0.016886205 0.085654507
0.013036984 0.015631723 0.086502729
0.013284553 0.014113445 0.087904768
0.013429699 0.012693846 0.088498702
0.013453704 0.011312099 0.089431643
0.013542641 0.0099165055 0.090317865
0.013667597 0.0084819412 0.091388834
0.013832594 0.0070842152 0.093224605
0.014664302 0.0050249466 0.09575621
0.015333565 0.0036395482 0.098346894
0.015698692 0.0021359052 0.099828578
0.016016221 0.00053255157 0.10123513
0.016110008 -0.0010976563 0.10191225
0.01641691 -0.002841718 0.10348465
0.016809063 -0.0048391156 0.10529714
0.017198587 -0.0072698809 0.10762398
0.017536196 -0.010070688 0.10945097
0.014491152 0.017981629 0.084983612
0.014579072 0.017000997 0.086031923
0.01462899 0.015783785 0.086966616
0.014813021 0.01425431 0.087771175
0.014925587 0.012886248 0.08875189
0.015031248 0.011431344 0.089779596
0.01509574 0.0099544519 0.090703629
0.015223157 0.0085586157 0.092231144
0.015636178 0.0071847315 0.093942533
0.016155361 0.0052715669 0.095758485
0.016988218 0.0036676658 0.098487951
0.017412697 0.0021420668 0.099919274
0.017742542 0.00056576537 0.10129973
0.017990163 -0.0010458565 0.10240588
0.018292029 -0.002883269 0.10397109
0.018856968 -0.0049865381 0.10645472
0.019593629 -0.0076242889 0.10974345
0.016107973 0.018239188 0.085743069
0.016181875 0.017132459 0.086645122
0.016221745 0.015808448 0.087465557
0.016383077 0.014477697 0.088317727
0.0165054 0.013045521 0.089086563
0.016637108 0.0115695 0.0903771
0.016636962 0.010036276 0.091188319
0.016938386 0.008600216 0.092551102
0.017458974 0.0071118617 0.094685386
0.017751398 0.0054611356 0.095880528
0.018597211 0.0038335174 0.098445664
0.019122144 0.0022406826 0.099799628
0.019542213 0.00070730523 0.10140499
0.020008891 -0.0011004674 0.1030536
0.020427006 -0.0030812403 0.10496906
0.021096725 -0.0053181181 0.10780565
0.021891999 -0.0075091147 0.11079334
0.017718874 0.018380369 0.086408643
0.017799005 0.017222177 0.087251534
0.017804011 0.015890293 0.087867712
0.01797551 0.014602287 0.088919274
0.018129548 0.013177433 0.089775162
0.018441315 0.011678413 0.090681675
0.018307569 0.010062848 0.09133223
0.018457538 0.0085421506 0.092430083
0.019173684 0.0070680765 0.095164843
0.019553329 0.0055409257 0.096479592
0.020592915 0.003933116 0.09904143
0.021025996 0.0023298716 0.1004204
0.021521154 0.00059685224 0.10190085
0.022055496 -0.0014934095 0.10367465
0.022935809 -0.0035791585 0.10631613
0.023395781 -0.0054504895 0.10912583
0.019192188 0.018384159 0.086439716
0.01942805 0.017238906 0.087551482
0.019525969 0.015953327 0.088336962
0.01971772 0.014617894 0.089203996
0.019870458 0.013057498 0.089758629
0.020068025 0.011524855 0.090622507
0.019972495 0.0099748949 0.091413366
0.020111004 0.0085024138 0.092550613
0.020851895 0.0070169332 0.095286334
0.02130686 0.0056062284 0.096683289
0.02241809 0.0038893229 0.099160602
0.02287276 0.0022513677 0.1007473
0.023494869 0.00034656418 0.10236584
0.024255874 -0.0016828946 0.10450258
0.025070942 -0.0035426292 0.10730576
0.025825205 -0.0055530762 0.11051272
0.020656698 0.018289087 0.086372872
0.021012081 0.017163481 0.08760308
0.02135216 0.015832728 0.088491601
0.021456833 0.014497337 0.089399717
0.021467497 0.012999223 0.089750174
0.021619928 0.011468805 0.090443586
0.021562182 0.0098933475 0.09124961
0.021877141 0.0084286006 0.092974551
0.022385727 0.006922872 0.094896105
0.023037435 0.0054092693 0.096218948
0.02415833 0.0038425292 0.099037654
0.025089972 0.0020916011 0.10187796
0.025559453 0.00018336366 0.10311126
0.026275485 -0.0015908104 0.10519314
0.027271241 -0.0035226538 0.10876821
0.022305549 0.018203716 0.086602178
0.022570004 0.016993283 0.087479919
0.022897349 0.015735094 0.088447879
0.023039415 0.014369491 0.089175577
0.023053226 0.012922088 0.089627104
0.023258602 0.01147853 0.090523978
0.024081633 0.010034396 0.092358781
0.024131804 0.0084637205 0.093633183
0.024429506 0.0067203714 0.094814117
0.02564176 0.0054037397 0.097502358
0.026484994 0.0038839528 0.09996519
0.027568026 0.0019182453 0.10307416
0.027958811 0.0003439389 0.10474688
0.02852461 -0.0014775566 0.10669838
0.029522298 -0.0035535013 0.11024815
0.023877864 0.018069706 0.086602129
0.024205522 0.016925628 0.087637454
0.024448467 0.015629855 0.088491954
0.024565046 0.014264686 0.089032518
0.024664564 0.012874414 0.089658561
0.02504032 0.011569103 0.090680043
0.025689017 0.010174928 0.091934052
0.025921049 0.0086803362 0.092818283
0.026308451 0.0070234149 0.094435799
0.02757694 0.005518245 0.097662409
0.028708674 0.0037675504 0.10119538
0.029987453 0.0020223533 0.10420614
0.030424681 0.00035825926 0.10629128
0.030810762 -0.0013169153 0.10829452
0.031659936 -0.0033235967 0.1108966
0.025342453 0.017960165 0.086334072
0.025741274 0.016814717 0.087571065
0.025998802 0.015532916 0.088506316
0.02611257 0.014216222 0.089024139
0.026223681 0.012796951 0.089589385
0.026673798 0.011511224 0.09018558
0.026981223 0.010187155 0.090977778
0.027317025 0.0087407772 0.092060613
0.027683877 0.0071153743 0.093336458
0.029165029 0.0055820897 0.097212573
0.031107276 0.0037034275 0.10244009
0.032120844 0.002036953 0.10536565
0.032474835 0.00037118932 0.10695669
0.033032781 -0.0012320742 0.1092182
0.026892168 0.0178995 0.086489849
0.027239896 0.016771217 0.087525104
0.027572956 0.015515255 0.088311143
0.027854957 0.014291405 0.089222707
0.028166468 0.012912696 0.089728916
0.028270133 0.011526964 0.090070007
0.028434109 0.010168479 0.090696541
0.028806261 0.0087269293 0.091950667
0.03019903 0.0074156917 0.095216818
0.030884034 0.0056016071 0.097373187
0.033546975 0.0034801553 0.10363827
0.034314093 0.0021143574 0.10658497
0.034780245 0.0004919932 0.10840438
0.035396905 -0.0010725854 0.11073372
0.028033124 0.01772634 0.08560314
0.02871976 0.016772226 0.087425741
0.029126333 0.015576009 0.088325105
0.029466327 0.014260466 0.088977292
0.029630634 0.012835268 0.089386138
0.029737871 0.011467889 0.089885665
0.029827793 0.010110589 0.090420112
0.030409076 0.0087495819 0.092185147
0.031723798 0.0073615998 0.095049444
0.032283525 0.0055724029 0.096618096
0.036429442 0.0034937751 0.10617922
0.036958879 0.0018649901 0.10802937
0.037148247 0.00031193315 0.10959327
0.037964274 -0.0015071028 0.11134933
0.028938464 0.017416309 0.084134914
0.02987481 0.016627804 0.086484005
0.030406328 0.015393967 0.087698782
0.030864731 0.014138588 0.088626472
0.031026135 0.012701286 0.089019905
0.031210947 0.011366798 0.089684884
0.031587926 0.010046935 0.090810853
0.031892821 0.0087210043 0.091774198
0.032835833 0.0071709761 0.093916473
0.034943761 0.0048905012 0.098568251
0.039086615 0.0031403209 0.10686769
0.039433794 0.0016606623 0.10879588
0.039888218 -0.00015099576 0.11031974
0.04012686 -0.0016772968 0.11153519
0.030750638 0.016275465 0.084948607
0.031466559 0.015104354 0.086480004
0.03202118 0.013829086 0.087485728
0.032318391 0.012475105 0.088389749
0.032576018 0.011100168 0.089221816
0.033006266 0.0097093402 0.090458758
0.033439913 0.0083274242 0.091750088
0.034370019 0.0068095376 0.093934106
0.039315374 0.0038762048 0.10275003
0.041021208 0.0028381718 0.10695424
0.041633089 0.0013580256 0.10911644
0.041925685 -0.00049382782 0.11038292
0.042489904 -0.0020787996 0.11153948
0.032358089 0.014873587 0.084586228
0.032985752 0.013578748 0.085842473
0.033714148 0.012339366 0.08788804
0.034134639 0.010837812 0.088940236
0.034431672 0.0094399573 0.090046538
0.034885511 0.0081000424 0.091352145
0.037044791 0.0061140401 0.095866762
0.041288944 0.0035927567 0.10312166
0.042705022 0.0026167695 0.10665461
0.043321386 0.0011018209 0.10844823
0.04373372 -0.00076327218 0.10987958
0.043845187 -0.0025792389 0.11066443
