ply
format ascii 1.0
comment Automatically gnerated by model-converter
element vertex 764
property float x
property float y
property float z
element face 0
property list uchar int vertex_indices
end_header
-0.029350227 0.018190946 0.088162288
-0.029866225 0.016801089 0.089716308
-0.029995358 0.015243432 0.090269494
-0.030138496 0.013612163 0.090653067
-0.030400557 0.011986827 0.091384409
-0.030869883 0.010629103 0.092428865
-0.031240106 0.0093347263 0.093434259
-0.031611874 0.0080944635 0.094304795
-0.032493518 0.0069639225 0.095914088
-0.033660481 0.0062763094 0.098898806
-0.034854971 0.0048402474 0.1021179
-0.035293697 0.0030038391 0.1030675
-0.035404024 0.0012163894 0.10310006
-0.035392723 -0.00061192713 0.10318797
-0.035558673 -0.0027051621 0.10364206
-0.036022572 -0.0050289661 0.10487748
-0.036771981 -0.0075944281 0.10746268
-0.028387515 0.018371857 0.089363945
-0.028661263 0.016998932 0.090557866
-0.028772348 0.015398936 0.09094875
-0.028906522 0.013750114 0.09128553
-0.029244577 0.012174972 0.092104234
-0.029681397 0.010792385 0.093115439
-0.030182992 0.0096054611 0.094459566
-0.030773038 0.0083908842 0.09557007
-0.03150623 0.007296025 0.097307784
-0.032496445 0.0064006789 0.099957243
-0.033459436 0.0046816201 0.10264569
-0.033891196 0.0028411236 0.10381906
-0.034030477 0.0011351241 0.10390312
-0.03408796 -0.00085417924 0.10425956
-0.034349631 -0.0030614602 0.10491817
-0.034679361 -0.0053870894 0.10599006
-0.035262303 -0.007703388 0.10757961
-0.026618237 0.01840833 0.088346369
-0.027129733 0.01714797 0.090205796
-0.027488764 0.015419833 0.091445356
-0.027637261 0.013815879 0.092000336
-0.027974262 0.012420759 0.092892776
-0.028296622 0.010983647 0.093774448
-0.028742631 0.0096586166 0.094995754
-0.029356446 0.0085336079 0.096168136
-0.030214724 0.0075224986 0.098527513
-0.031047392 0.0064262457 0.10091905
-0.031817683 0.0046219031 0.10294735
-0.03236181 0.0026645846 0.10453002
-0.032504036 0.00080029032 0.10515598
-0.032614837 -0.0011882161 0.10537485
-0.032927897 -0.0031932843 0.1061185
-0.033265495 -0.0055916985 0.10722705
-0.033582604 -0.0077447284 0.10830271
-0.024948824 0.01846046 0.087807772
-0.025574816 0.017289843 0.089911697
-0.026214873 0.015643263 0.091980124
-0.026354885 0.013979045 0.092822487
-0.026896581 0.012732466 0.094266268
-0.02714486 0.011234537 0.094933289
-0.027465891 0.0097980664 0.095815088
-0.02796886 0.0086060688 0.097042804
-0.028679756 0.0075445872 0.099107921
-0.029498794 0.0063862507 0.10186504
-0.030163259 0.0046257477 0.10334071
-0.030607601 0.0026885785 0.10472139
-0.030899114 0.00054396456 0.1059363
-0.031090698 -0.0014872723 0.1065446
-0.031334908 -0.0033307874 0.10711212
-0.03173809 -0.0052652193 0.10802153
-0.032004708 -0.0075054316 0.10917438
-0.023445067 0.018485804 0.087794865
-0.024139562 0.017382715 0.090104225
-0.024872754 0.01592935 0.092187072
-0.024888474 0.014408404 0.093380235
-0.025334136 0.012786025 0.094552629
-0.025553642 0.011269117 0.095290385
-0.026078562 0.0098286653 0.09666241
-0.026533294 0.0086773926 0.098140309
-0.027110794 0.0074327464 0.099519923
-0.027744976 0.0062293587 0.10193307
-0.028356871 0.0046558896 0.1031469
-0.028633398 0.002600873 0.10445178
-0.029308332 0.00056469386 0.10628662
-0.029483789 -0.0016098131 0.1072417
-0.029762487 -0.0034627428 0.10801479
-0.030066392 -0.0052989891 0.10884983
-0.030251692 -0.007155751 0.10970347
-0.021851857 0.018433699 0.087462611
-0.022775782 0.017332669 0.090341402
-0.023245919 0.016058312 0.092352055
-0.023385911 0.01469173 0.093355378
-0.023621945 0.012921621 0.094509204
-0.023904565 0.011255604 0.095543749
-0.024560813 0.0099228577 0.097304719
-0.025000054 0.0085821918 0.098420498
-0.025400802 0.0072933047 0.099778369
-0.025907329 0.005946061 0.10143147
-0.026182157 0.004212227 0.10264892
-0.026837239 0.0024031611 0.10424831
-0.027373435 0.00040545288 0.10615725
-0.027738186 -0.0015507301 0.10753842
-0.027933337 -0.0035205189 0.1083238
-0.028068646 -0.0053452662 0.10917011
-0.028247552 -0.0071894897 0.11003717
-0.020197181 0.018276745 0.08707008
-0.021174913 0.017345158 0.090150627
-0.021576979 0.016169247 0.092227094
-0.021814289 0.014783209 0.093545958
-0.022055686 0.013260297 0.094648334
-0.022380046 0.011419709 0.095857955
-0.023019473 0.0099712328 0.097662871
-0.0232945 0.0085771649 0.098639113
-0.023592746 0.0071677825 0.099742326
-0.023928466 0.0057548143 0.10103248
-0.024217384 0.0040769998 0.10206005
-0.024687704 0.0022589836 0.10384677
-0.025435124 0.00039094588 0.10599905
-0.025931294 -0.0015326662 0.10761002
-0.02615083 -0.0033884475 0.1085675
-0.026149195 -0.0052541313 0.10950006
-0.026553738 -0.0069607083 0.10998992
-0.018859197 0.01814957 0.087287051
-0.019533693 0.017304564 0.08982874
-0.019963508 0.016193884 0.092164122
-0.020179415 0.014820706 0.093460786
-0.020480209 0.013344433 0.094913013
-0.020698811 0.011602981 0.095898549
-0.021240463 0.0099946566 0.097584042
-0.021553535 0.0084770154 0.098682336
-0.021842177 0.0069623265 0.09957123
-0.022154815 0.0055479285 0.10079539
-0.022370534 0.0038601246 0.10156762
-0.022772992 0.0022193572 0.10324032
-0.023294233 0.00039558341 0.10537326
-0.023925641 -0.0014081555 0.10724405
-0.024217442 -0.0032317966 0.1082934
-0.02428029 -0.0051772567 0.1091892
-0.024239625 -0.0069929161 0.1099895
-0.017287311 0.018200658 0.087032658
-0.017753874 0.01722077 0.089321062
-0.018185376 0.01617788 0.091643229
-0.018488044 0.014849973 0.093440696
-0.018824249 0.01336659 0.094966645
-0.018970487 0.011548956 0.095817347
-0.019379228 0.0099053668 0.097238675
-0.019824253 0.008470137 0.098836206
-0.020118802 0.0069229994 0.099768037
-0.020328381 0.0053543293 0.10050474
-0.020559134 0.0037529122 0.1013405
-0.020790202 0.0021365801 0.10273839
-0.02106399 0.00049850595 0.10425079
-0.021555957 -0.0014155698 0.10584563
-0.021979235 -0.0032440579 0.10734675
-0.022306315 -0.0050152 0.10820496
-0.022223882 -0.0068790979 0.10903381
-0.022194967 -0.0089034469 0.10988958
-0.0157251 0.018103587 0.086239805
-0.016122202 0.01714733 0.088659795
-0.016355006 0.016155025 0.090761995
-0.016722111 0.014850157 0.092937097
-0.017037125 0.013305168 0.094709247
-0.017164751 0.011606957 0.095808811
-0.01759134 0.0098309507 0.097048886
-0.018069054 0.0085012379 0.09880956
-0.018357093 0.0069290277 0.099743327
-0.01847075 0.0053129915 0.10033909
-0.018719408 0.003763738 0.10112593
-0.018867713 0.0021687353 0.10210241
-0.019102774 0.0004397605 0.1034508
-0.019410355 -0.0013984336 0.1045458
-0.019638241 -0.0032828487 0.10557754
-0.01995521 -0.0051752423 0.10654083
-0.020189899 -0.0071826941 0.10729481
-0.020385535 -0.0090562456 0.10855229
-0.020670111 -0.011009853 0.11034602
-0.014153899 0.018154634 0.085672056
-0.014531161 0.017054647 0.087915617
-0.014702717 0.015900166 0.089964174
-0.014926305 0.014766361 0.092558014
-0.015151521 0.013138865 0.094300739
-0.015254943 0.011441133 0.095561214
-0.015777386 0.009783434 0.097029319
-0.016271292 0.0083994686 0.098729419
-0.016525504 0.0068960859 0.099741585
-0.016661623 0.005372731 0.10026008
-0.016790784 0.0038246956 0.1007227
-0.016946681 0.0021723717 0.10149328
-0.017190347 0.0004486121 0.10259707
-0.017253252 -0.0013619405 0.10305556
-0.017352613 -0.0032246741 0.10370724
-0.017418157 -0.0049095939 0.10463862
-0.017846684 -0.0070486718 0.10584114
-0.017995326 -0.0089796462 0.10707709
-0.018327535 -0.010984826 0.10909045
-0.01844407 -0.012534904 0.11082641
-0.012617966 0.018179316 0.085214789
-0.013002275 0.016961131 0.087589805
-0.013063946 0.015781963 0.089333182
-0.013105527 0.014643751 0.091961657
-0.013292893 0.013084145 0.093681691
-0.013236183 0.0114761 0.095102645
-0.01294288 0.0099707757 0.09652278
-0.013374021 0.0084828992 0.098335879
-0.01461398 0.0069830408 0.099433444
-0.014560711 0.0055772238 0.099906512
-0.014814851 0.0038913736 0.10045181
-0.014922128 0.002122325 0.1008099
-0.015079549 0.00043114888 0.10145905
-0.015162495 -0.0012707208 0.1021079
-0.015214494 -0.0030734616 0.10246658
-0.015329243 -0.0048161048 0.10328228
-0.015618679 -0.0067988884 0.10452979
-0.015808238 -0.0087230175 0.1058484
-0.01614039 -0.0106934 0.10780316
-0.016529055 -0.012755302 0.11050151
-0.01118474 0.018057462 0.084801888
-0.011386422 0.016887886 0.086751451
-0.01149415 0.015683832 0.088763083
-0.011397301 0.014428491 0.090737579
-0.011345313 0.01313925 0.092968486
-0.011142194 0.011631636 0.093900278
-0.010710345 0.010241942 0.095072612
-0.010140833 0.0089490727 0.096456744
-0.0095508719 0.0076722785 0.097863368
-0.012482347 0.0055720816 0.09907835
-0.01295209 0.0038008383 0.099853548
-0.013124772 0.0020808877 0.10037658
-0.013194678 0.00033887709 0.10067162
-0.013270609 -0.0014192442 0.10102302
-0.013441978 -0.0031579564 0.10162612
-0.013482958 -0.0048979751 0.10257644
-0.013574513 -0.006693174 0.10351
-0.013765436 -0.0085009625 0.10484853
-0.014085438 -0.01052114 0.10684879
-0.014427023 -0.012526469 0.10953412
-0.0097891294 0.017902849 0.084246389
-0.0099156691 0.016788795 0.086317147
-0.010074257 0.015488345 0.088146542
-0.0099891724 0.014130071 0.089820189
-0.0095935179 0.013045569 0.09158997
-0.0092900175 0.011737501 0.09276842
-0.0087928055 0.010396055 0.093654387
-0.0083266211 0.0090080869 0.094553254
-0.0076188195 0.0076922094 0.095525039
-0.0075495994 0.0061322618 0.096768011
-0.0091807439 0.0041934542 0.09888183
-0.011015893 0.0021233105 0.09956158
-0.011354892 0.0003206792 0.10001794
-0.011554616 -0.0014553315 0.10022915
-0.011630801 -0.0032339306 0.10092194
-0.011682018 -0.0049528085 0.10218539
-0.011755391 -0.006597637 0.10320115
-0.011754101 -0.008377092 0.10417936
-0.011987681 -0.010264874 0.10612774
-0.012350997 -0.012372091 0.10856969
-0.008339321 0.017830859 0.084027258
-0.00847619 0.016688456 0.085760087
-0.0087151177 0.015399905 0.087276124
-0.0085774048 0.014061575 0.088887667
-0.00817659 0.012931188 0.090395709
-0.0078156463 0.011579389 0.090870455
-0.0074174427 0.010243808 0.091528299
-0.0071779946 0.008788952 0.092113085
-0.006819233 0.0072540849 0.093131207
-0.0067442839 0.0057396996 0.094184995
-0.0071286583 0.0040369926 0.095856823
-0.00783361 0.0022439364 0.097664346
-0.0087028503 0.00046316515 0.099057672
-0.0093212568 -0.0013705572 0.09956294
-0.009830794 -0.003252379 0.10042319
-0.0097956735 -0.0047771571 0.10183085
-0.0098170843 -0.0064228486 0.10273366
-0.0098897452 -0.0082225877 0.10404093
-0.010147338 -0.010162124 0.10578135
-0.010321614 -0.012299052 0.1077991
-0.010554176 -0.014270157 0.11073103
-0.0069578852 0.017771272 0.08356985
-0.0069937979 0.016644053 0.085005974
-0.0071832829 0.015341193 0.086494225
-0.0072162794 0.013925211 0.087691769
-0.0071026455 0.012635993 0.088817902
-0.0065355512 0.011539591 0.089745897
-0.0064275545 0.0097811297 0.089252574
-0.0062461559 0.0082088961 0.08990062
-0.0060759961 0.0067761124 0.091124373
-0.0059890806 0.0052629248 0.092198653
-0.006036291 0.0036087792 0.093600462
-0.0063727724 0.001882861 0.095265756
-0.0070556934 9.9225091e-05 0.097170927
-0.0074480038 -0.0016600607 0.09878311
-0.0078186883 -0.0032369055 0.10044307
-0.0078862325 -0.0046911873 0.10173172
-0.0079996964 -0.0063559174 0.10265362
-0.008059831 -0.0080226933 0.10390361
-0.0082887278 -0.010293425 0.10539379
-0.0084798205 -0.012343695 0.10732566
-0.0086637108 -0.014535498 0.11060964
-0.0055133068 0.01778186 0.082877305
-0.0055451815 0.016609181 0.084277722
-0.0056907206 0.015323183 0.085647387
-0.0058025581 0.013915293 0.086619029
-0.0059389258 0.012416936 0.087376798
-0.006029488 0.010944044 0.087333557
-0.0058114307 0.0095457515 0.087492568
-0.0057377862 0.0078973994 0.087781635
-0.0056932303 0.006270716 0.08857812
-0.0054624782 0.0047728621 0.090008018
-0.005081011 0.0029070591 0.091465466
-0.0052678189 0.0013489572 0.092957223
-0.0054431748 -0.00034281805 0.095090943
-0.0057474286 -0.001861282 0.098133132
-0.0060638841 -0.003455772 0.099961358
-0.0061160181 -0.0048541667 0.10131844
-0.0062239059 -0.0064967877 0.10228649
-0.0062323519 -0.0081082986 0.10372772
-0.0064235255 -0.010323324 0.10516597
-0.0065312387 -0.012313662 0.10721617
-0.0067431338 -0.014585482 0.11053897
-0.0040755745 0.016578169 0.083526581
-0.0042606001 0.015342285 0.085202319
-0.0043655122 0.014073898 0.0864139
-0.0044882203 0.012529149 0.087117935
-0.0044946961 0.010993242 0.086998847
-0.0045554506 0.0093902809 0.086649507
-0.0049496188 0.00769246 0.086244027
-0.004906469 0.0060210065 0.086568154
-0.0047084227 0.0043757873 0.087499502
-0.0037390586 0.0024321387 0.090163529
-0.003812015 0.0006716198 0.091339576
-0.0039991584 -0.00092745875 0.093318452
-0.0040510551 -0.0021134626 0.097637182
-0.0043417018 -0.0036367151 0.099465596
-0.0044362832 -0.0050159736 0.10064326
-0.0044885258 -0.0065026426 0.1019868
-0.0045031484 -0.0081764031 0.1035148
-0.0045811878 -0.010290075 0.10516686
-0.0046930354 -0.012378686 0.10754419
-0.0047785466 -0.014631051 0.11059167
-0.0022806675 0.016640398 0.08317094
-0.0025975582 0.015619152 0.085420911
-0.0028771858 0.014179573 0.086750485
-0.0029670239 0.012639586 0.087242799
-0.0030021186 0.011076492 0.087392529
-0.0030324322 0.009410142 0.086794188
-0.0032491528 0.0074748919 0.086032053
-0.00326494 0.00581713 0.085849772
-0.0030243467 0.0042461653 0.086800421
-0.0013559509 0.001440675 0.089533279
-0.001569938 -7.634206e-06 0.090855082
-0.0018350842 -0.0015125078 0.092474493
-0.0023745638 -0.0022724043 0.097027205
-0.0025992224 -0.0036391224 0.099395844
-0.0026556427 -0.0051072297 0.1006579
-0.0027138446 -0.0066142241 0.10183207
-0.0027614839 -0.0081784343 0.10353755
-0.0028020539 -0.010203781 0.10506711
-0.0027941896 -0.012401861 0.10748926
-0.0029356129 -0.014747131 0.11022615
-0.00088395461 0.016614491 0.083376035
-0.0011627877 0.015517046 0.085434829
-0.0013337789 0.014140476 0.087123858
-0.0014720084 0.012659853 0.087581026
-0.0015261399 0.011099862 0.087829575
-0.0014898776 0.0095131792 0.087762547
-0.0013677763 0.007395955 0.086904923
-0.0014436112 0.0058509654 0.086505684
0.00028170042 0.0032029237 0.0877128
0.00070447149 0.0012580871 0.089409234
0.00041326365 -2.8879287e-05 0.091232678
0.00015686946 -0.0013905474 0.093222117
-0.00068230502 -0.0023157818 0.09683202
-0.00087237187 -0.0036345709 0.099312884
-0.000916683 -0.0051151804 0.10077155
-0.00092142083 -0.006676709 0.10213056
-0.0010308451 -0.0083737494 0.10341936
-0.0010497795 -0.010284675 0.10562269
-0.0010375433 -0.012621881 0.10785151
-0.00093049956 -0.015054574 0.1104718
0.00054640917 0.016587966 0.083489058
0.00028716155 0.015454155 0.085619144
0.00020083782 0.014140902 0.08714699
2.9850676e-05 0.012595217 0.088053537
3.1100093e-06 0.010952699 0.088349153
0.00042172259 0.0089511027 0.088474048
0.00085384356 0.0070744906 0.088574856
0.0015240136 0.0050628587 0.088721382
0.0020461677 0.0031805181 0.089912641
0.0020076713 0.0016989073 0.090965378
0.0020283787 0.00024382882 0.092233181
0.0015831983 -0.0011453291 0.0940714
0.0010456185 -0.0022343707 0.097182577
0.0008455063 -0.0037036296 0.099197954
0.00079892058 -0.0051446378 0.10081054
0.00076090267 -0.0067340145 0.10214106
0.00074065974 -0.0085339357 0.10323413
0.00076786642 -0.010406048 0.10557033
0.00084743284 -0.0126505 0.10777476
0.00094903299 -0.015099574 0.11027459
0.0019394594 0.016551575 0.083661238
0.0017416956 0.015436669 0.085784306
0.0016627211 0.014110541 0.087432913
0.0015746373 0.012556149 0.088515314
0.0015823324 0.01074929 0.088879501
0.002050272 0.0087307943 0.089321943
0.0023447294 0.0069356787 0.090195664
0.0028185979 0.0052275987 0.090612618
0.0030600184 0.0037406164 0.0916027
0.003239184 0.0022144701 0.09256169
0.00321475 0.00077747852 0.093666695
0.0029250938 -0.00081904347 0.09531875
0.00270883 -0.0021135665 0.098060149
0.0026050752 -0.0036363318 0.099507754
0.0025566993 -0.0052409703 0.10068374
0.0024848468 -0.0068000203 0.10215899
0.0025290229 -0.0086277462 0.10316466
0.0026434983 -0.01050371 0.10534821
0.0027557525 -0.012723649 0.10761751
0.002843765 -0.015136976 0.10998101
0.0033483452 0.01650082 0.083716306
0.0031708751 0.015367141 0.085713113
0.0030592756 0.013989132 0.087734391
0.0029864506 0.012484656 0.088602071
0.003094867 0.010786993 0.089158401
0.0034728175 0.0089597081 0.089758334
0.0036348495 0.0072402201 0.090927914
0.0039685784 0.005768911 0.091938441
0.0041548195 0.0043276886 0.092796706
0.0042541189 0.0028021032 0.093798725
0.0043314416 0.0013145836 0.094955839
0.004152201 -0.00030951447 0.096838467
0.0042554511 -0.0019300131 0.098869748
0.0042629771 -0.0035080714 0.10011375
0.0041944362 -0.0051884923 0.10116315
0.0042609001 -0.0068252821 0.10230749
0.0043143799 -0.0086849528 0.10335472
0.0044052048 -0.010677035 0.10544304
0.0046105862 -0.012913281 0.10767849
0.0048320989 -0.01516593 0.11023492
0.0047293554 0.016469176 0.084099697
0.0045316284 0.015394822 0.086013414
0.0044326275 0.014042355 0.087647192
0.0044465504 0.012598516 0.088456134
0.0045001915 0.011009577 0.089464089
0.0048634606 0.0093160666 0.090341213
0.0050503216 0.0077436282 0.091405888
0.005148032 0.0063291364 0.092814244
0.0053954127 0.0048454468 0.093818905
0.0054631125 0.0033892473 0.095014689
0.0053071822 0.001823847 0.096669023
0.0054815489 7.6484881e-05 0.098436621
0.0059213345 -0.0017553338 0.09979744
0.0059866669 -0.0033777304 0.10077861
0.0060464889 -0.0051364374 0.101655
0.0059855385 -0.0068537602 0.10271767
0.0060702865 -0.0086917324 0.10386065
0.0061539053 -0.010979708 0.10538283
0.0064681531 -0.013306849 0.10771686
0.0059533549 0.016391435 0.08472125
0.0059810559 0.015417221 0.086143806
0.0059229525 0.014054781 0.087482013
0.0059221417 0.012611968 0.088232991
0.0059388546 0.011165317 0.089456042
0.0063385028 0.0096936481 0.090351192
0.0065955822 0.0081838292 0.09168458
0.0065763141 0.0067871534 0.093225541
0.0066960414 0.0053378035 0.094667852
0.0068844481 0.00351308 0.096361409
0.0068712075 0.0020670769 0.098154942
0.0073450561 0.00022260475 0.099778014
0.0076402684 -0.001651149 0.10046713
0.0077212592 -0.0033790511 0.10135749
0.0077674375 -0.0051269632 0.1024199
0.0077451059 -0.006866194 0.10345936
0.0079073744 -0.0090015136 0.10423701
0.0081144739 -0.011404092 0.10582678
0.0083743974 -0.013868713 0.107667
0.0087796971 -0.015899587 0.10913588
0.0072792886 0.017188677 0.083417691
0.0073941564 0.016408294 0.084971038
0.0074004613 0.015407184 0.086377487
0.0074102253 0.014071019 0.087687358
0.0073617455 0.012629754 0.088259429
0.0074162157 0.011059262 0.08954593
0.0076420096 0.0096864672 0.090487532
0.008009082 0.0084680586 0.091656578
0.0079111553 0.0072215951 0.094049794
0.008344586 0.0054060798 0.095216426
0.0085070071 0.0036132364 0.096846846
0.0086505522 0.0020223017 0.099077294
0.0089649794 0.0003024964 0.10032756
0.0092675729 -0.001549909 0.10116895
0.0094170862 -0.0032991839 0.10212334
0.0094959693 -0.0051530086 0.10295633
0.0096175283 -0.0070937838 0.10405724
0.0098096151 -0.0092304042 0.10490429
0.010009208 -0.011741674 0.10612884
0.010152479 -0.01438124 0.10729377
0.0086530997 0.017195988 0.08344652
0.0087892239 0.016350617 0.085006937
0.0088330771 0.015319198 0.086385576
0.0088063274 0.014014047 0.087724628
0.008877364 0.012508533 0.088575982
0.0089643501 0.011026151 0.089682664
0.0090409968 0.009634379 0.090542147
0.0092120124 0.0081541631 0.09160474
0.0096318768 0.0072402645 0.094261234
0.01006826 0.0053064475 0.095351363
0.01023243 0.0037372684 0.097768302
0.010363335 0.0021453374 0.099554178
0.010578987 0.00046370356 0.10050278
0.010808031 -0.001306697 0.10169348
0.011119122 -0.0032097854 0.1026451
0.011263042 -0.0051133409 0.10333783
0.011472762 -0.0071114942 0.10462215
0.01166999 -0.0093225545 0.10566126
0.011852698 -0.012072594 0.1066926
0.011960225 -0.014696052 0.10770651
0.010031195 0.017236551 0.083492567
0.010130498 0.016408854 0.084813505
0.010111455 0.015369027 0.086205249
0.010252771 0.014013726 0.08739772
0.010383809 0.012607939 0.088275487
0.010480494 0.011139367 0.089492929
0.010554994 0.0097859592 0.090557364
0.010652687 0.0083735989 0.091626883
0.011283588 0.006983594 0.094009742
0.011619771 0.0052644715 0.095777673
0.011842807 0.0038247688 0.098105205
0.012113432 0.0022298498 0.099789659
0.012383882 0.00056499383 0.10070765
0.012563724 -0.0012627941 0.10178851
0.01283821 -0.0030901976 0.10281755
0.013091869 -0.0049848609 0.10385653
0.013349823 -0.0070332143 0.10521038
0.013459101 -0.009693554 0.10658199
0.013702118 -0.012478467 0.1075657
0.013852443 -0.014702998 0.10832494
0.011481613 0.017584129 0.084056907
0.011561435 0.016609884 0.084968907
0.011504117 0.015457748 0.086343423
0.011732972 0.014055669 0.087480878
0.011900923 0.01264545 0.088239975
0.011935536 0.011209012 0.089324454
0.012024115 0.0098610682 0.090327737
0.012088072 0.0084486631 0.091370637
0.012279387 0.0072377909 0.093817649
0.013150517 0.0051911582 0.095949953
0.013524977 0.0037525986 0.098058812
0.013850289 0.0022429041 0.09994184
0.01412931 0.00063682609 0.10098976
0.014376538 -0.0010819437 0.10172191
0.014637486 -0.0029588599 0.10310944
0.014871964 -0.0049083846 0.10412302
0.015159244 -0.0071372256 0.10611487
0.015363163 -0.010346515 0.10777717
0.015729818 -0.012740201 0.10897329
0.012892558 0.017601043 0.084091914
0.012939833 0.016801419 0.085365342
0.012962311 0.015601829 0.08641205
0.013225417 0.014065546 0.087784884
0.013378448 0.012657561 0.088434892
0.013390095 0.011275159 0.089443226
0.013489135 0.0099230353 0.090386095
0.013608382 0.0085444404 0.091517483
0.013777465 0.0072076657 0.093386993
0.014650047 0.0051036881 0.09592666
0.015312873 0.0037399349 0.098492161
0.015685431 0.0022225182 0.099962108
0.01600833 0.00054673454 0.10133252
0.016086804 -0.0011133568 0.101964
0.016424761 -0.00292851 0.10343506
0.016795589 -0.0049595302 0.1052123
0.017216083 -0.0074374033 0.1075079
0.01756185 -0.010299771 0.10923346
0.014449361 0.017730164 0.084489149
0.014525935 0.016951412 0.085735823
0.014542266 0.015847871 0.0868519
0.014751033 0.014206883 0.08764306
0.014876991 0.012840899 0.088652702
0.014978914 0.011405623 0.089729761
0.015039902 0.0099690812 0.090738463
0.01516823 0.0086339488 0.092333662
0.015576254 0.0072905061 0.094059368
0.016111513 0.0053697852 0.095893807
0.016974107 0.0037244669 0.098609894
0.017421067 0.0021564972 0.10000213
0.017738637 0.00055016873 0.10137579
0.017984856 -0.001116319 0.10242239
0.018288664 -0.0029880329 0.103897
0.018850795 -0.0051157236 0.10639513
0.01965379 -0.0078665639 0.10953134
0.016080246 0.018043682 0.085234709
0.016137871 0.017070073 0.086364071
0.016161676 0.015781395 0.08733474
0.016328626 0.014435101 0.088187816
0.016448457 0.012989688 0.088986484
0.01660321 0.011547819 0.090305562
0.016608569 0.010060023 0.091224573
0.016886399 0.0086639331 0.092645076
0.017412974 0.0072134761 0.094823231
0.017706324 0.005544801 0.096045566
0.018575865 0.0038523641 0.09855057
0.0191238 0.0022163633 0.099861252
0.019537922 0.00066384139 0.10143235
0.02002421 -0.0012146413 0.10299541
0.020435049 -0.0032209131 0.10485052
0.021133207 -0.0054818623 0.10769562
0.021970513 -0.0077900803 0.11054044
0.017692832 0.018224317 0.085963261
0.017765028 0.017141647 0.086973794
0.017751292 0.015835464 0.087696088
0.01793442 0.014548798 0.088763495
0.018092988 0.013147558 0.089672265
0.018391383 0.011629622 0.090520536
0.018250291 0.01007607 0.091337497
0.018399941 0.0085873722 0.092490892
0.01911285 0.0071724975 0.095247793
0.019513306 0.0056039587 0.096613849
0.020607257 0.003852991 0.099036676
0.021039902 0.0022474147 0.10038822
0.021533646 0.0005112723 0.10187625
0.022072055 -0.0016012069 0.10360414
0.023000929 -0.0037318295 0.10618953
0.023470293 -0.005648835 0.10897963
0.019178806 0.018247796 0.086086745
0.019394202 0.017161204 0.087281545
0.019480062 0.015902968 0.088129399
0.019676229 0.01455661 0.089036698
0.019824054 0.012980662 0.089604435
0.020013767 0.011437084 0.090444523
0.019912275 0.0099511587 0.091349942
0.020055983 0.0085319374 0.092598242
0.020795379 0.0070965708 0.09533748
0.021282036 0.005619878 0.096748821
0.022422498 0.0037766959 0.099067032
0.022898841 0.0021342672 0.10072038
0.023506807 0.00025397982 0.10230615
0.024291486 -0.001801688 0.1044246
0.025178152 -0.0037465431 0.10714919
0.025928235 -0.0058212488 0.11031799
0.020655059 0.018196263 0.086135636
0.020985885 0.01709414 0.087380645
0.021316823 0.015704721 0.088209952
0.021421966 0.014367182 0.089148599
0.021418609 0.012889654 0.089520822
0.021567604 0.011361625 0.090233823
0.021499228 0.0098504113 0.0911287
0.021828368 0.0084489345 0.093012281
0.022341254 0.0069923991 0.094963436
0.023015182 0.0053505016 0.096214212
0.024187098 0.0037094131 0.099007726
0.025123956 0.0019575693 0.10180091
0.025588526 8.0259129e-05 0.10306616
0.026344771 -0.001716631 0.10509996
0.027361007 -0.0037426759 0.10857923
0.022289623 0.018133161 0.086373866
0.022550151 0.016916761 0.087261029
0.022866192 0.015601406 0.088168514
0.022998466 0.014228396 0.088906854
0.023009001 0.012793068 0.089384578
0.023193923 0.011347101 0.090262535
0.024048279 0.0099038594 0.09223894
0.024107445 0.0084245671 0.093600976
0.024421034 0.0067281453 0.09484714
0.025686917 0.0052053224 0.097398914
0.026567187 0.0036589604 0.099847853
0.027678323 0.0016841248 0.10294932
0.028055257 0.00018257777 0.10468579
0.028654209 -0.0016582368 0.10665655
0.029629325 -0.0038412557 0.11005167
0.023860747 0.018000646 0.086406491
0.024189836 0.016842791 0.0874696
0.024417241 0.015528518 0.088281068
0.02452398 0.014138033 0.088800937
0.024621525 0.012745032 0.089452627
0.024974047 0.01143379 0.090456861
0.025621727 0.010035204 0.091713314
0.025900342 0.0085568648 0.092713378
0.026320518 0.0069825296 0.094370618
0.02763579 0.0053297591 0.097547687
0.028827253 0.0035417211 0.10109909
0.030197745 0.0017543112 0.10406547
0.030581234 0.00012921692 0.10617444
0.030925584 -0.0015243635 0.10821522
0.031748275 -0.0036326019 0.11070071
0.02534199 0.017915003 0.086217193
0.0257224 0.016743185 0.087435064
0.025966046 0.015429941 0.088315134
0.026075479 0.014100622 0.088821963
0.026176787 0.012670055 0.089400217
0.026610686 0.011335214 0.08992745
0.026925951 0.0099940309 0.090778733
0.027282827 0.0085949752 0.091917274
0.027692329 0.007029708 0.093296724
0.029222705 0.0054618559 0.097148525
0.031277835 0.0034908031 0.10245735
0.032242212 0.0018928438 0.10538208
0.032598706 0.00026868502 0.10702908
0.033073325 -0.0013296397 0.10934764
0.026899609 0.017877542 0.086368156
0.027219217 0.016692291 0.087357394
0.027548137 0.015396691 0.08809182
0.027813755 0.01414128 0.088963682
0.028079948 0.012722923 0.089349543
0.028186327 0.011328756 0.08973739
0.028363866 0.0099917619 0.090437681
0.028759103 0.008618388 0.091750818
0.030131504 0.007317386 0.095068276
0.030917489 0.0055650588 0.097316441
0.033676861 0.0034829854 0.1037904
0.034343218 0.0021220688 0.10678647
0.03478179 0.00049955565 0.10867136
0.035359055 -0.00098411499 0.11097542
0.028103612 0.017805836 0.085548861
0.028699401 0.016741341 0.08731998
0.029097378 0.015492574 0.088171748
0.029397898 0.014135584 0.08871949
0.029547437 0.012675915 0.089065786
0.029655512 0.011289326 0.089564316
0.029768384 0.0099428079 0.090180427
0.030347278 0.0086445126 0.091979173
0.031662614 0.0073303987 0.094938293
0.032336004 0.0056410934 0.096619603
0.036400786 0.0036665773 0.10669712
0.036884175 0.0020738904 0.10855537
0.037084799 0.00045948782 0.11004614
0.038079693 -0.0016968993 0.11144558
0.029112594 0.017622438 0.084154881
0.029924528 0.016714564 0.086474332
0.030411657 0.015399708 0.087608461
0.030805039 0.014076426 0.088474542
0.030968769 0.012605807 0.088800405
0.031140444 0.011232144 0.089440152
0.031491666 0.0098954644 0.090573405
0.031805819 0.0085918102 0.091577423
0.032817401 0.0071716226 0.093831544
0.03504035 0.0051472726 0.098709007
0.039015324 0.0035574775 0.10758463
0.039397334 0.0019163738 0.1094344
0.039951619 -0.00014561718 0.11066083
0.040296601 -0.0018292309 0.11162364
0.030953082 0.016525946 0.085049299
0.031627142 0.015266342 0.08656759
0.032142756 0.013935687 0.087543922
0.032342784 0.012469556 0.088305004
0.032540037 0.011012477 0.089051386
0.032947237 0.0096093748 0.090278839
0.033409989 0.0083252601 0.091661135
0.034361772 0.0069342044 0.093938023
0.039502319 0.0044642189 0.10365433
0.041047449 0.0034289902 0.1078925
0.041662886 0.0016445211 0.10981535
0.04204924 -0.00037663431 0.11073193
0.042707284 -0.0020743458 0.1116582
0.032726899 0.015234144 0.084816289
0.033328646 0.013885465 0.086088799
0.033824181 0.012422982 0.087978199
0.034140812 0.010790254 0.088833252
0.034413128 0.0093806125 0.089925389
0.034869428 0.0081069134 0.091274937
0.037039347 0.0064809529 0.095990139
0.041438837 0.0043733212 0.10406576
0.042745974 0.0034206997 0.10768577
0.043384991 0.0016494938 0.10917927
0.043901363 -0.00041821801 0.11028728
0.044156302 -0.0023210453 0.11078286
