ply
format ascii 1.0
comment PCL generated
element vertex 354
property float x
property float y
property float z
element camera 1
property float view_px
property float view_py
property float view_pz
property float x_axisx
property float x_axisy
property float x_axisz
property float y_axisx
property float y_axisy
property float y_axisz
property float z_axisx
property float z_axisy
property float z_axisz
property float focal
property float scalex
property float scaley
property float centerx
property float centery
property int viewportx
property int viewporty
property float k1
property float k2
end_header
-0.055659544 0.030778063 0.18652156
-0.056821048 0.027807362 0.18843183
-0.058071081 0.024481146 0.19096251
-0.058806803 0.021009445 0.19307093
-0.058910407 0.017591076 0.19455872
-0.051288772 0.035470851 0.18292123
-0.052110311 0.033641107 0.18365668
-0.05261974 0.030859191 0.18487968
-0.052992795 0.027890634 0.18630742
-0.053998124 0.02481984 0.18901442
-0.055420659 0.021453468 0.19216447
-0.056177787 0.017985221 0.1939895
-0.05587054 0.015420784 0.19457909
-0.055684619 0.011990378 0.19657017
-0.047698684 0.038157236 0.18069567
-0.048409637 0.036244523 0.18129857
-0.048846468 0.033604939 0.1821197
-0.049254112 0.030907052 0.18368222
-0.049636085 0.02796543 0.18585394
-0.050658625 0.024994096 0.18913659
-0.051303219 0.021996696 0.19142826
-0.052108049 0.019536721 0.19328345
-0.052766759 0.015943684 0.19549072
-0.053120222 0.011087162 0.199037
-0.052894596 0.0062131532 0.20071051
-0.052714799 0.0026747212 0.20157675
-0.045374334 0.03892624 0.17976052
-0.045600459 0.036360476 0.18068102
-0.045731243 0.033616241 0.18189184
-0.046171628 0.030873487 0.18391159
-0.046634782 0.028242832 0.18618672
-0.047534008 0.025337117 0.18945225
-0.047926024 0.022360805 0.1914178
-0.048433118 0.020025106 0.19386177
-0.049490903 0.016204508 0.19684966
-0.04957946 0.010651897 0.1997336
-0.049726777 0.0058123595 0.20116679
-0.049907777 0.0022930091 0.20292497
-0.050327528 -0.0006203847 0.20572929
-0.051438358 -0.0024175222 0.20878418
-0.042190425 0.041269861 0.17890994
-0.042564265 0.039261814 0.17993118
-0.042753007 0.036664367 0.18128853
-0.042879693 0.033950787 0.18298246
-0.043284167 0.031266592 0.18506791
-0.043797933 0.028379994 0.18697874
-0.04458705 0.025579074 0.18973461
-0.04487111 0.022678025 0.19127992
-0.045049019 0.02037509 0.19398402
-0.045797434 0.016173244 0.19756939
-0.046165597 0.011092352 0.19945252
-0.04655052 0.0061578415 0.20079783
-0.047006071 0.0030070529 0.20362483
-0.047543757 0.00043310112 0.20695475
-0.048818856 -0.0020817544 0.21033815
-0.050153933 -0.0047114645 0.21485789
-0.050879896 -0.008388075 0.218374
-0.050479971 -0.010876035 0.22100286
-0.039632071 0.041989692 0.1788568
-0.039770428 0.03942363 0.18036821
-0.039842464 0.036810558 0.18183409
-0.04008048 0.034291051 0.1837384
-0.04056206 0.031573176 0.18573114
-0.040896989 0.028635105 0.18785115
-0.041536592 0.025582625 0.1899984
-0.041745067 0.022523293 0.19127411
-0.041926961 0.020551559 0.19422659
-0.042455886 0.016728913 0.19743086
-0.04291115 0.011533799 0.19961606
-0.04298396 0.0068524978 0.20006056
-0.043313939 0.0034156539 0.20272948
-0.043727793 0.00076099869 0.20647927
-0.045447227 -0.0016176455 0.21156111
-0.046952367 -0.0043117097 0.21640004
-0.04759676 -0.0082820449 0.21891674
-0.048035491 -0.011254548 0.22145049
-0.048145823 -0.014755638 0.22375138
-0.047933441 -0.017965138 0.22556292
-0.03641969 0.043976944 0.17781663
-0.036654506 0.042263102 0.17932482
-0.036880743 0.039717775 0.18087323
-0.036974482 0.037168372 0.18224241
-0.037115052 0.034602355 0.18445155
-0.037603702 0.031896863 0.18652974
-0.037833624 0.028907159 0.18815197
-0.038399365 0.025726773 0.19045329
-0.038796857 0.022778047 0.1919954
-0.038702276 0.020770071 0.19528569
-0.039389487 0.016976563 0.19835071
-0.040052142 0.012088371 0.20058225
-0.03966986 0.0076068128 0.19950975
-0.03948928 0.0037493221 0.20108697
-0.040366817 0.000987662 0.20678394
-0.042124085 -0.0011858355 0.21287835
-0.043489475 -0.0040214765 0.21736078
-0.044010382 -0.0081579518 0.21920112
-0.044230085 -0.011620043 0.22108737
-0.044383608 -0.015198112 0.22225827
-0.044697903 -0.018597668 0.22404839
-0.044413645 -0.021387415 0.22593552
-0.033610787 0.044175383 0.17838047
-0.033717584 0.042505033 0.17980433
-0.033848412 0.039956968 0.1814184
-0.03403081 0.037421901 0.18279651
-0.033980157 0.034673307 0.18487258
-0.034430508 0.031852361 0.18723306
-0.034913015 0.028975995 0.18925756
-0.0353943 0.026097827 0.19141537
-0.035809174 0.023192883 0.1935284
-0.035907902 0.020855116 0.19707404
-0.036635492 0.016949652 0.19974358
-0.036981184 0.012412685 0.20143561
-0.036780026 0.0082169082 0.2010974
-0.036590517 0.0039808592 0.20140399
-0.037410084 0.0014742312 0.20833407
-0.039123584 -0.00067822589 0.21464463
-0.039682895 -0.0040756897 0.21809483
-0.040299494 -0.0083184158 0.21897539
-0.04031191 -0.011957263 0.22008726
-0.040548086 -0.015593055 0.22176535
-0.040567227 -0.01881415 0.22308341
-0.040852852 -0.022024697 0.2250414
-0.030380053 0.044356216 0.17936605
-0.030603616 0.042617857 0.1803091
-0.030729115 0.039999928 0.18209925
-0.030906504 0.037494577 0.18453346
-0.031140504 0.034800552 0.18633273
-0.031352494 0.031914148 0.18873776
-0.031693593 0.029082758 0.19086902
-0.032204937 0.026164496 0.19267504
-0.032762259 0.02347024 0.19455442
-0.03295866 0.020938905 0.19832666
-0.033666439 0.017008806 0.20070906
-0.033964716 0.01252252 0.20240299
-0.033898763 0.0083602229 0.2028317
-0.033787321 0.0044303178 0.20356123
-0.035032842 0.0029179349 0.2115563
-0.035771091 -0.00011377148 0.21657674
-0.036101315 -0.0037897117 0.21813282
-0.036906362 -0.0085884621 0.21888945
-0.036910243 -0.012229915 0.22018637
-0.037083734 -0.015599937 0.22197802
-0.037073057 -0.018879265 0.22269614
-0.037320849 -0.02218459 0.22476681
-0.02737632 0.044466209 0.17976947
-0.027369412 0.042644039 0.1808891
-0.027530648 0.040036183 0.18291718
-0.027790753 0.037612829 0.1860213
-0.028198456 0.034984652 0.18815483
-0.028434522 0.03216901 0.19011699
-0.02851424 0.029247688 0.19155273
-0.028748976 0.026519483 0.19342807
-0.029191056 0.023737306 0.19588046
-0.029686334 0.021132009 0.19954571
-0.030739451 0.016642306 0.20269231
-0.030847833 0.012477702 0.20418121
-0.03069165 0.0088281939 0.20543711
-0.031006807 0.0058633946 0.20893703
-0.03148349 0.0035017023 0.21320485
-0.031996429 0.00010037755 0.21632354
-0.032324608 -0.003738679 0.21792845
-0.033445995 -0.0085564759 0.21940722
-0.033579715 -0.012074976 0.22096302
-0.033745762 -0.015382109 0.22300777
-0.033714343 -0.018845303 0.22420129
-0.033724032 -0.022512021 0.22708717
-0.033269629 -0.025270313 0.22989863
-0.024003578 0.044446446 0.18053237
-0.024152912 0.042821422 0.18167751
-0.024121115 0.040193856 0.18329367
-0.024555882 0.037734337 0.18616778
-0.025050167 0.035241254 0.18871157
-0.025317241 0.032412659 0.19101615
-0.025458226 0.029530397 0.19251397
-0.025651077 0.026612613 0.19481236
-0.02589144 0.023900155 0.19743198
-0.026809137 0.021269158 0.20101154
-0.027293315 0.017171593 0.20424421
-0.027219767 0.01333364 0.20607062
-0.027354838 0.0097649489 0.20829208
-0.027541339 0.0065862797 0.21103822
-0.028035795 0.0036759146 0.21391213
-0.028429706 0.00018103127 0.21696918
-0.029326631 -0.0047388598 0.21759288
-0.029682003 -0.0083634155 0.22062398
-0.02993338 -0.01180746 0.22218889
-0.030045204 -0.015315935 0.22506389
-0.02970154 -0.01905502 0.22711496
-0.029732736 -0.022781132 0.22919869
-0.029776033 -0.026570434 0.23123576
-0.020907044 0.044798415 0.18100365
-0.020949431 0.043090735 0.18218341
-0.021036632 0.040387623 0.183596
-0.021163579 0.0378954 0.18554869
-0.021767996 0.035322499 0.1890057
-0.021996241 0.03271652 0.19170295
-0.022238227 0.029891966 0.19372232
-0.022304168 0.02711631 0.19610462
-0.02288588 0.024168355 0.19910201
-0.023462037 0.020414628 0.20193672
-0.023508789 0.016517181 0.20404285
-0.023437785 0.012858179 0.20613429
-0.023825504 0.0091458373 0.20833474
-0.024088042 0.006885835 0.21235824
-0.024595419 0.0037885758 0.21515833
-0.02483348 0.00022256903 0.21734163
-0.025862485 -0.0043997327 0.21866758
-0.026011797 -0.0081212427 0.22198462
-0.026150929 -0.011741958 0.22295062
-0.026019061 -0.015470008 0.22621617
-0.025930854 -0.019387616 0.22876088
-0.026000351 -0.023215156 0.23025206
-0.026194673 -0.027065994 0.23236018
-0.018270088 0.043042939 0.18314259
-0.018016947 0.040774506 0.184632
-0.018062839 0.037983947 0.18591815
-0.018431703 0.035293471 0.18912111
-0.018830925 0.032696489 0.19201897
-0.01900607 0.030033199 0.19414614
-0.019289101 0.027410859 0.19705127
-0.019912716 0.024115883 0.20037389
-0.020268826 0.020339338 0.20312801
-0.020286232 0.016682964 0.20534685
-0.020092685 0.013362693 0.20736991
-0.02046096 0.0096994443 0.21019842
-0.020883091 0.0062506692 0.21232247
-0.021609355 0.0029204513 0.21575837
-0.021962235 -0.00064342195 0.21802776
-0.022465242 -0.0042160507 0.22024393
-0.022429597 -0.0077168597 0.22388688
-0.022332473 -0.011582428 0.22460875
-0.022429816 -0.015499067 0.22700611
-0.021989914 -0.019460952 0.22929381
-0.022126818 -0.023201862 0.22953896
-0.02244279 -0.027365487 0.23388645
-0.015167488 0.040889177 0.18540202
-0.015164074 0.038194649 0.18698138
-0.015231102 0.03539408 0.18924457
-0.015394664 0.032682903 0.19221278
-0.015612938 0.030041374 0.19463556
-0.01588673 0.027362833 0.19858867
-0.016638933 0.023837917 0.2027164
-0.016754266 0.020410178 0.20483708
-0.016852109 0.017108148 0.20643234
-0.016748136 0.013667952 0.20829026
-0.01713478 0.010102884 0.21158786
-0.017193329 0.0071074995 0.21407248
-0.017662913 0.0034092618 0.21683298
-0.018532891 -0.0003538843 0.21949463
-0.019107781 -0.0039920728 0.2225451
-0.019057687 -0.0074836072 0.2255875
-0.018710751 -0.011493486 0.22643395
-0.018616894 -0.015638256 0.22867866
-0.018263498 -0.019577583 0.22921976
-0.018266428 -0.023445887 0.23091778
-0.018660117 -0.027812686 0.23713107
-0.012546297 0.038118184 0.18835735
-0.012069752 0.03564648 0.19019184
-0.012161179 0.032917164 0.19306278
-0.012300421 0.030185949 0.1958994
-0.012608242 0.027270623 0.19937076
-0.013137541 0.02386797 0.20367983
-0.013112739 0.02074983 0.20613123
-0.013256022 0.01743695 0.20809503
-0.013562483 0.014023288 0.21016629
-0.013597814 0.010619442 0.21320948
-0.013859008 0.007387484 0.21536168
-0.013836558 0.003975099 0.21778823
-0.014816332 2.6516034e-05 0.22068606
-0.015428083 -0.0035104698 0.22400521
-0.015478369 -0.0072231577 0.22660321
-0.015009653 -0.011432626 0.22840203
-0.014703963 -0.015542771 0.23021568
-0.014575975 -0.019710127 0.2307267
-0.014522114 -0.023816269 0.234148
-0.014902754 -0.0281686 0.24029429
-0.0097753769 0.035229139 0.19110352
-0.0090285586 0.03299566 0.19383885
-0.0089686979 0.030234212 0.19691749
-0.0091231568 0.027100183 0.19967318
-0.0095290327 0.024076557 0.2035386
-0.0095104259 0.021022655 0.20677605
-0.0094956774 0.017778419 0.20931211
-0.010016961 0.014463797 0.2118098
-0.010014354 0.010965046 0.21397178
-0.010095865 0.0076711006 0.21664764
-0.010006662 0.0042849476 0.21923663
-0.010395004 0.00042746123 0.22167741
-0.011412957 -0.0035195658 0.22483525
-0.011056674 -0.0072808289 0.22720011
-0.010824637 -0.011333331 0.22932956
-0.010778337 -0.015477019 0.23116775
-0.010741382 -0.019603334 0.23259038
-0.010766394 -0.023993338 0.23651066
-0.011320272 -0.027471136 0.24085538
-0.0057194536 0.032475159 0.19641298
-0.005693994 0.030105937 0.19852704
-0.0058039795 0.026864368 0.20130043
-0.0060596475 0.024028648 0.2042374
-0.0061185388 0.021235939 0.2070673
-0.0060362807 0.017846311 0.21011843
-0.006224832 0.014484507 0.21252742
-0.0062042614 0.011281372 0.21461119
-0.0062266644 0.0078181243 0.21697804
-0.0064910362 0.0041946154 0.21978718
-0.0066134948 0.0003654153 0.22202303
-0.0067742108 -0.0038323232 0.22455692
-0.0067840787 -0.0076159886 0.22726202
-0.0069170329 -0.011606712 0.22931173
-0.0067684702 -0.015551872 0.23085703
-0.0068795164 -0.019582888 0.23351182
-0.0073096538 -0.023279404 0.23613352
-0.0031250301 0.031880602 0.19804354
-0.0026171396 0.029936152 0.19910829
-0.0025458704 0.026812728 0.2013106
-0.0026735768 0.023862412 0.20386015
-0.0026266703 0.02117346 0.20679566
-0.0027567314 0.018072797 0.2101257
-0.00268703 0.014607533 0.21299417
-0.0026021365 0.011202261 0.21499555
-0.0026251178 0.0077672382 0.21727572
-0.0028268092 0.0041640736 0.21931167
-0.0030216633 0.00010651376 0.22255045
-0.0029680759 -0.0037014766 0.22410992
-0.0030044275 -0.0077009872 0.2266898
-0.0030577788 -0.011336365 0.22821632
-0.0036269559 -0.015021625 0.22982086
0.00010208307 0.029405048 0.20010516
0.00066345208 0.027077209 0.20182505
0.00049466908 0.023949403 0.20384301
0.00076799584 0.021351453 0.20639525
0.00084930717 0.018204208 0.20920651
0.0010263465 0.014776136 0.21168248
0.00093162578 0.011306592 0.21442123
0.00090797502 0.0078860912 0.21692289
0.00096929708 0.0042546396 0.2180758
0.00068398204 0.00040303639 0.22143133
0.00098614465 -0.0034772032 0.22341958
0.00029318911 -0.0072105122 0.22586338
-0.00057556719 -0.010459693 0.22834733
0.0036117851 0.027023233 0.2025349
0.0039548734 0.024328936 0.20353335
0.0042663808 0.021495134 0.20583786
0.0044437326 0.018263083 0.20861901
0.0045589358 0.01481201 0.21107033
0.0043518413 0.011550302 0.21329163
0.0039004607 0.0078603281 0.21653309
0.0035274264 0.0046411068 0.21783444
0.0032622654 0.00062649953 0.22051795
0.0032687499 -0.0024609191 0.22278823
0.0058121975 0.024418952 0.20396325
0.006566437 0.021414481 0.20609012
0.0066903834 0.018412169 0.20848364
0.0066154273 0.014659361 0.21138388
0 0 0 1 0 0 0 1 0 0 0 1 0 0 0 0 0 354 1 0 0
