ply
format ascii 1.0
comment PCL generated
element vertex 354
property float x
property float y
property float z
element camera 1
property float view_px
property float view_py
property float view_pz
property float x_axisx
property float x_axisy
property float x_axisz
property float y_axisx
property float y_axisy
property float y_axisz
property float z_axisx
property float z_axisy
property float z_axisz
property float focal
property float scalex
property float scaley
property float centerx
property float centery
property int viewportx
property int viewporty
property float k1
property float k2
end_header
-0.055724006 0.030292498 0.18678506
-0.056925487 0.027288254 0.18871216
-0.058060352 0.023831485 0.19122598
-0.058772348 0.020186219 0.1933181
-0.058899634 0.016729105 0.19474392
-0.051425166 0.035018366 0.18326493
-0.052244343 0.033209298 0.18400393
-0.052751143 0.030406566 0.18506734
-0.053187165 0.027459789 0.18643112
-0.054203734 0.024324013 0.18913358
-0.055522349 0.020671325 0.19217841
-0.05630862 0.017021852 0.1939628
-0.056677733 0.01420286 0.19560288
-0.056396384 0.010775722 0.19796106
-0.047959931 0.037613705 0.18089321
-0.048590649 0.035756029 0.18154329
-0.049006425 0.033197537 0.18236822
-0.049408969 0.030470338 0.18386391
-0.049848225 0.027537731 0.1858485
-0.050851427 0.024481805 0.18900245
-0.05143613 0.021340134 0.19116189
-0.052699354 0.018535852 0.1937473
-0.05348606 0.014624723 0.19624779
-0.053339519 0.0091280891 0.20039953
-0.052834727 0.0037592079 0.20179866
-0.052644353 0.00015769861 0.20276652
-0.045631859 0.038366619 0.1797854
-0.045822833 0.035878479 0.18079461
-0.045918319 0.033182882 0.18204668
-0.046273589 0.030414863 0.18399177
-0.046832804 0.027728776 0.18608475
-0.047715027 0.02477246 0.1891396
-0.048070896 0.021715304 0.19095941
-0.04890532 0.019041648 0.19394241
-0.050015736 0.014669715 0.19716552
-0.049478423 0.0077642002 0.19995709
-0.049436476 0.002658461 0.20105289
-0.049494505 -0.00057140848 0.20355579
-0.049739301 -0.0029392156 0.20639451
-0.051148288 -0.0040913401 0.20866315
-0.042511873 0.04075928 0.17888291
-0.042832568 0.038768135 0.17993043
-0.042960022 0.036238797 0.18129127
-0.04302492 0.033518191 0.18298899
-0.043402139 0.030794203 0.18491583
-0.043974116 0.027865112 0.18666297
-0.044763368 0.024980793 0.18925899
-0.045072518 0.02197328 0.19069047
-0.045498516 0.019174347 0.19360897
-0.046030257 0.014083376 0.19686617
-0.046426866 0.0079189446 0.19850913
-0.046371836 0.0023809208 0.20008163
-0.046340194 -1.4741074e-05 0.20380986
-0.046863992 -0.0017189145 0.20693848
-0.048541509 -0.0037981682 0.21006902
-0.050086964 -0.0060286112 0.21431741
-0.051194403 -0.0096144974 0.21699694
-0.050944228 -0.011834011 0.21985663
-0.0399586 0.041567363 0.17883334
-0.04007094 0.039034266 0.18037759
-0.040082596 0.03644881 0.18183824
-0.040272105 0.033905305 0.18362814
-0.040752523 0.031126272 0.18549295
-0.041089378 0.028116766 0.18747802
-0.041732099 0.024930576 0.18945004
-0.041956089 0.021796733 0.19055639
-0.04250953 0.019109327 0.19313653
-0.042792391 0.014747004 0.19576989
-0.043309987 0.0083720693 0.19724953
-0.04322454 0.0033376869 0.19826044
-0.042785831 0.00027983048 0.20203833
-0.043011464 -0.0015289901 0.20617363
-0.045116317 -0.0034717806 0.21109711
-0.046986818 -0.0055542556 0.2156672
-0.04798561 -0.0094552729 0.21763308
-0.048578236 -0.01212774 0.22040395
-0.048783187 -0.015310096 0.22326827
-0.048494101 -0.018128294 0.22557394
-0.036721997 0.043662492 0.17782387
-0.036977094 0.041971929 0.17935188
-0.037196584 0.039443102 0.18093754
-0.037234437 0.036924616 0.18231168
-0.037339374 0.034275725 0.18442181
-0.037831273 0.031538792 0.18640293
-0.038036816 0.028478999 0.18788587
-0.038568437 0.025066545 0.18985024
-0.039051056 0.021973642 0.19112101
-0.039323296 0.019001454 0.19318549
-0.039699819 0.014791568 0.19550928
-0.040365938 0.0091723753 0.19672659
-0.040158503 0.0043326677 0.19679418
-0.039446082 0.00054762757 0.19903699
-0.039599415 -0.001322764 0.20586239
-0.041779853 -0.0031513239 0.21219668
-0.043641746 -0.0052090487 0.21651621
-0.044442285 -0.0093128076 0.21803851
-0.044836696 -0.012549875 0.22035627
-0.044949379 -0.015802093 0.22220416
-0.045231692 -0.018898852 0.22433904
-0.044964362 -0.021466468 0.22646046
-0.033905543 0.043936063 0.17844592
-0.034002829 0.042291205 0.17988662
-0.034123473 0.039776251 0.18154481
-0.034311995 0.037271354 0.18295927
-0.034189399 0.034441754 0.18498974
-0.034617521 0.031511389 0.18726452
-0.03509545 0.028555991 0.18911275
-0.035590861 0.02549251 0.19090071
-0.036137216 0.022365822 0.19233647
-0.036423948 0.019074371 0.1946639
-0.036871113 0.014713273 0.1963166
-0.03729694 0.0096803764 0.19706139
-0.037234884 0.005462605 0.19752768
-0.036685262 0.0011737493 0.19860291
-0.03699654 -0.0011555544 0.20636164
-0.038935605 -0.0028308581 0.21333466
-0.039929993 -0.0052702245 0.21724571
-0.040753566 -0.0095197437 0.21800581
-0.040876321 -0.012938211 0.21973392
-0.041101296 -0.016178388 0.22187251
-0.041057531 -0.019202046 0.22345479
-0.04129561 -0.022238348 0.22561929
-0.030570444 0.044210158 0.17948979
-0.030785013 0.042477526 0.1804662
-0.03090127 0.039879061 0.18225172
-0.031045912 0.037313238 0.18473658
-0.031308334 0.034511369 0.18649369
-0.031539336 0.031545937 0.18880282
-0.031861044 0.028628392 0.19077405
-0.032370664 0.025612716 0.19236006
-0.033090908 0.022730427 0.19336657
-0.033506874 0.019217236 0.1957967
-0.033989746 0.014929784 0.19727533
-0.034463834 0.010071552 0.19835535
-0.034391075 0.0059454241 0.19925226
-0.03405707 0.0022106341 0.2006657
-0.034985956 0.00013658991 0.20816937
-0.036368664 -0.0024193469 0.21404357
-0.036842145 -0.0054127886 0.21662402
-0.037491348 -0.0098138014 0.21806259
-0.037515461 -0.013071883 0.22000712
-0.037634499 -0.016165834 0.22202115
-0.037550379 -0.019329982 0.22299375
-0.037752841 -0.022424763 0.22519936
-0.027489016 0.044368934 0.179948
-0.027466739 0.042546399 0.18107083
-0.027611574 0.039935369 0.1830561
-0.027897669 0.037350487 0.18619345
-0.028391574 0.034659311 0.18829806
-0.028599253 0.031787924 0.19022326
-0.028635943 0.028818844 0.19151327
-0.028760459 0.026003433 0.19321056
-0.029112615 0.023035785 0.19514631
-0.030190354 0.019726347 0.19732912
-0.031214457 0.014469077 0.19892101
-0.03134561 0.010312466 0.20052426
-0.03086406 0.0068795085 0.20244858
-0.030707207 0.0036791568 0.20576426
-0.031581707 0.0011347861 0.21003711
-0.032663006 -0.0020814582 0.21371658
-0.033222459 -0.0054876851 0.21647927
-0.034315053 -0.0096052699 0.218716
-0.034223799 -0.01279101 0.22066316
-0.034261767 -0.015875313 0.22289547
-0.034158442 -0.019190358 0.22431131
-0.034014881 -0.022730734 0.22730333
-0.033433393 -0.025372323 0.23001024
-0.02409636 0.04435638 0.18070012
-0.024231065 0.042724922 0.18183905
-0.024146594 0.040085774 0.18342824
-0.024619918 0.037538473 0.18628809
-0.025269846 0.034950361 0.1888712
-0.025487227 0.032082647 0.19111705
-0.025530232 0.029170947 0.19249015
-0.025589414 0.026121916 0.1946169
-0.025608085 0.02330363 0.19701391
-0.026769849 0.019961875 0.19971417
-0.026973756 0.015217398 0.20216104
-0.026987555 0.011483945 0.20351525
-0.027137047 0.0078614401 0.2057534
-0.027500493 0.0046641692 0.20848751
-0.028391713 0.0018179315 0.21146794
-0.029274179 -0.0015298289 0.21487315
-0.030042885 -0.0058302116 0.21669267
-0.030398332 -0.0089950655 0.22033724
-0.030320117 -0.012294915 0.22193241
-0.030409914 -0.015668122 0.22494124
-0.029999705 -0.019258337 0.22706184
-0.029952222 -0.022864098 0.22914229
-0.029965347 -0.026584359 0.23114036
-0.020957218 0.044704907 0.18114893
-0.020992924 0.043001305 0.18226817
-0.02104193 0.040294096 0.18366985
-0.021157477 0.037832197 0.18561557
-0.021852281 0.035183314 0.18912658
-0.022123275 0.032538455 0.19182079
-0.022260534 0.029677745 0.19372368
-0.022207808 0.026786298 0.19598132
-0.022656124 0.023675775 0.19877698
-0.023240512 0.019815598 0.20132695
-0.023241024 0.015684135 0.20315796
-0.023130229 0.011865876 0.20493826
-0.023664353 0.0081160283 0.20695148
-0.024248287 0.0053515299 0.21050169
-0.025251923 0.0023709077 0.21355073
-0.025926376 -0.00096118188 0.21627411
-0.026526446 -0.0052138581 0.21829407
-0.026330324 -0.0086709391 0.22192027
-0.026334474 -0.012149757 0.22291769
-0.026187757 -0.015751241 0.22622164
-0.026006099 -0.019509668 0.2284746
-0.026132846 -0.02329175 0.23007639
-0.026388494 -0.027036784 0.2322744
-0.018313188 0.042937297 0.18316939
-0.018024039 0.04068416 0.18466569
-0.018072564 0.037926283 0.18596421
-0.018439258 0.035209533 0.18918441
-0.018866356 0.032613531 0.19213772
-0.019037539 0.029948879 0.1942144
-0.019244911 0.027231246 0.19704767
-0.0198036 0.023735441 0.20021936
-0.020206651 0.019913005 0.20282704
-0.020213218 0.016074464 0.2048507
-0.019973766 0.012569245 0.20658465
-0.020434478 0.0088570723 0.20921333
-0.021016654 0.0053683068 0.21136492
-0.0220399 0.0019852568 0.21503185
-0.022537833 -0.0015139611 0.21769221
-0.022980591 -0.0049637822 0.2202778
-0.022699557 -0.0082551111 0.22392674
-0.022473752 -0.011979873 0.22462814
-0.022547361 -0.015778469 0.22699849
-0.022036862 -0.019595262 0.22905777
-0.022213407 -0.023291409 0.22938566
-0.022639891 -0.027378511 0.23386799
-0.015185431 0.040806387 0.18542627
-0.015151309 0.038128387 0.18699418
-0.015227115 0.035283986 0.18929058
-0.015369358 0.032590438 0.19222745
-0.015593212 0.029977735 0.19468346
-0.015841413 0.027271079 0.19860373
-0.016728241 0.023554662 0.2025868
-0.016840994 0.020058664 0.20466976
-0.016904524 0.016653718 0.20613599
-0.016758488 0.013073609 0.2077224
-0.017206766 0.0094779404 0.21098958
-0.017299293 0.0065050665 0.21355461
-0.017973658 0.0027219008 0.21643612
-0.019051267 -0.0011956802 0.21942434
-0.019575406 -0.0046648108 0.22268578
-0.019321216 -0.0079749702 0.22567882
-0.018843101 -0.01184961 0.22637275
-0.018729623 -0.015908031 0.22852199
-0.018347982 -0.019724004 0.22915131
-0.018424567 -0.023511529 0.23085269
-0.018889876 -0.027896825 0.2372272
-0.012538486 0.038055852 0.18832015
-0.012053479 0.035578534 0.19013092
-0.012130987 0.032812525 0.19298215
-0.01224106 0.030079059 0.19574983
-0.012559236 0.027110508 0.19925316
-0.013163363 0.023648016 0.20350629
-0.013156969 0.020468792 0.20589283
-0.013295251 0.017085182 0.20770177
-0.013688789 0.013559516 0.20975991
-0.013771535 0.01019642 0.21286821
-0.014050111 0.0069730738 0.21505691
-0.014071369 0.0035738002 0.21758844
-0.015248024 -0.00076204463 0.22069986
-0.015924763 -0.0041634343 0.22425574
-0.015801994 -0.0076530068 0.22667715
-0.015204211 -0.011687418 0.22821905
-0.014936298 -0.015668649 0.23009831
-0.014798275 -0.019707544 0.23077349
-0.014739066 -0.02382003 0.23424397
-0.01520709 -0.028236244 0.24044229
-0.0097612822 0.03518365 0.19106089
-0.0090237409 0.032961048 0.19376932
-0.0089157587 0.030154418 0.19678383
-0.0090909358 0.027060257 0.19964552
-0.0095315408 0.024009742 0.20347415
-0.0095299762 0.020859409 0.20662162
-0.009543593 0.017583163 0.20904559
-0.010245564 0.014218667 0.21168756
-0.010247305 0.010727663 0.21390192
-0.010298396 0.0074131871 0.21657775
-0.010164145 0.00404672 0.21915349
-0.01054287 5.7220819e-05 0.22166212
-0.011727106 -0.0039575673 0.22496629
-0.011258352 -0.0075510833 0.22716942
-0.011033685 -0.011504415 0.229278
-0.011047862 -0.015581091 0.23118515
-0.010996813 -0.019620594 0.23276018
-0.011050865 -0.023998873 0.23672512
-0.0116209 -0.027478348 0.24112037
-0.005746244 0.032506987 0.19634247
-0.0057199332 0.030118493 0.19849759
-0.0058104056 0.026994733 0.20141074
-0.00604964 0.024047444 0.20428748
-0.0061611352 0.021184336 0.2070355
-0.0061316718 0.017761668 0.20996897
-0.0064199935 0.014332873 0.21239446
-0.0064115715 0.011125765 0.21449572
-0.0064010001 0.0076175812 0.21691878
-0.0066301674 0.0040032743 0.21966814
-0.0067013907 0.00013159899 0.22192153
-0.0068374765 -0.0040797321 0.22452411
-0.0068492838 -0.0078214649 0.22728829
-0.0071037854 -0.011739507 0.22938037
-0.0070404983 -0.01561677 0.2310317
-0.0071635097 -0.019558273 0.23380966
-0.0076049431 -0.023274573 0.23643751
-0.0031939638 0.031945363 0.19805937
-0.0026545669 0.030006599 0.19916679
-0.0025687229 0.026988626 0.20148008
-0.0026524602 0.023993216 0.20403908
-0.0026508777 0.021194052 0.20680022
-0.0028423474 0.017994504 0.21000792
-0.0028673564 0.014472828 0.21281271
-0.0027953754 0.011039489 0.21484858
-0.0027863595 0.0076306039 0.21714564
-0.002994719 0.0039796014 0.21915062
-0.0031133948 -0.00014391151 0.22234464
-0.0030395014 -0.0039572082 0.22392875
-0.0031109902 -0.0079209125 0.22669272
-0.003229809 -0.011514412 0.22836797
-0.0038382872 -0.015074185 0.23007648
5.9227172e-05 0.029516554 0.20004219
0.00065030728 0.02725012 0.20190765
0.00048553341 0.024064129 0.20400032
0.0007362421 0.021364998 0.20642538
0.00074598729 0.018115776 0.20913386
0.00087208947 0.014656673 0.21156983
0.0007690991 0.011174164 0.21424896
0.00074299262 0.0077456604 0.21671757
0.00081494235 0.0041046911 0.21782832
0.00056817016 0.0001666662 0.22111246
0.0008895311 -0.0037330741 0.22315148
0.00022770146 -0.0074770162 0.22581759
-0.00072755542 -0.01062968 0.22847377
0.0035643454 0.027131248 0.20261432
0.0039061967 0.024428222 0.20365432
0.0042272662 0.021494258 0.20587589
0.0043341802 0.018145045 0.2085449
0.0044169044 0.014680752 0.21086279
0.0042017866 0.011380529 0.21304475
0.0037541375 0.0077164457 0.21622662
0.0033603536 0.0044475123 0.2175681
0.0030969193 0.00038665149 0.22016455
0.0031419627 -0.0027207213 0.22244839
0.0057529788 0.024452947 0.2040666
0.0064891968 0.021363769 0.20607919
0.0065846378 0.018250402 0.20835723
0.0064644963 0.014449791 0.21114454
0 0 0 1 0 0 0 1 0 0 0 1 0 0 0 0 0 354 1 0 0
