ply
format ascii 1.0
comment PCL generated
element vertex 354
property float x
property float y
property float z
element camera 1
property float view_px
property float view_py
property float view_pz
property float x_axisx
property float x_axisy
property float x_axisz
property float y_axisx
property float y_axisy
property float y_axisz
property float z_axisx
property float z_axisy
property float z_axisz
property float focal
property float scalex
property float scaley
property float centerx
property float centery
property int viewportx
property int viewporty
property float k1
property float k2
end_header
-0.05579089 0.029934924 0.18690163
-0.056963924 0.026938396 0.18888405
-0.058011711 0.023468427 0.19137238
-0.058684461 0.019786246 0.19341253
-0.058803521 0.016347934 0.1947946
-0.051564556 0.034665618 0.18333027
-0.052369904 0.032858308 0.18407817
-0.05285953 0.0300737 0.18511194
-0.053282194 0.027170071 0.18650778
-0.054266635 0.02401497 0.18919516
-0.055522058 0.020259274 0.19212641
-0.056311909 0.01656561 0.19390197
-0.05662078 0.013537198 0.19515871
-0.056318942 0.010021076 0.19731991
-0.048157908 0.037273906 0.18094675
-0.048758019 0.035424408 0.18159984
-0.049139511 0.032884218 0.18239267
-0.049524788 0.030141572 0.18384132
-0.049944893 0.027260296 0.18581328
-0.050922878 0.024158834 0.18891621
-0.051475957 0.020938892 0.19095126
-0.052610479 0.017956659 0.19325593
-0.053406686 0.013850525 0.19560908
-0.053211827 0.0081388028 0.19965877
-0.05267271 0.0026756159 0.20084493
-0.052409112 -0.00097126036 0.20171036
-0.045846082 0.038041186 0.17979047
-0.046004795 0.035575081 0.18080945
-0.046064861 0.032884095 0.18203337
-0.046366788 0.030086305 0.18390159
-0.04692328 0.027406316 0.18592769
-0.047773566 0.024429746 0.18889475
-0.048116621 0.021317249 0.19060637
-0.048853148 0.018494489 0.19333626
-0.049942054 0.013774686 0.19626455
-0.049368955 0.0066369032 0.19883206
-0.04922225 0.0014923865 0.19987416
-0.049222495 -0.0017459107 0.20242575
-0.049505834 -0.0041254363 0.20519261
-0.05105406 -0.0052281353 0.20731804
-0.042748135 0.040460277 0.17886403
-0.043046471 0.038473003 0.17990826
-0.043136399 0.035956405 0.18125002
-0.043156531 0.033229496 0.18290691
-0.043488763 0.030483512 0.18473405
-0.044057641 0.02755796 0.18639636
-0.044827066 0.024621598 0.18890074
-0.045130279 0.02155689 0.19024643
-0.045469139 0.01865699 0.1929744
-0.045975324 0.013273897 0.19587544
-0.04634463 0.0068707541 0.19733129
-0.046147142 0.0012182985 0.19892761
-0.046059601 -0.001146625 0.20272395
-0.04665168 -0.0028841384 0.20573711
-0.048532117 -0.0050153276 0.20875056
-0.050282564 -0.0072371732 0.21292782
-0.051347639 -0.010328843 0.21616532
-0.051166415 -0.012391874 0.21914992
-0.040187605 0.041296992 0.17879979
-0.040280323 0.038778137 0.18034467
-0.040259313 0.036204148 0.18177883
-0.040411424 0.033653695 0.18348585
-0.040865935 0.030853353 0.18526663
-0.04118735 0.027817214 0.18718272
-0.041804001 0.02457447 0.1890455
-0.042015966 0.021395026 0.19006047
-0.042507928 0.018635023 0.19245173
-0.042744577 0.014038853 0.19480971
-0.043201905 0.0074764518 0.19616003
-0.043022249 0.0023636252 0.19710682
-0.042512443 -0.0007326788 0.20095341
-0.042784661 -0.0026577467 0.20504412
-0.045129154 -0.0047588097 0.20980504
-0.047246184 -0.0066983188 0.21428691
-0.048176132 -0.01013936 0.21683429
-0.048833124 -0.012646683 0.21973221
-0.049058471 -0.015631277 0.22284646
-0.048721313 -0.018261559 0.22538389
-0.036937535 0.043446478 0.17777553
-0.037198797 0.041759882 0.1793088
-0.037399027 0.039239716 0.18090487
-0.037409969 0.036735263 0.18226299
-0.037487175 0.034061838 0.18429519
-0.037965402 0.031304877 0.18621553
-0.038140908 0.028215131 0.18763569
-0.03863252 0.02472445 0.18943852
-0.039117765 0.021571659 0.19062193
-0.039401293 0.018610308 0.19240166
-0.039640691 0.014154959 0.19441417
-0.040301833 0.0084386384 0.19566071
-0.039968155 0.0035465814 0.1957113
-0.039192099 -0.00028701386 0.19792721
-0.039369572 -0.0024066805 0.20474304
-0.041823234 -0.0045203036 0.21090321
-0.043945134 -0.0063482756 0.21513036
-0.044648953 -0.0099860067 0.21727447
-0.045121502 -0.013075527 0.21980907
-0.045195106 -0.016152686 0.22194232
-0.045456052 -0.019112905 0.2242617
-0.045186751 -0.021558207 0.22648692
-0.034098033 0.043769088 0.17839356
-0.034189455 0.042135656 0.17983992
-0.034297269 0.039631616 0.18152803
-0.03448591 0.037130333 0.18295075
-0.034321126 0.034265552 0.18492146
-0.034713335 0.031274475 0.18714474
-0.035169885 0.028295152 0.188912
-0.035651077 0.025171036 0.19056025
-0.036206815 0.021967184 0.19181429
-0.036438253 0.018678198 0.1937588
-0.036761343 0.014135221 0.19514592
-0.037253238 0.008975639 0.19594829
-0.037185632 0.0047886474 0.19651377
-0.03653064 0.00048823579 0.19757162
-0.036851399 -0.0023220587 0.20513637
-0.039034698 -0.0043135951 0.21190642
-0.040292434 -0.0064403755 0.21588537
-0.040964738 -0.010223874 0.2173173
-0.041129548 -0.013492506 0.21933311
-0.041318458 -0.016556472 0.22166996
-0.04125062 -0.019479046 0.22339794
-0.041471832 -0.022400258 0.22565986
-0.030713839 0.04411044 0.17943159
-0.030903319 0.042383593 0.18042652
-0.031011831 0.039793182 0.18222046
-0.031134557 0.037179884 0.18471242
-0.031398878 0.034313165 0.18644023
-0.031614438 0.031308684 0.18870035
-0.031909898 0.028356832 0.19059578
-0.032400161 0.02530908 0.19210483
-0.033159956 0.02236864 0.19286244
-0.033484757 0.018852245 0.19480065
-0.033827636 0.014421383 0.19604203
-0.034410272 0.0093987957 0.19718288
-0.034374479 0.0052988222 0.19823577
-0.034015305 0.0016111204 0.19971645
-0.034984119 -0.00099104072 0.20691554
-0.036614414 -0.003833598 0.21247505
-0.037245683 -0.0065804715 0.21540013
-0.037746008 -0.010511774 0.21744303
-0.037761953 -0.013585982 0.21966137
-0.037834994 -0.016541537 0.22180399
-0.037737541 -0.019606138 0.22290745
-0.037930477 -0.022594078 0.22518764
-0.027577816 0.044316519 0.17991972
-0.027536992 0.042496659 0.18104394
-0.027667712 0.039889105 0.1830142
-0.027963312 0.037213575 0.18615608
-0.028477259 0.034456313 0.1882371
-0.028658241 0.031555388 0.19013447
-0.028658476 0.028561508 0.19136098
-0.028714228 0.02570862 0.19296908
-0.028995881 0.022658627 0.1947158
-0.030092375 0.019419031 0.19633093
-0.031029135 0.01391496 0.19756702
-0.031218562 0.0096835671 0.19927728
-0.030704405 0.0062879804 0.20137823
-0.030660601 0.0030929737 0.20477745
-0.031664539 0.00029375675 0.20904087
-0.032918103 -0.0031686586 0.21257856
-0.033678059 -0.0064908168 0.2156239
-0.034672584 -0.010201638 0.21820512
-0.034453101 -0.01325035 0.22027546
-0.034454107 -0.016188947 0.2226225
-0.034336884 -0.019416066 0.22415565
-0.034132287 -0.022859756 0.22721879
-0.033500042 -0.025430795 0.22990109
-0.024172429 0.044333968 0.18070863
-0.024292726 0.042698927 0.18183753
-0.024185682 0.040050268 0.18341814
-0.024667535 0.037450094 0.18626076
-0.025368361 0.034778971 0.18883403
-0.025546573 0.031880483 0.19104414
-0.025526732 0.02895553 0.1923553
-0.025500096 0.025843848 0.19438228
-0.025420545 0.022977257 0.19665281
-0.026448384 0.019597651 0.19896111
-0.026531234 0.01466029 0.20111272
-0.026547959 0.010805913 0.20232272
-0.026875291 0.0072070668 0.20468692
-0.027445836 0.0040729861 0.20759019
-0.028525446 0.0011319827 0.2106737
-0.029580871 -0.0023136172 0.21402691
-0.030330412 -0.0063943504 0.21619481
-0.03073037 -0.0094184512 0.21997239
-0.030490398 -0.012630362 0.22156808
-0.030553589 -0.015888069 0.22466773
-0.030118218 -0.019392664 0.22685048
-0.030033179 -0.022936841 0.22893091
-0.030039728 -0.026607804 0.23093618
-0.021026518 0.044702966 0.18119112
-0.021050999 0.042994853 0.18229203
-0.021082887 0.040280327 0.1836741
-0.021181744 0.037803732 0.18559375
-0.021889228 0.035080899 0.18908887
-0.022167845 0.03240921 0.19177569
-0.02224494 0.029520236 0.19361959
-0.022121405 0.026576838 0.19578956
-0.022516932 0.023400081 0.19845681
-0.02314326 0.019542038 0.2008934
-0.023137046 0.015321623 0.20262614
-0.022980263 0.011405522 0.20430245
-0.023547186 0.0076010991 0.20627145
-0.024235738 0.0047677844 0.20967449
-0.025417658 0.0017536057 0.21287109
-0.02622248 -0.0016039199 0.21568689
-0.026731288 -0.005681186 0.21791038
-0.026478652 -0.009012064 0.22165996
-0.026494306 -0.01238269 0.22277303
-0.026321232 -0.015868636 0.22611271
-0.026086807 -0.019573839 0.22821048
-0.026175285 -0.02332445 0.22980605
-0.026446957 -0.027015872 0.23205742
-0.018371854 0.042937882 0.18319625
-0.018057978 0.04067504 0.18467841
-0.018095214 0.037907176 0.1859384
-0.018439587 0.035125539 0.18911858
-0.018868737 0.032516129 0.19208193
-0.019025477 0.02984759 0.19413285
-0.019188078 0.027073296 0.19691403
-0.019731363 0.023518186 0.19994326
-0.020170359 0.019692482 0.20248178
-0.020172197 0.015792865 0.2044365
-0.019902844 0.012189695 0.20606747
-0.020381439 0.0084400764 0.20865421
-0.021005539 0.0049072206 0.21082188
-0.022094054 0.0014426026 0.21452348
-0.022659497 -0.0020059363 0.21727118
-0.023098845 -0.0054084347 0.21993731
-0.02279756 -0.0085883001 0.22362158
-0.022591101 -0.012190054 0.22445624
-0.022674996 -0.015874812 0.22690088
-0.022109276 -0.019622631 0.22880848
-0.022261839 -0.023309615 0.22914533
-0.02270508 -0.027349997 0.23368216
-0.015225791 0.040806446 0.18543614
-0.015158908 0.038110867 0.18695208
-0.015216048 0.035201963 0.18921638
-0.015346201 0.032478832 0.19212194
-0.015567643 0.029877821 0.19458611
-0.015792677 0.027152145 0.19847679
-0.016747095 0.023375081 0.20232105
-0.016857451 0.019853551 0.20437156
-0.016904823 0.016406948 0.20578918
-0.016745348 0.012786761 0.20729533
-0.017212981 0.0091577712 0.21053702
-0.017319351 0.0061781621 0.21316329
-0.018044954 0.0023612767 0.21606681
-0.019168841 -0.0016457642 0.21906848
-0.019672895 -0.005091453 0.22234967
-0.019396205 -0.0082899816 0.22534317
-0.018941401 -0.012038672 0.2261229
-0.018852372 -0.015972691 0.22834255
-0.018440222 -0.019724552 0.22896646
-0.018500017 -0.023506915 0.23065852
-0.018955095 -0.027902514 0.23711157
-0.012546391 0.038029414 0.18825522
-0.012035618 0.035510715 0.19001876
-0.012095615 0.032703921 0.19284554
-0.012197183 0.029977094 0.19559447
-0.012518987 0.027001537 0.19910763
-0.013172315 0.023529373 0.20331448
-0.013180258 0.02032228 0.20565628
-0.013319528 0.016907709 0.20739555
-0.013744415 0.013331966 0.2094216
-0.013818742 0.00994296 0.21252564
-0.014094731 0.0067210225 0.21472496
-0.014132143 0.0033452818 0.21731281
-0.015351129 -0.0011634568 0.22038184
-0.016032193 -0.0045760712 0.22390924
-0.015891051 -0.0079259221 0.22629102
-0.015309087 -0.011783349 0.22787136
-0.015082641 -0.015646065 0.22988281
-0.014930418 -0.019643124 0.23065934
-0.014829458 -0.023782402 0.23409992
-0.015285429 -0.028227849 0.2403082
-0.009725499 0.035108529 0.19095707
-0.008999275 0.032893803 0.19366592
-0.0088856854 0.030094016 0.19667926
-0.0090733673 0.027020631 0.19961481
-0.0095481118 0.023984676 0.20343043
-0.009576669 0.020805487 0.20651837
-0.0096044997 0.017500157 0.20887859
-0.010344536 0.014060155 0.21146946
-0.01032286 0.010542772 0.21365374
-0.010353749 0.0072077098 0.21630794
-0.010194578 0.0038634876 0.21888821
-0.010552878 -0.00015954195 0.22139429
-0.011784913 -0.0042254822 0.22461852
-0.011331822 -0.0077113374 0.22677664
-0.011143366 -0.011537627 0.22896549
-0.011192206 -0.015538009 0.23099592
-0.011150238 -0.019531291 0.23266579
-0.01115024 -0.023953279 0.23661569
-0.011699228 -0.027435744 0.2410233
-0.0057546441 0.032496292 0.19629641
-0.0057313815 0.030116135 0.19848694
-0.0058315187 0.027033268 0.20150138
-0.0060843611 0.024080461 0.20434941
-0.0062177698 0.021160003 0.20701505
-0.0061943079 0.017691549 0.20984118
-0.006500443 0.01419516 0.21216433
-0.0064850869 0.010951294 0.21421108
-0.0064576273 0.0074631451 0.21666463
-0.0066627013 0.0038694555 0.2194138
-0.0067088488 2.1894664e-05 0.22170077
-0.0068410342 -0.0041747405 0.22429921
-0.006888181 -0.0079175886 0.22700682
-0.0072035352 -0.01176387 0.22911932
-0.0071861953 -0.015575196 0.2308773
-0.0073014516 -0.019467024 0.23373024
-0.0077250153 -0.023199283 0.236343
-0.0032277491 0.031968139 0.1980885
-0.0026739899 0.030026222 0.19924696
-0.0025900917 0.027034579 0.20163463
-0.0026752765 0.024044443 0.20417044
-0.0026891828 0.021167345 0.20678976
-0.0028993497 0.017899284 0.209895
-0.0029496143 0.014345991 0.21259508
-0.0028620288 0.010893795 0.21456954
-0.0028469444 0.0075305211 0.21690533
-0.0030246982 0.0038968669 0.21893856
-0.0031294124 -0.00020533511 0.22215265
-0.0030390837 -0.0040084599 0.22374502
-0.003148176 -0.0079932474 0.22647266
-0.0033051863 -0.011575142 0.22817831
-0.0039606998 -0.01505284 0.22993872
3.7362774e-05 0.029534841 0.20012671
0.00063116255 0.027293814 0.202062
0.00046509874 0.024112185 0.20415384
0.00069561577 0.021349331 0.2064627
0.00067702378 0.018022802 0.209049
0.00078357052 0.014558297 0.21143807
0.00069792412 0.011092699 0.21405579
0.00067692221 0.0076792571 0.2165049
0.00078664912 0.004074642 0.21763782
0.00055636093 0.00014846772 0.22094342
0.00088896294 -0.0037439966 0.22300632
0.00020735996 -0.0075294827 0.22566496
-0.00080718944 -0.010673436 0.22829504
0.0035190426 0.027166637 0.20280005
0.0038684767 0.024472449 0.20384012
0.0041887006 0.021497749 0.20595622
0.0042610271 0.018062733 0.20849016
0.0043410193 0.01460481 0.21073987
0.0041346583 0.011314793 0.21289116
0.0036961513 0.0076602339 0.2160399
0.0033193566 0.004413032 0.2173986
0.003075683 0.00038548824 0.22002062
0.003130876 -0.0027149417 0.22231726
0.005703561 0.024482552 0.20425925
0.0064285002 0.021355215 0.20613344
0.0065083974 0.018180763 0.20830211
0.006381386 0.014367178 0.21103425
0 0 0 1 0 0 0 1 0 0 0 1 0 0 0 0 0 354 1 0 0
