ply
format ascii 1.0
comment PCL generated
element vertex 354
property float x
property float y
property float z
element camera 1
property float view_px
property float view_py
property float view_pz
property float x_axisx
property float x_axisy
property float x_axisz
property float y_axisx
property float y_axisy
property float y_axisz
property float z_axisx
property float z_axisy
property float z_axisz
property float focal
property float scalex
property float scaley
property float centerx
property float centery
property int viewportx
property int viewporty
property float k1
property float k2
end_header
-0.056087013 0.03023959 0.18792471
-0.057256464 0.02728245 0.1902315
-0.058046687 0.023837211 0.19306676
-0.058544096 0.019970398 0.19513869
-0.058713257 0.01634096 0.19631791
-0.051967401 0.034828894 0.18382639
-0.05279658 0.033100523 0.18489006
-0.053269774 0.03038105 0.18616222
-0.053663798 0.027581088 0.18774118
-0.054575156 0.024447994 0.19052432
-0.05561645 0.020468319 0.19353814
-0.056366067 0.016505886 0.19514434
-0.05672757 0.012873038 0.19604187
-0.056306887 0.009181493 0.19767177
-0.04864043 0.03687929 0.18058634
-0.049228102 0.035284828 0.18175113
-0.049631406 0.03302753 0.18307078
-0.050026707 0.030521637 0.18502842
-0.050392054 0.02776775 0.18707445
-0.051243097 0.02456042 0.18996353
-0.05166794 0.021221317 0.19193269
-0.052730236 0.017374827 0.19369215
-0.05345263 0.01290277 0.19579597
-0.053082768 0.0068708188 0.19944385
-0.052566476 0.0012953028 0.19995582
-0.052203242 -0.002450899 0.20039536
-0.046273004 0.037281815 0.17898236
-0.046499852 0.035139576 0.18057615
-0.04660761 0.032869693 0.18251899
-0.046850119 0.030480167 0.18501168
-0.047394339 0.027910508 0.18699789
-0.048081432 0.024774803 0.18962876
-0.048358232 0.021531973 0.19123968
-0.049025152 0.017834222 0.1930684
-0.04998415 0.012559105 0.19555685
-0.049354967 0.0053224121 0.19782567
-0.049102671 0.00013885227 0.19856389
-0.049016759 -0.0033123882 0.20090403
-0.049413528 -0.0058557047 0.20320024
-0.051048923 -0.0070053716 0.20515893
-0.043068241 0.039723717 0.17790988
-0.043398842 0.037797332 0.17911479
-0.043525346 0.035518616 0.18079132
-0.043562405 0.033139139 0.18300687
-0.04388088 0.030665018 0.1851697
-0.044509202 0.027846282 0.18686804
-0.045161795 0.024836918 0.18925649
-0.045422629 0.021647163 0.19057025
-0.045690548 0.017845275 0.19223581
-0.046017915 0.012201298 0.19492102
-0.046273194 0.0056365887 0.19643556
-0.046012286 1.1598869e-05 0.19773859
-0.045875642 -0.0026517492 0.20126958
-0.046557475 -0.0046401885 0.2038216
-0.04860761 -0.00700279 0.20642762
-0.050489798 -0.0094943317 0.21032619
-0.051519394 -0.011243447 0.21466795
-0.051392697 -0.013196055 0.21772619
-0.040411185 0.040773895 0.17804332
-0.040549096 0.038306247 0.17966658
-0.04055196 0.035873808 0.18131073
-0.040730279 0.033557236 0.18337487
-0.041216552 0.03094098 0.18544869
-0.041611928 0.027980013 0.18738499
-0.042184599 0.024672037 0.18907461
-0.042365525 0.021432014 0.1900778
-0.042731151 0.017838398 0.1915933
-0.042761359 0.013137211 0.19400388
-0.043034099 0.0064837174 0.19577539
-0.04279523 0.0013519453 0.19638214
-0.042369351 -0.0019689049 0.19976926
-0.042697411 -0.0043623629 0.20318927
-0.045199201 -0.0069190282 0.2073572
-0.047480997 -0.008896606 0.21152779
-0.048386436 -0.011000768 0.21531595
-0.049128566 -0.013406382 0.21828513
-0.049435996 -0.016135193 0.22175825
-0.048995364 -0.018147713 0.22494037
-0.037118301 0.043268956 0.17745525
-0.03737342 0.041572407 0.17896056
-0.037576035 0.039037693 0.18049987
-0.037575677 0.03655795 0.18192831
-0.037778281 0.034063842 0.18433179
-0.038330007 0.031495176 0.18648534
-0.038571548 0.028456751 0.18795626
-0.038978368 0.024788475 0.18928367
-0.039538439 0.021632267 0.19063228
-0.039652515 0.018195054 0.1919179
-0.039644875 0.013452971 0.19362378
-0.040216852 0.0076922043 0.1954774
-0.039691512 0.0027461511 0.19548827
-0.039003007 -0.0011657177 0.19731972
-0.039309464 -0.0040544034 0.20300817
-0.041893132 -0.0068793669 0.20828892
-0.044197589 -0.0085680094 0.21215478
-0.044877123 -0.010825008 0.21577293
-0.045503598 -0.013859209 0.21842855
-0.045471966 -0.0165361 0.22120678
-0.045685522 -0.019031484 0.22414307
-0.045365401 -0.021123566 0.22671466
-0.03435006 0.0438198 0.17842044
-0.03440845 0.042195011 0.1798414
-0.034462303 0.039656486 0.18150403
-0.034653421 0.037132058 0.18284696
-0.034614183 0.034437593 0.18518437
-0.035053696 0.031524755 0.18765441
-0.035553675 0.028589416 0.18943194
-0.036037356 0.025410656 0.19080552
-0.036665443 0.022208866 0.19186619
-0.036632337 0.018366417 0.19314957
-0.036705121 0.013609027 0.19420928
-0.037189893 0.0081823794 0.19538692
-0.037169408 0.0040277136 0.19626983
-0.03646398 -0.00027389944 0.19728911
-0.036868092 -0.0039293822 0.2034115
-0.039163209 -0.0067427298 0.20907292
-0.040632684 -0.0086854408 0.21270487
-0.041202914 -0.010970362 0.21588013
-0.041432336 -0.014217355 0.21832632
-0.041556519 -0.016673056 0.22125268
-0.041377194 -0.019331057 0.22344711
-0.041487664 -0.021968763 0.22591281
-0.030997321 0.044398692 0.17985803
-0.031138331 0.042672951 0.1808546
-0.031221842 0.040073171 0.18263347
-0.031303518 0.037408836 0.18513729
-0.031633779 0.034505982 0.18688729
-0.031857543 0.03149819 0.18920934
-0.032190211 0.028537849 0.19107281
-0.032733709 0.02552543 0.19261026
-0.033602238 0.022749117 0.19294126
-0.033609014 0.018661395 0.19401285
-0.033643924 0.013983689 0.19485234
-0.034234393 0.008511615 0.19622433
-0.034340799 0.0044274107 0.19764994
-0.034041286 0.00079581648 0.19925065
-0.035142049 -0.0023787369 0.20510334
-0.036939703 -0.00588394 0.20957378
-0.037606645 -0.008555674 0.21257602
-0.038044665 -0.011331238 0.21613915
-0.038122803 -0.013975607 0.21890871
-0.038135614 -0.016463429 0.2214343
-0.037958656 -0.019358102 0.22279659
-0.037952576 -0.022128569 0.22520971
-0.027811402 0.044667285 0.18044765
-0.027757667 0.042848937 0.18159534
-0.027866377 0.040245015 0.18357876
-0.028080087 0.037409209 0.18665755
-0.028648417 0.034559295 0.18863741
-0.028807908 0.031590793 0.1905091
-0.028793052 0.02852474 0.19159648
-0.028745871 0.025533883 0.1929871
-0.028912589 0.022417374 0.19432092
-0.030079449 0.019289985 0.19540811
-0.030694878 0.013293746 0.19607154
-0.030885903 0.0087397667 0.19796695
-0.030439369 0.0053925831 0.20021497
-0.030603161 0.0022360957 0.20346911
-0.031708516 -0.00094978296 0.20731318
-0.033183299 -0.00471676 0.21028595
-0.034183193 -0.0080535468 0.21320534
-0.035091273 -0.010863255 0.21691889
-0.034854628 -0.013492038 0.21914262
-0.034730703 -0.016026283 0.22185004
-0.034492001 -0.019110002 0.22358042
-0.033974074 -0.02246177 0.22662219
-0.033095516 -0.025071267 0.22909062
-0.024365461 0.044628821 0.18110962
-0.024456045 0.042970229 0.18225622
-0.024294984 0.040298909 0.18376198
-0.024771105 0.037628975 0.18660013
-0.025529571 0.034824524 0.18920125
-0.025610374 0.0317812 0.19127546
-0.025503816 0.028772745 0.19240873
-0.025338253 0.025459243 0.19415623
-0.025135195 0.022334978 0.19619827
-0.026230836 0.01871842 0.19805089
-0.026399145 0.013677383 0.20024657
-0.02609954 0.0097188801 0.20088533
-0.026544306 0.0061037163 0.2031817
-0.027247725 0.0029837254 0.20603278
-0.028481347 -0.00013691542 0.20899257
-0.029721526 -0.0037500863 0.21197677
-0.030607462 -0.007120281 0.21477488
-0.03091513 -0.0098477919 0.21857946
-0.030517515 -0.012834021 0.21979208
-0.030509869 -0.015769068 0.22320193
-0.029953888 -0.01914262 0.22544886
-0.029710809 -0.022635851 0.22748177
-0.029767999 -0.026124094 0.22949614
-0.02112915 0.044932306 0.1814647
-0.021122547 0.043217294 0.18252997
-0.021148603 0.040484618 0.18387252
-0.021226732 0.038029138 0.18580073
-0.021942969 0.035163362 0.18942378
-0.022151779 0.03230368 0.19199052
-0.022127723 0.029300962 0.19362566
-0.021890108 0.026151396 0.1955452
-0.022334792 0.022701407 0.19812323
-0.02319641 0.018811727 0.20086779
-0.023052743 0.014543593 0.20250237
-0.022473957 0.010575693 0.20356758
-0.02305712 0.0068231449 0.20517775
-0.023928767 0.0035179821 0.20801872
-0.025231 0.00034705337 0.21107902
-0.02616965 -0.0030982473 0.21373999
-0.026691118 -0.0064080171 0.21648151
-0.026014185 -0.0095143272 0.2196373
-0.025940567 -0.012679476 0.22050589
-0.025860649 -0.015876779 0.22385858
-0.025563117 -0.019478654 0.22579482
-0.025813265 -0.022980878 0.22797549
-0.026267922 -0.026428599 0.23070383
-0.018434368 0.043138754 0.18342535
-0.018105244 0.040903408 0.18491289
-0.018154781 0.038138747 0.18622208
-0.018476034 0.035261933 0.18946953
-0.018802635 0.032488409 0.19237231
-0.01891033 0.029708272 0.19423509
-0.01899099 0.026717983 0.19681504
-0.019721091 0.022844398 0.19972883
-0.020270498 0.019084817 0.20252524
-0.020166846 0.015141716 0.20444945
-0.019485019 0.01140877 0.20550962
-0.019840991 0.0075160163 0.20766845
-0.020627378 0.0040441016 0.20981684
-0.021904461 0.00044793697 0.21330997
-0.022464514 -0.0029381288 0.21599187
-0.022721279 -0.0061973878 0.21843077
-0.022187278 -0.0091538243 0.2216128
-0.021945005 -0.012528442 0.22227547
-0.022138534 -0.015907934 0.22468935
-0.021574648 -0.019554211 0.22663283
-0.02184785 -0.023105673 0.22750488
-0.02259 -0.026803739 0.23243248
-0.015282403 0.041046534 0.18577927
-0.015229385 0.038347762 0.18730867
-0.015240837 0.035348229 0.18960914
-0.015289004 0.032487337 0.19242701
-0.01546367 0.029788157 0.19474919
-0.015692975 0.026857182 0.19849405
-0.016953344 0.022926753 0.20217599
-0.017051158 0.019411767 0.20435762
-0.017002378 0.015950412 0.20582306
-0.016503537 0.012288015 0.20697324
-0.016927836 0.0085202698 0.20996085
-0.017122064 0.0055302079 0.212679
-0.017803252 0.0015317826 0.21523297
-0.01888245 -0.0024766568 0.21787871
-0.019213716 -0.0058295922 0.2207734
-0.018787911 -0.008815934 0.22342336
-0.018325416 -0.012296565 0.22406395
-0.018350575 -0.016005078 0.22624448
-0.017939838 -0.019672954 0.22723433
-0.018174678 -0.023268102 0.2292241
-0.018876951 -0.02748663 0.23597041
-0.012638774 0.038271312 0.18866912
-0.012084865 0.035684641 0.19039348
-0.012104845 0.032763425 0.19310914
-0.012173433 0.029924801 0.19568233
-0.012553337 0.026819129 0.19907212
-0.013351548 0.023317447 0.20324266
-0.013398844 0.020129358 0.20565793
-0.013555137 0.016777854 0.20750386
-0.013861085 0.01315704 0.2095006
-0.013872898 0.0096554598 0.21256985
-0.014094866 0.0063566063 0.2146409
-0.014099088 0.0029145631 0.21719755
-0.015070485 -0.0018221958 0.21936001
-0.015628323 -0.0052904538 0.22249174
-0.015316012 -0.008305707 0.22456616
-0.014777979 -0.011769106 0.2261335
-0.014692632 -0.015503207 0.22829719
-0.014562586 -0.01939901 0.22931823
-0.01462625 -0.023425709 0.23295863
-0.015398826 -0.027822778 0.2391873
-0.0097979223 0.035327863 0.19138849
-0.0090807499 0.033069924 0.19400577
-0.0089193005 0.030131448 0.19686928
-0.0091171535 0.027067861 0.199734
-0.0096897231 0.023964113 0.2035265
-0.009743806 0.020797495 0.20664459
-0.0098294411 0.017576557 0.20905809
-0.010642787 0.014092457 0.21188459
-0.010560316 0.010553755 0.21403742
-0.010492392 0.0071502016 0.21658845
-0.010216954 0.0038775753 0.2191851
-0.010403517 -0.0002196265 0.22145371
-0.011414086 -0.0045272061 0.22383146
-0.010786298 -0.0077255662 0.22566
-0.010716149 -0.011357316 0.22774673
-0.010904583 -0.015314051 0.22985095
-0.01098591 -0.019179026 0.23169447
-0.011130936 -0.023458758 0.23579594
-0.011872228 -0.026908671 0.24026196
-0.0059180558 0.032714672 0.19669962
-0.0058394116 0.030246545 0.19877242
-0.0059031211 0.02725732 0.20174986
-0.0061962246 0.02416198 0.20451611
-0.0063995314 0.02105427 0.20699522
-0.0063469741 0.017604539 0.20974621
-0.0067122574 0.014151747 0.21221113
-0.0066539203 0.010888626 0.21430406
-0.0065357797 0.0074367379 0.21673019
-0.0065952986 0.0038738071 0.21950144
-0.0065534133 6.2468491e-05 0.22179805
-0.0065759234 -0.0041081049 0.22429278
-0.0064397575 -0.0077616638 0.22652724
-0.0068226787 -0.011511607 0.22834347
-0.0069445027 -0.015243734 0.23016056
-0.0072359447 -0.01893972 0.23325552
-0.0077632493 -0.0226069 0.23585917
-0.003359304 0.032170396 0.19845021
-0.0027214254 0.030160617 0.1994524
-0.0026120353 0.027193287 0.20175441
-0.0027811795 0.02409601 0.20426232
-0.0028399436 0.020960895 0.20655999
-0.0030243637 0.017701207 0.20963323
-0.0030847173 0.014242528 0.21241069
-0.0029814555 0.010781449 0.21437137
-0.0028719525 0.007453111 0.2166459
-0.0029728971 0.0037997027 0.21871373
-0.0029346591 -0.0001877363 0.22202708
-0.0028156037 -0.0039732791 0.22366525
-0.0027808216 -0.0078676827 0.22621596
-0.0028867836 -0.011376581 0.22783433
-0.003661334 -0.014645008 0.22952199
5.9238879e-05 0.029524799 0.20000018
0.00059994933 0.027271917 0.20199521
0.00033807018 0.024054613 0.20415226
0.00052912399 0.021143248 0.20622937
0.00050454639 0.017766574 0.20876096
0.00067490066 0.014504202 0.2113204
0.00064103951 0.011112138 0.21388583
0.00065912527 0.0075592729 0.21606213
0.000819718 0.0039059352 0.21704932
0.00072338904 9.0917383e-05 0.22059257
0.001083479 -0.0037379309 0.22278793
0.00055157184 -0.0074686874 0.22548826
-0.00048055113 -0.01046519 0.22810192
0.0034532892 0.02700964 0.20265746
0.0037202416 0.024342252 0.20374005
0.0040442599 0.021315522 0.20573218
0.0041275108 0.017870283 0.20832074
0.0042771758 0.01464399 0.21074194
0.004090881 0.011423862 0.21283346
0.0037113519 0.0076033771 0.21562767
0.0033497536 0.0042479169 0.21673928
0.0032032295 0.00028495345 0.2195093
0.0033214272 -0.0027669724 0.22195424
0.0055481726 0.024296697 0.20413251
0.0062755677 0.021196593 0.2059014
0.0064112102 0.018070659 0.20818052
0.0063086096 0.014433873 0.21107025
0 0 0 1 0 0 0 1 0 0 0 1 0 0 0 0 0 354 1 0 0
