ply
format ascii 1.0
comment PCL generated
element vertex 354
property float x
property float y
property float z
element camera 1
property float view_px
property float view_py
property float view_pz
property float x_axisx
property float x_axisy
property float x_axisz
property float y_axisx
property float y_axisy
property float y_axisz
property float z_axisx
property float z_axisy
property float z_axisz
property float focal
property float scalex
property float scaley
property float centerx
property float centery
property int viewportx
property int viewporty
property float k1
property float k2
end_header
-0.056017559 0.028204968 0.18764372
-0.057028752 0.025281867 0.18981226
-0.057918806 0.021753201 0.19206344
-0.058496121 0.018026261 0.19374524
-0.058481019 0.014800738 0.19498608
-0.052006375 0.032794289 0.18369177
-0.052744031 0.031018607 0.18449296
-0.053202398 0.028370244 0.18558861
-0.053572185 0.025691483 0.18715683
-0.054512043 0.022489004 0.18970138
-0.055649422 0.018439116 0.19197151
-0.056437016 0.014616587 0.19378664
-0.056670684 0.011027831 0.19487944
-0.055943791 0.007449612 0.19666092
-0.048746627 0.035374518 0.18110913
-0.049269035 0.033587646 0.18187431
-0.049563095 0.031117748 0.18267094
-0.049873736 0.028410088 0.18403742
-0.050263915 0.025755154 0.18598062
-0.051233429 0.022500465 0.18877505
-0.051764857 0.019024981 0.19029555
-0.052835025 0.015131535 0.19151692
-0.053470194 0.010867687 0.19424467
-0.052816566 0.0048538293 0.19822241
-0.052253503 -0.00086450326 0.19896421
-0.051838063 -0.0046467977 0.19967328
-0.046557721 0.036105383 0.17969817
-0.046583388 0.033753142 0.18084933
-0.046539459 0.031150769 0.18209767
-0.046705447 0.028303169 0.18376549
-0.047268748 0.025648018 0.18551263
-0.048061166 0.02258054 0.1879935
-0.048412036 0.019310979 0.18929984
-0.049088676 0.015434992 0.19053985
-0.050028894 0.010453631 0.19355886
-0.049109515 0.002908716 0.19648109
-0.048798285 -0.002463002 0.19738391
-0.048669059 -0.0056499466 0.20005859
-0.049286965 -0.0079767285 0.20220195
-0.05102051 -0.0088612279 0.20387621
-0.043589998 0.038625762 0.17873578
-0.043796841 0.036644328 0.17971633
-0.043745533 0.034164298 0.18106304
-0.043655608 0.031517815 0.18267669
-0.043883789 0.028743019 0.18423961
-0.044470575 0.025828652 0.18556404
-0.045188252 0.022661168 0.1875475
-0.045461159 0.019454557 0.18852083
-0.045699947 0.015573172 0.18951808
-0.046203405 0.0097327083 0.19234256
-0.046352953 0.0030616701 0.19458911
-0.045746766 -0.0026784095 0.19637598
-0.045602638 -0.0049073682 0.20029674
-0.046411145 -0.0068504326 0.20270088
-0.048826162 -0.0092513589 0.20499142
-0.050909322 -0.011810884 0.20866935
-0.052114122 -0.013031415 0.21361399
-0.052245863 -0.014599445 0.21695365
-0.041089397 0.0396051 0.17867385
-0.041064579 0.037098084 0.18016191
-0.040918257 0.034604348 0.18150494
-0.040988524 0.032076899 0.18299757
-0.041421961 0.029254194 0.18453361
-0.041686293 0.026118601 0.1862178
-0.042199578 0.022665644 0.18757518
-0.042345349 0.019330531 0.18815087
-0.04272816 0.015482728 0.18875377
-0.042995572 0.010564209 0.1909145
-0.04331458 0.0037733673 0.19293292
-0.042648207 -0.0012187806 0.19472727
-0.042160932 -0.0038498805 0.19899166
-0.042591128 -0.0064946413 0.20221719
-0.045458306 -0.0094708204 0.20584741
-0.047999319 -0.011267499 0.20986477
-0.04913621 -0.012742502 0.21440148
-0.050013065 -0.014707715 0.21768357
-0.050249714 -0.016944209 0.22162141
-0.049758565 -0.01903655 0.22480826
-0.037914176 0.042110436 0.17764981
-0.038167614 0.040401511 0.17917177
-0.038208775 0.037841316 0.18072145
-0.038139053 0.035367981 0.18198885
-0.038159229 0.032606672 0.18373422
-0.038572647 0.029738665 0.18544602
-0.038641181 0.026542475 0.18667634
-0.039016549 0.022851896 0.18798903
-0.039408658 0.019478755 0.18866386
-0.039351318 0.015687967 0.18894185
-0.039738126 0.010905906 0.19063315
-0.04049731 0.0050140643 0.1923857
-0.039618168 0.00031466124 0.19375432
-0.038771261 -0.0028283957 0.19681649
-0.039270185 -0.0057925372 0.20231649
-0.042235922 -0.0097556347 0.20669714
-0.044787388 -0.011073668 0.21045063
-0.045699585 -0.012529378 0.21497563
-0.046428617 -0.015063823 0.21818572
-0.046357829 -0.017580282 0.2211792
-0.046515979 -0.020174269 0.22394966
-0.046227667 -0.022282522 0.2264199
-0.034961801 0.042651884 0.17814885
-0.035013415 0.041043293 0.17959005
-0.035045143 0.03854347 0.18134114
-0.035208326 0.035941698 0.18274669
-0.034911476 0.032893673 0.18448299
-0.035105813 0.029640673 0.1864465
-0.035425857 0.02657721 0.18788838
-0.035870638 0.023264445 0.18909597
-0.036442365 0.019845091 0.18969955
-0.03635031 0.015797203 0.19033529
-0.036799558 0.011130281 0.19147916
-0.037500452 0.0056615835 0.19294049
-0.037425969 0.0018626115 0.19446704
-0.036487263 -0.0017269301 0.19679785
-0.036767591 -0.0053694611 0.20233324
-0.039645407 -0.009703882 0.2075177
-0.041469444 -0.011305405 0.21097176
-0.042066313 -0.012838081 0.21529602
-0.042367138 -0.015584933 0.21811204
-0.042379711 -0.018280288 0.22091608
-0.042239897 -0.020881156 0.22307536
-0.042369027 -0.023379676 0.22567987
-0.031414989 0.043334465 0.17911151
-0.031495627 0.041611768 0.18015948
-0.031546332 0.039012786 0.1819468
-0.031611823 0.036126982 0.18442567
-0.03183686 0.032926545 0.18601394
-0.031869475 0.029736938 0.18793784
-0.031957239 0.026607281 0.18945959
-0.032303646 0.023428494 0.19062842
-0.033331934 0.020349842 0.19072746
-0.033415645 0.016067946 0.19138692
-0.033722322 0.011504548 0.19240366
-0.034625322 0.0060329372 0.19420929
-0.034761209 0.0024072737 0.1961174
-0.034384314 -0.00055522553 0.19859016
-0.035390455 -0.0043732785 0.20413439
-0.037371617 -0.0083242431 0.20847967
-0.038482208 -0.010911274 0.21148983
-0.038953569 -0.013032147 0.2156705
-0.038906649 -0.015777553 0.21844462
-0.038771175 -0.018415056 0.22093512
-0.038640138 -0.021063771 0.2225313
-0.038818683 -0.023653483 0.22513199
-0.028082401 0.043804619 0.17975493
-0.027934043 0.042008635 0.18086344
-0.028006507 0.039390519 0.18276773
-0.028376723 0.036279421 0.18585068
-0.028849157 0.033123203 0.18774699
-0.028815607 0.030055383 0.18936984
-0.028612664 0.026980916 0.19028397
-0.028374661 0.02402539 0.19149251
-0.028491426 0.020739622 0.19271785
-0.029918687 0.016765375 0.19314602
-0.030929435 0.010751567 0.19386342
-0.031282224 0.006381379 0.19607881
-0.030515913 0.0031570909 0.19855168
-0.030621776 -0.00012221737 0.2018549
-0.031934347 -0.0033519338 0.2062099
-0.033758607 -0.0068468908 0.20964061
-0.035140123 -0.010013556 0.21255846
-0.036196001 -0.012550996 0.2168469
-0.035481181 -0.01537071 0.2190176
-0.03529495 -0.017858453 0.22162277
-0.035155989 -0.020739414 0.22359705
-0.03479768 -0.023701055 0.22703461
-0.033997338 -0.025822151 0.2298183
-0.024610318 0.044022396 0.18078846
-0.024686849 0.042367164 0.18184128
-0.024478475 0.039679028 0.18339351
-0.024967875 0.036855504 0.18607411
-0.025774602 0.033660829 0.18836723
-0.025722133 0.030593961 0.19036482
-0.025423536 0.027620288 0.191405
-0.025078256 0.024331175 0.19299001
-0.024750531 0.021366587 0.19477591
-0.025601784 0.017642723 0.19560598
-0.025982177 0.012294764 0.19740213
-0.025893377 0.0077060736 0.19865786
-0.026251569 0.0039410433 0.20110263
-0.02712369 0.00065042154 0.20429173
-0.028607327 -0.0023906792 0.2077063
-0.030172031 -0.0056942995 0.21123283
-0.031453822 -0.0085604833 0.2149899
-0.032222159 -0.011373091 0.21905255
-0.031469304 -0.014327572 0.22057657
-0.031281061 -0.017193025 0.22382404
-0.030721048 -0.020356549 0.22619353
-0.030567706 -0.02350698 0.22841112
-0.030506697 -0.026812542 0.23076251
-0.021474576 0.044495676 0.18140678
-0.021429354 0.042757921 0.18241231
-0.021374054 0.040009644 0.18370248
-0.021363178 0.037458882 0.18547876
-0.022079764 0.034351274 0.1888095
-0.022328373 0.031473704 0.1913593
-0.022158628 0.028452639 0.19290736
-0.021778798 0.025327833 0.19468163
-0.022086842 0.021918409 0.19672698
-0.02294285 0.018152522 0.19867758
-0.022877337 0.013663543 0.20016696
-0.022588914 0.0094443196 0.20176731
-0.023196343 0.0054553351 0.20384987
-0.023889622 0.0016330745 0.20643513
-0.025327254 -0.0015740528 0.20968185
-0.026577175 -0.0047112508 0.21293731
-0.027571134 -0.0074884221 0.2168781
-0.027434999 -0.010433924 0.22125056
-0.027580697 -0.0135591 0.22297964
-0.027123107 -0.016581234 0.22631858
-0.026692742 -0.019968847 0.22782753
-0.026568018 -0.023526896 0.22936526
-0.026789576 -0.027057221 0.23181857
-0.01871654 0.042737834 0.18329197
-0.01827563 0.040422313 0.18469365
-0.018253317 0.037628762 0.18581115
-0.018487206 0.034593206 0.18888165
-0.018887961 0.03176941 0.19181606
-0.018943537 0.028998652 0.19361357
-0.018904481 0.025966981 0.19602971
-0.019489614 0.022186439 0.19819388
-0.020010382 0.018397128 0.20036989
-0.019954484 0.014343721 0.20209603
-0.019658862 0.010497353 0.20368284
-0.020212172 0.0067319861 0.20639934
-0.020875271 0.002977947 0.20876074
-0.022103915 -0.00075147214 0.21259414
-0.023013923 -0.0038006119 0.2157369
-0.023675252 -0.0069378708 0.21882203
-0.023568036 -0.0098762549 0.22287674
-0.023500212 -0.013141117 0.22444366
-0.023458552 -0.016412452 0.22720502
-0.022714505 -0.019756651 0.22849612
-0.022733705 -0.023435514 0.22882052
-0.023076514 -0.02735967 0.23344857
-0.015456822 0.040619723 0.18537773
-0.01525147 0.037883598 0.1867526
-0.015236633 0.034762811 0.18896836
-0.015238143 0.031828813 0.19171195
-0.015359331 0.029123714 0.1940078
-0.015453844 0.02616703 0.19752817
-0.01659918 0.022125071 0.20043315
-0.016697725 0.018552313 0.20231918
-0.016707778 0.015044395 0.20360214
-0.016642535 0.011491117 0.20518342
-0.017182959 0.0078288568 0.20853415
-0.01727399 0.0047914023 0.21135277
-0.018155675 0.00086105516 0.21441765
-0.019583849 -0.003229792 0.21766783
-0.020256033 -0.0066238171 0.22119148
-0.020075703 -0.0095377313 0.22421636
-0.019758571 -0.012953716 0.22557159
-0.019703379 -0.016335143 0.22819524
-0.019149244 -0.019769944 0.22882634
-0.019037543 -0.023561971 0.23040023
-0.01930899 -0.028038209 0.23701653
-0.012639105 0.037786927 0.18799151
-0.012030118 0.035174258 0.18965171
-0.011911022 0.032142241 0.19219173
-0.011889009 0.029352212 0.19473168
-0.01220564 0.026225965 0.1980453
-0.013060718 0.022601273 0.20184752
-0.013121831 0.01934622 0.2040575
-0.013288438 0.01593845 0.20568831
-0.013882495 0.012267102 0.2077055
-0.01388619 0.008821954 0.21082081
-0.014117976 0.0056234449 0.21308064
-0.014183676 0.002348124 0.21588358
-0.015728904 -0.002608238 0.21904637
-0.016652618 -0.0060813655 0.22248194
-0.016603274 -0.009129378 0.22480376
-0.016169062 -0.012461634 0.22663578
-0.016123606 -0.015798749 0.2292612
-0.015775559 -0.01953402 0.230615
-0.015388699 -0.023783935 0.2339147
-0.015684757 -0.028326016 0.24013212
-0.0095970118 0.034781042 0.19047111
-0.0088284267 0.03253933 0.19306192
-0.0086822938 0.02972303 0.19597951
-0.0089366799 0.0265799 0.19908032
-0.0095760021 0.023494449 0.20274195
-0.0097674197 0.02026836 0.20561482
-0.0098903496 0.016944839 0.2079152
-0.010599554 0.013255494 0.21014279
-0.010453511 0.0096359421 0.21219662
-0.010447354 0.0063020675 0.21489348
-0.010222301 0.003038368 0.21744652
-0.01052199 -0.0010997277 0.21997325
-0.012130427 -0.0053616781 0.22321922
-0.011953894 -0.0086217066 0.22521378
-0.011963535 -0.011953501 0.22786157
-0.012134465 -0.015564156 0.23055704
-0.012069981 -0.019319678 0.23264666
-0.011719204 -0.023899414 0.23647434
-0.012103645 -0.027418904 0.24089997
-0.0057284739 0.032349665 0.19588429
-0.0057227928 0.029919246 0.19816567
-0.0059052217 0.026815871 0.20145449
-0.0062402342 0.023847727 0.20410205
-0.0064327377 0.020804595 0.20648044
-0.0064774156 0.017294798 0.20915566
-0.0067628245 0.013570884 0.21112116
-0.0067057991 0.010177667 0.21284167
-0.0066363807 0.0067982594 0.21544929
-0.0067706429 0.0032547929 0.21805352
-0.0066769272 -0.00053586223 0.22057214
-0.0068762968 -0.0046743397 0.22353888
-0.0072811451 -0.0084778313 0.226136
-0.0078740576 -0.012102311 0.22839832
-0.0080213314 -0.015627487 0.23072007
-0.0081287157 -0.019264979 0.23380899
-0.0083914157 -0.023019103 0.23625098
-0.0033491729 0.03188524 0.1979571
-0.0027481737 0.029833559 0.19924693
-0.0026867935 0.026749955 0.20175749
-0.0028008581 0.023755448 0.20404102
-0.0028836809 0.020743538 0.20623603
-0.0031854662 0.01739954 0.20922442
-0.003266399 0.013807594 0.21164793
-0.0031082861 0.010309366 0.21335398
-0.0031142156 0.0071590818 0.21587761
-0.0031150023 0.0035316518 0.21794461
-0.0031582082 -0.00056515879 0.22141503
-0.0030118737 -0.0042928392 0.22327621
-0.0034408884 -0.0083895577 0.22605786
-0.0038343288 -0.011957362 0.22791988
-0.0046888706 -0.015221872 0.2299332
-3.3547385e-05 0.029156512 0.20006974
0.00051988434 0.02687029 0.20206605
0.00035407415 0.023730878 0.20398739
0.0004857431 0.020871943 0.20600003
0.00034340416 0.017449651 0.20839079
0.00038952439 0.014031429 0.21074861
0.00039421525 0.010712918 0.21319799
0.00036385198 0.0075294669 0.21577083
0.00067606714 0.0040534777 0.21709581
0.00054626149 1.721929e-05 0.22048818
0.00091264519 -0.0038178368 0.22281766
3.1852043e-05 -0.0077692401 0.22558554
-0.0013107088 -0.010934221 0.22813791
0.0033367695 0.026638258 0.20276675
0.0036659599 0.023971764 0.20374361
0.0039482475 0.020990109 0.20559269
0.003880844 0.01749903 0.20794471
0.0039582415 0.014124551 0.21007857
0.003848043 0.010963408 0.21226123
0.0033798998 0.0075869472 0.21556364
0.0031278995 0.0045033684 0.21712136
0.0030473603 0.00036102353 0.21982078
0.0031203185 -0.0026826859 0.22221404
0.0054650139 0.023916133 0.20410727
0.006060468 0.020842291 0.20575556
0.0060914014 0.017680155 0.20781039
0.0059803501 0.013906609 0.21045691
0 0 0 1 0 0 0 1 0 0 0 1 0 0 0 0 0 354 1 0 0
