ply
format ascii 1.0
comment PCL generated
element vertex 354
property float x
property float y
property float z
element camera 1
property float view_px
property float view_py
property float view_pz
property float x_axisx
property float x_axisy
property float x_axisz
property float y_axisx
property float y_axisy
property float y_axisz
property float z_axisx
property float z_axisy
property float z_axisz
property float focal
property float scalex
property float scaley
property float centerx
property float centery
property int viewportx
property int viewporty
property float k1
property float k2
end_header
-0.055995349 0.027200479 0.18847303
-0.056881312 0.024317117 0.19084863
-0.057735894 0.020671826 0.19295123
-0.058354996 0.016891999 0.19414172
-0.058247764 0.013717154 0.19524881
-0.052018911 0.031679768 0.18422161
-0.052708335 0.029930459 0.18510176
-0.053186301 0.027385985 0.18639681
-0.053503402 0.024896041 0.18817404
-0.054448802 0.021639884 0.19069181
-0.055640619 0.01732971 0.19227894
-0.056450512 0.01333262 0.19394408
-0.056583613 0.0099200383 0.19525424
-0.055652305 0.0064300187 0.19709234
-0.048819304 0.034059841 0.18119609
-0.049303081 0.032393076 0.18224359
-0.049587216 0.030039126 0.18332319
-0.04982898 0.027498901 0.18491381
-0.050221611 0.025033323 0.18696374
-0.051198971 0.021665284 0.18946604
-0.051783625 0.017978217 0.19050895
-0.052934762 0.014100673 0.19162065
-0.05346211 0.009716196 0.19437464
-0.052390888 0.0037579488 0.19882636
-0.051584851 -0.0020013207 0.19967505
-0.051031191 -0.0058797998 0.20041713
-0.046734113 0.034618329 0.17945403
-0.046674613 0.032405928 0.1809193
-0.046600632 0.030021518 0.18251373
-0.046704479 0.027344914 0.18444338
-0.047301058 0.024840388 0.18630157
-0.048027366 0.021656876 0.18834466
-0.048415635 0.0182667 0.18924151
-0.049191657 0.014389396 0.19057854
-0.050043385 0.0092963288 0.19341466
-0.048520744 0.0017008879 0.19707958
-0.048130386 -0.0037427864 0.19789876
-0.047986194 -0.0068902709 0.20057727
-0.048928224 -0.0090817492 0.20235571
-0.050812572 -0.0098525966 0.20376812
-0.043815941 0.037121866 0.17837197
-0.043986961 0.035175499 0.17937297
-0.043866497 0.032786455 0.18091102
-0.043738447 0.030338349 0.18276992
-0.043970708 0.027690986 0.1844324
-0.04459678 0.024904378 0.1858393
-0.045241807 0.021663142 0.18756907
-0.045527261 0.018367117 0.18821627
-0.04578561 0.014604976 0.18934794
-0.046184413 0.0086167511 0.19223572
-0.045961473 0.001916009 0.19485824
-0.045244388 -0.003942152 0.19665681
-0.045009889 -0.0061644353 0.20060201
-0.046054263 -0.0080292765 0.20281671
-0.048897739 -0.010392455 0.20472437
-0.051236615 -0.013087383 0.20810585
-0.052671742 -0.014458744 0.21252428
-0.052958306 -0.015688697 0.21604815
-0.041350197 0.038209017 0.17834684
-0.041270211 0.035710443 0.17984608
-0.041067339 0.033348218 0.18126641
-0.041166387 0.030932741 0.18289092
-0.041652024 0.028178595 0.18448839
-0.041885935 0.025060741 0.18612108
-0.042312324 0.021604784 0.18720798
-0.04247728 0.018193867 0.18751927
-0.042842958 0.014456505 0.18846157
-0.043075979 0.0094661945 0.19070323
-0.04299606 0.0026170944 0.19285476
-0.04216776 -0.0023463441 0.1949911
-0.041638706 -0.004926879 0.19926062
-0.042230982 -0.0077045904 0.20231874
-0.045598879 -0.010724404 0.20561002
-0.048420191 -0.012584359 0.20936666
-0.049750425 -0.014137124 0.21336751
-0.050774284 -0.01573227 0.2168704
-0.051047195 -0.017345862 0.22131912
-0.050488081 -0.018961491 0.22492196
-0.038274046 0.040988315 0.17746127
-0.038499456 0.039245535 0.17893533
-0.038444012 0.03664029 0.18044096
-0.038378093 0.034210656 0.1817636
-0.038443342 0.031533793 0.18369013
-0.038851619 0.028624924 0.18535273
-0.038858913 0.025377497 0.18639933
-0.039118387 0.021622933 0.18723524
-0.039505176 0.018194174 0.18764462
-0.03951671 0.014554503 0.18848756
-0.039836794 0.0098676579 0.19037798
-0.040219195 0.0037943569 0.19206874
-0.039092734 -0.00076781487 0.19393036
-0.038269103 -0.0036053613 0.19725943
-0.038895492 -0.0068054046 0.20242123
-0.042531554 -0.011092316 0.20641764
-0.045270238 -0.012409058 0.21003276
-0.046374708 -0.013926123 0.21398723
-0.047299363 -0.016026342 0.21757522
-0.047155742 -0.018037695 0.22114418
-0.04725774 -0.020276176 0.22425699
-0.04695496 -0.022102751 0.2269472
-0.035312131 0.041707139 0.1780784
-0.035320424 0.040086318 0.17946105
-0.035294119 0.037543256 0.1811676
-0.035457056 0.034865282 0.18261614
-0.035167165 0.031828608 0.1845682
-0.035246059 0.028444519 0.18640524
-0.035456676 0.025324157 0.18756139
-0.035822738 0.021867814 0.18823849
-0.036487773 0.018514184 0.18857847
-0.03644665 0.014682375 0.18972158
-0.036869705 0.010115826 0.19104734
-0.037196245 0.0044562249 0.19236331
-0.03699198 0.00082660711 0.19420536
-0.03603065 -0.0024014791 0.19713078
-0.03656425 -0.0063310438 0.20254263
-0.039849576 -0.011099522 0.20738895
-0.04194897 -0.012664951 0.21067624
-0.042807519 -0.014284001 0.21443453
-0.043230109 -0.016617963 0.21772143
-0.043121736 -0.018926658 0.22095068
-0.042996086 -0.021223746 0.22346155
-0.043012656 -0.02341409 0.22629438
-0.031806301 0.042678483 0.17928624
-0.031821195 0.040931579 0.18031715
-0.031810515 0.038265925 0.18202437
-0.031845082 0.03516062 0.18450089
-0.03203309 0.031813093 0.18612751
-0.031905156 0.02855029 0.18780649
-0.031828359 0.025298307 0.18906738
-0.0320617 0.022046965 0.18997335
-0.033304937 0.019051977 0.18962134
-0.033485934 0.014982688 0.19060355
-0.033726338 0.010445575 0.19170861
-0.034374516 0.0048763645 0.19360529
-0.034381375 0.0014903379 0.19582899
-0.034073401 -0.0011477775 0.19879855
-0.035419863 -0.0052678348 0.20405129
-0.037576154 -0.0095767444 0.20827432
-0.038916063 -0.012232549 0.21116516
-0.039638903 -0.014492578 0.21486388
-0.039716672 -0.016845603 0.21808533
-0.039575368 -0.019085517 0.22094874
-0.039433904 -0.021434845 0.22281674
-0.039450061 -0.02380182 0.22558905
-0.028465331 0.043388624 0.18019734
-0.028225826 0.041605238 0.18126667
-0.028245959 0.038918193 0.18309245
-0.02856333 0.035402719 0.18592116
-0.028924346 0.031981442 0.18763144
-0.028723389 0.028853392 0.18905874
-0.028412377 0.025779407 0.18981212
-0.028036984 0.022827687 0.19084248
-0.028211048 0.019563725 0.19191557
-0.029912565 0.015753957 0.19222869
-0.030894827 0.0097232107 0.19316438
-0.031174693 0.0054629338 0.19563812
-0.030576997 0.0024030255 0.19835089
-0.030771133 -0.0010427764 0.20159055
-0.032134172 -0.004169615 0.20606421
-0.034083862 -0.0077319136 0.20964804
-0.035625376 -0.011181382 0.21234842
-0.03696271 -0.014031882 0.216196
-0.036405969 -0.016210446 0.21864869
-0.036095001 -0.018309081 0.22143701
-0.03586325 -0.021010304 0.22358148
-0.0352033 -0.023801621 0.22705148
-0.034097917 -0.025799882 0.22972307
-0.024942623 0.043765031 0.18140224
-0.024981482 0.042076267 0.18238594
-0.024641348 0.039322119 0.18381463
-0.025037657 0.036240444 0.18614702
-0.025792142 0.032579303 0.18793578
-0.025559798 0.029496867 0.18987918
-0.025144208 0.026552532 0.19083157
-0.024733553 0.023295054 0.19232804
-0.024484638 0.020533647 0.19413148
-0.025940636 0.017163331 0.19524163
-0.026297864 0.011750951 0.19668394
-0.026104834 0.0068107909 0.19786048
-0.026408734 0.002983341 0.20031817
-0.027192537 -0.00034090647 0.20366433
-0.028732931 -0.0031530696 0.20745951
-0.030536804 -0.0062402296 0.21139064
-0.032056924 -0.0096086161 0.21454108
-0.033141956 -0.012404032 0.21865495
-0.032391656 -0.014879805 0.2202235
-0.031946145 -0.01744163 0.22346966
-0.031158814 -0.020415373 0.2257757
-0.030795051 -0.023401527 0.22796373
-0.030403227 -0.026445365 0.23044948
-0.021752505 0.044289283 0.18200313
-0.021626841 0.042507365 0.18288505
-0.021467406 0.039697535 0.18403825
-0.02132483 0.037059732 0.18564205
-0.021941459 0.033616908 0.18856172
-0.022095162 0.030583637 0.19085318
-0.021843648 0.02754404 0.19232728
-0.021448959 0.024443377 0.19408549
-0.021960795 0.021194782 0.19611961
-0.022975937 0.017600775 0.19775179
-0.022704799 0.01282035 0.19869632
-0.022303142 0.0082947714 0.20006575
-0.022983344 0.0042171045 0.20232987
-0.023785213 0.00065756409 0.20551947
-0.02539428 -0.002242686 0.20908958
-0.026912134 -0.0050069224 0.21283428
-0.028237062 -0.0079794368 0.2166021
-0.028227584 -0.01053686 0.22125174
-0.028394001 -0.013636497 0.22315343
-0.027483068 -0.01644993 0.22618841
-0.026831912 -0.019524908 0.22709714
-0.026538165 -0.022975842 0.2286378
-0.026603792 -0.02646788 0.23130681
-0.018817274 0.04249233 0.18362416
-0.01825808 0.040121078 0.18490295
-0.01817349 0.037304122 0.18592492
-0.018269397 0.034177452 0.18890887
-0.01856746 0.031088779 0.19160068
-0.018572932 0.028182223 0.19312064
-0.018505517 0.025099192 0.19540054
-0.01936613 0.021490136 0.19741268
-0.01983575 0.017722033 0.19920175
-0.019594841 0.013448161 0.20042239
-0.019258905 0.0093737934 0.20184611
-0.019915449 0.0056589134 0.20473826
-0.020627318 0.0018235845 0.20736445
-0.022179561 -0.0015856852 0.21153228
-0.023342835 -0.0041549946 0.2150466
-0.024213146 -0.0069889878 0.21833497
-0.024209328 -0.0099015245 0.22251232
-0.024112508 -0.013090433 0.22422828
-0.023713322 -0.016206499 0.22678868
-0.02279146 -0.019210951 0.22738206
-0.02282414 -0.022966355 0.22779822
-0.022825038 -0.026902007 0.23262411
-0.015419227 0.04032436 0.18544909
-0.015113903 0.037580781 0.18675002
-0.015010213 0.034451559 0.18898608
-0.01482676 0.031388622 0.19153444
-0.014824179 0.028404785 0.193452
-0.014900351 0.025239311 0.1966792
-0.01627643 0.021321442 0.19918786
-0.016263982 0.017622318 0.20071918
-0.016131386 0.013982792 0.20167109
-0.016069885 0.01036295 0.20319162
-0.016728016 0.0067823976 0.20677571
-0.016866876 0.0037900356 0.20976327
-0.018069407 0.00014969139 0.21323
-0.01992666 -0.0034549173 0.21690747
-0.020779228 -0.006739954 0.2205697
-0.020626981 -0.0096224099 0.22336483
-0.020253288 -0.012966683 0.22472002
-0.019970536 -0.016087826 0.22713861
-0.019230323 -0.019392315 0.22740802
-0.019044176 -0.023278192 0.22905305
-0.018917596 -0.027814774 0.23584427
-0.012463644 0.037465025 0.18787049
-0.01175034 0.034887772 0.18951055
-0.011407357 0.031683277 0.19169424
-0.011254416 0.028725717 0.19393055
-0.011690782 0.025539055 0.19714288
-0.01277246 0.021896133 0.20071854
-0.012782942 0.018508937 0.20262261
-0.012760804 0.014969375 0.20389402
-0.013327376 0.0111343 0.20582031
-0.013457003 0.0078722117 0.20914057
-0.013777767 0.0048546079 0.2116186
-0.01398428 0.0018316814 0.21482559
-0.016019186 -0.0027849476 0.21824585
-0.017185515 -0.0062383735 0.22153099
-0.017145935 -0.009272675 0.22354686
-0.016685074 -0.012518005 0.22505161
-0.016493076 -0.0157726 0.22756414
-0.015798025 -0.019441353 0.22891119
-0.015206205 -0.023689661 0.23229696
-0.015175682 -0.028342677 0.23863482
-0.0091653876 0.03448607 0.19012542
-0.0083489763 0.032202989 0.1925737
-0.0082042832 0.029297935 0.19535415
-0.0086933756 0.026232822 0.19871709
-0.0095192138 0.02310423 0.20227125
-0.0097247204 0.01972254 0.20480332
-0.009790644 0.016191024 0.20675035
-0.010156599 0.012298362 0.20838745
-0.010070525 0.0087826261 0.2106069
-0.010281492 0.005741626 0.21378411
-0.010179291 0.0027968145 0.21660626
-0.010562371 -0.0012613934 0.21922722
-0.012431283 -0.0055395281 0.22213836
-0.012406829 -0.0087120682 0.2235413
-0.012328535 -0.011973741 0.22600357
-0.012343907 -0.015569329 0.22883315
-0.012084117 -0.019282451 0.2309365
-0.011425513 -0.023886556 0.23476252
-0.011517148 -0.027488165 0.2392114
-0.0054925699 0.032209013 0.19566897
-0.0055988366 0.029729737 0.19804782
-0.0058681113 0.026692852 0.20166841
-0.0062644868 0.023599971 0.20396221
-0.0065113865 0.02045632 0.20596935
-0.0065485942 0.016679643 0.20814453
-0.0066173491 0.012826792 0.20971005
-0.0065150643 0.0094222445 0.21136589
-0.006582893 0.006348724 0.21445446
-0.0067996928 0.0030558575 0.21721461
-0.0066810367 -0.00061831879 0.21990536
-0.006942742 -0.0048364731 0.22287597
-0.007492933 -0.0085613523 0.22480546
-0.0080523463 -0.012155154 0.22662874
-0.0081178267 -0.015684007 0.22908181
-0.0081077721 -0.019256001 0.23220041
-0.0081723537 -0.023031732 0.23443855
-0.0033687777 0.03182859 0.19804852
-0.0027582801 0.029690839 0.19939734
-0.0026632582 0.026385272 0.20177674
-0.0028097099 0.023265796 0.20360081
-0.0029624659 0.020228079 0.20543304
-0.0033115633 0.016799984 0.20831135
-0.0032525987 0.013139393 0.21037754
-0.0030168905 0.0097020008 0.21201314
-0.0031279367 0.0068758116 0.21495293
-0.0031449653 0.0034077726 0.2173354
-0.0031893703 -0.00063511543 0.22093968
-0.0030315632 -0.0043818699 0.22286469
-0.0036036321 -0.0084730331 0.22515123
-0.0039662151 -0.012005848 0.22651292
-0.0047745453 -0.015312098 0.22835697
-1.4581306e-05 0.028655522 0.19985482
0.00052344898 0.026092742 0.2015183
0.0003227542 0.02297578 0.20315808
0.00038349061 0.020230958 0.20510572
0.00018178239 0.0168927 0.2076176
0.00028505374 0.013508404 0.21002734
0.00036151911 0.010346935 0.21241735
0.00024171484 0.0074079526 0.21520437
0.00062554178 0.0040730173 0.21688475
0.00052421406 6.174188e-06 0.22021085
0.00088440528 -0.0038168747 0.22259915
-6.3925792e-05 -0.0078277234 0.22504392
-0.0014449173 -0.010962021 0.22696409
0.0033519324 0.025582848 0.20176324
0.0035757227 0.022975471 0.20268038
0.003809564 0.020277273 0.20473266
0.0037114469 0.017147904 0.2076226
0.0038250594 0.013871336 0.2098656
0.0038019642 0.010748779 0.21200484
0.0031759909 0.0075913449 0.21544911
0.0029858798 0.0046543926 0.21719335
0.0030318568 0.00040655112 0.21974738
0.003084746 -0.0025982445 0.22213586
0.0053659459 0.022840731 0.20288613
0.0058254879 0.020290487 0.20521799
0.0058988831 0.01753928 0.20784581
0.0058357138 0.013763499 0.2104295
0 0 0 1 0 0 0 1 0 0 0 1 0 0 0 0 0 354 1 0 0
