ply
format ascii 1.0
comment PCL generated
element vertex 354
property float x
property float y
property float z
element camera 1
property float view_px
property float view_py
property float view_pz
property float x_axisx
property float x_axisy
property float x_axisz
property float y_axisx
property float y_axisy
property float y_axisz
property float z_axisx
property float z_axisy
property float z_axisz
property float focal
property float scalex
property float scaley
property float centerx
property float centery
property int viewportx
property int viewporty
property float k1
property float k2
end_header
-0.056352872 0.027195487 0.187893
-0.057198893 0.024376296 0.19015412
-0.057996776 0.020914109 0.19254099
-0.05852687 0.017234329 0.19417453
-0.058408506 0.01406 0.19541356
-0.052364755 0.031758711 0.18388271
-0.053070705 0.029983597 0.18464036
-0.053550877 0.027355757 0.18575339
-0.053910397 0.024769636 0.18738572
-0.054766055 0.021659205 0.19004509
-0.055834845 0.017593391 0.19227858
-0.056626812 0.013646827 0.19419242
-0.056698184 0.010096291 0.19522795
-0.0557568 0.0065814173 0.1971737
-0.049127921 0.034401305 0.18131307
-0.049614556 0.032630775 0.18208955
-0.04989415 0.030168554 0.18285061
-0.050144959 0.027455771 0.1840772
-0.05059598 0.024797423 0.18593416
-0.051542182 0.021568486 0.18874416
-0.052043498 0.018089425 0.19031456
-0.053109877 0.014107334 0.19141446
-0.05360917 0.0098617747 0.19434093
-0.052583821 0.0039071352 0.19884463
-0.051810201 -0.0018682296 0.19974859
-0.051224563 -0.0057901228 0.20055342
-0.047020696 0.035143744 0.1798576
-0.046974797 0.032811098 0.18098782
-0.046883523 0.030245973 0.1821406
-0.046971563 0.027375834 0.18363307
-0.047603533 0.024666749 0.18526241
-0.048385765 0.02152445 0.18760042
-0.048689321 0.018258704 0.1888987
-0.049412929 0.014265853 0.19020717
-0.050191469 0.0093407715 0.19333777
-0.048722349 0.0017619157 0.19707814
-0.048361711 -0.0036716689 0.19793411
-0.048254423 -0.0067654131 0.20066151
-0.049131218 -0.0089802044 0.20244946
-0.05089004 -0.0098612132 0.20378122
-0.044094894 0.037676167 0.17882897
-0.044245139 0.035681002 0.1797359
-0.044128418 0.033195183 0.18104102
-0.044003986 0.030588981 0.18257067
-0.044221498 0.027807653 0.1839934
-0.044875525 0.024898272 0.18522488
-0.045574911 0.021615965 0.18700342
-0.045793962 0.018359605 0.18791279
-0.046013828 0.014394137 0.18894844
-0.046315033 0.0084848804 0.19204795
-0.04611022 0.0019095441 0.19488733
-0.045432486 -0.0039138761 0.19675446
-0.045286179 -0.0060019414 0.20075043
-0.046312694 -0.0078214016 0.20300964
-0.049011681 -0.010338678 0.20479965
-0.051268853 -0.013149142 0.2080849
-0.052385457 -0.01448104 0.21281411
-0.052742705 -0.01611414 0.21633586
-0.041620709 0.038700953 0.17871864
-0.041503359 0.036144432 0.18011062
-0.041303273 0.033662964 0.18137033
-0.041360736 0.031151852 0.18274337
-0.04182395 0.028346505 0.18417768
-0.042125668 0.025209118 0.18579154
-0.042605057 0.021672891 0.18697114
-0.042711668 0.018257389 0.18739103
-0.043049924 0.01424416 0.18810837
-0.043192763 0.009285504 0.19044383
-0.043119188 0.0025528732 0.19285102
-0.042338137 -0.0023441412 0.19508992
-0.041908611 -0.0047537223 0.19948283
-0.042519215 -0.0073614186 0.20266135
-0.045731705 -0.01050029 0.20581989
-0.048545327 -0.012601241 0.20943438
-0.049640309 -0.014169057 0.21365754
-0.050609928 -0.016050976 0.21698786
-0.050848179 -0.018014202 0.22121127
-0.050274339 -0.019788109 0.22470142
-0.038462799 0.041398995 0.17766006
-0.038701352 0.039631598 0.17912316
-0.03864767 0.036989581 0.18057367
-0.03852823 0.034462836 0.18175882
-0.038536642 0.031652443 0.18332359
-0.038946651 0.028765755 0.18499389
-0.039044689 0.025576958 0.18620324
-0.039437402 0.021854552 0.18733361
-0.039750472 0.01836394 0.18779367
-0.039735731 0.014423475 0.18830505
-0.040002305 0.0097599002 0.19022742
-0.040342696 0.0037152818 0.19207481
-0.039240677 -0.00083263899 0.19400661
-0.038503576 -0.0035330523 0.19743286
-0.039242335 -0.0063797338 0.2028763
-0.042678662 -0.010707257 0.20675766
-0.045419849 -0.01231465 0.21020271
-0.04629416 -0.013882313 0.21432304
-0.047106527 -0.016308557 0.21766609
-0.046942212 -0.018532895 0.22103658
-0.046999525 -0.020932581 0.22399198
-0.046676919 -0.022893753 0.22655879
-0.035434853 0.041988585 0.17808844
-0.035457816 0.040352356 0.17946671
-0.035414647 0.037807919 0.18111446
-0.03556459 0.035053406 0.18240069
-0.035192914 0.031939898 0.18404295
-0.035322104 0.028655034 0.18595296
-0.035627875 0.025594849 0.18730606
-0.036140077 0.022235977 0.18838313
-0.036754768 0.018714672 0.18878935
-0.036692921 0.014617664 0.18957327
-0.037075091 0.010074976 0.19099714
-0.037336227 0.0044147568 0.19248058
-0.037123762 0.00074372441 0.19426104
-0.036207411 -0.002458357 0.19719192
-0.036823146 -0.0060626487 0.20289612
-0.04009857 -0.01061119 0.20786808
-0.042125888 -0.012411252 0.21097639
-0.042687017 -0.014103647 0.21481283
-0.043021552 -0.016730672 0.2178459
-0.042890493 -0.019219238 0.2208899
-0.042687882 -0.021678217 0.22320637
-0.04271166 -0.024010148 0.22588053
-0.03174581 0.042795673 0.17905089
-0.031780921 0.041057371 0.18008615
-0.031777453 0.038411673 0.18180515
-0.031810179 0.035365604 0.18411048
-0.032035939 0.032036047 0.18562122
-0.03197331 0.028806083 0.18738098
-0.031971917 0.025631461 0.18877019
-0.032309018 0.022428023 0.18986462
-0.033607204 0.01929722 0.18982406
-0.033741985 0.014946863 0.19045226
-0.033956658 0.010463627 0.19173588
-0.034513947 0.0048149577 0.19376257
-0.034498513 0.0013402527 0.19585773
-0.034171589 -0.001386504 0.19876797
-0.035566103 -0.0053113834 0.2042919
-0.037860695 -0.0091639161 0.20878904
-0.039226074 -0.011887618 0.21164712
-0.039582714 -0.014211768 0.21533504
-0.03945756 -0.016883366 0.2182586
-0.039203774 -0.01941183 0.22084588
-0.039003849 -0.02188573 0.22257881
-0.039120331 -0.024315722 0.22527622
-0.028278572 0.043359853 0.17976953
-0.028071186 0.041569892 0.18084641
-0.02810022 0.038917661 0.18270877
-0.028505109 0.03561084 0.18560094
-0.02898184 0.032298464 0.18736893
-0.028851092 0.029150067 0.18883252
-0.028561663 0.026059277 0.1896842
-0.028215256 0.023087706 0.19078282
-0.028391385 0.019763503 0.19197193
-0.030179366 0.015775727 0.19204052
-0.031124637 0.0097528938 0.19332206
-0.031300712 0.0053095063 0.1957933
-0.03067244 0.0021361152 0.19838843
-0.030845489 -0.0013389242 0.20163023
-0.032248255 -0.0044612912 0.2062365
-0.034273546 -0.0077123507 0.20999861
-0.035924312 -0.010974539 0.21279171
-0.036820438 -0.013927968 0.21654369
-0.035955295 -0.016626768 0.21860965
-0.035631623 -0.018868525 0.22131532
-0.03543989 -0.021578651 0.22343048
-0.034981027 -0.024351595 0.22696003
-0.034016307 -0.026285119 0.22975673
-0.024712754 0.043625403 0.18082727
-0.024774814 0.041955121 0.18184328
-0.024506068 0.039260693 0.18336979
-0.025025992 0.036397144 0.1859273
-0.025926214 0.032944415 0.18803431
-0.025762893 0.029766779 0.18992981
-0.025347579 0.026782481 0.19091228
-0.024895096 0.023449996 0.19238277
-0.024514986 0.020492803 0.19403811
-0.025883332 0.016734159 0.19468495
-0.02645218 0.011440218 0.19670129
-0.026377305 0.0067042815 0.19814882
-0.026650561 0.0029169808 0.20059165
-0.027363842 -0.00046626531 0.20384334
-0.028847441 -0.0034127806 0.20756714
-0.030629462 -0.0064639687 0.21153137
-0.031906348 -0.0097995978 0.21480808
-0.032788847 -0.012804106 0.21873052
-0.031922411 -0.015550623 0.22016397
-0.03153393 -0.018155094 0.22340755
-0.030848121 -0.021100989 0.22575942
-0.030685224 -0.023986485 0.22807185
-0.030584043 -0.027055146 0.23057798
-0.021552278 0.044131331 0.18141976
-0.021464609 0.042390279 0.18239398
-0.021402696 0.039661035 0.18367462
-0.021356143 0.037149247 0.1854659
-0.022140762 0.033860125 0.1887254
-0.022375669 0.03078215 0.19113153
-0.022103781 0.027717918 0.192559
-0.021627035 0.024525937 0.19421025
-0.021923045 0.021022808 0.19601594
-0.022960249 0.017359627 0.19777608
-0.023041543 0.012819807 0.19938065
-0.022832805 0.0085760197 0.20102043
-0.023452187 0.0045231199 0.20318927
-0.024053646 0.00063714577 0.20581524
-0.025537688 -0.002463626 0.20921698
-0.026961671 -0.0053508431 0.21290612
-0.028067486 -0.0085451566 0.21667735
-0.028048979 -0.011453132 0.22113535
-0.028159972 -0.014528737 0.22312011
-0.027490346 -0.017228879 0.2262283
-0.026875686 -0.020272959 0.22739384
-0.026746249 -0.023579335 0.2291089
-0.026901511 -0.027048845 0.2316846
-0.018721031 0.042416234 0.18326558
-0.018258713 0.040140349 0.18469621
-0.01825521 0.037395492 0.18588963
-0.018493008 0.034300108 0.18894461
-0.018881615 0.031224253 0.19175376
-0.018875327 0.028353591 0.19337243
-0.01872145 0.025209729 0.19559498
-0.01934447 0.021284886 0.19736765
-0.019956937 0.017554093 0.19942094
-0.020031195 0.013512209 0.2012022
-0.019865721 0.0097040003 0.20291343
-0.020509444 0.0060019256 0.20570037
-0.021156527 0.0021562069 0.20820352
-0.022416301 -0.0016760952 0.21203586
-0.023426866 -0.0045537236 0.21530451
-0.02418438 -0.0076515633 0.21844205
-0.024169482 -0.010671425 0.22262865
-0.024135087 -0.013839289 0.22455883
-0.023824668 -0.016854163 0.22723061
-0.022940911 -0.019890409 0.228112
-0.022951026 -0.023483755 0.22868067
-0.02323265 -0.027331358 0.23328052
-0.015427798 0.040387861 0.18538839
-0.015231026 0.037690986 0.18681264
-0.015249541 0.034531604 0.18905099
-0.015183807 0.031441685 0.19164725
-0.015211416 0.028589539 0.19372912
-0.015247841 0.025442386 0.19701369
-0.016431412 0.021226684 0.19943425
-0.016602041 0.017657289 0.20130548
-0.016736662 0.014219156 0.20264927
-0.016821781 0.010849077 0.20442191
-0.017360466 0.007214068 0.2078812
-0.017416906 0.0041786856 0.21076058
-0.018372281 0.00019479499 0.21384701
-0.020027626 -0.0038632478 0.21714579
-0.020783681 -0.0073425146 0.22076464
-0.020635026 -0.010221832 0.22375686
-0.020362711 -0.013503578 0.22544616
-0.02016579 -0.016610129 0.22800227
-0.019447986 -0.019879455 0.22854552
-0.01932228 -0.023546619 0.23022166
-0.019489249 -0.028068496 0.23682557
-0.012601616 0.0375733 0.18801934
-0.012021082 0.034981705 0.18963806
-0.011797967 0.031847704 0.19191888
-0.011680197 0.028967498 0.19429344
-0.012038842 0.025706561 0.19742768
-0.01301984 0.021923779 0.2009698
-0.01310748 0.018672107 0.20315924
-0.0133428 0.015351404 0.20486932
-0.014084039 0.011691128 0.20710655
-0.0140611 0.0082865674 0.21028045
-0.014263044 0.0051488862 0.21259423
-0.014278284 0.0018670625 0.21546769
-0.01613329 -0.0031675792 0.21853323
-0.017196666 -0.0067029377 0.22190496
-0.017160455 -0.0096768495 0.22421983
-0.016761189 -0.012776869 0.22614378
-0.016708536 -0.015959719 0.22878543
-0.016176429 -0.01959727 0.23025076
-0.015702181 -0.023799287 0.23366696
-0.015912557 -0.028425928 0.23980366
-0.0095272483 0.034632329 0.19028471
-0.0087013179 0.032353107 0.19274241
-0.008509242 0.029506443 0.19559367
-0.0088532167 0.026222337 0.19867016
-0.0096145365 0.023024103 0.20220084
-0.0098773213 0.019805869 0.20503141
-0.010083263 0.016494203 0.20741977
-0.010779593 0.012806253 0.20973285
-0.010618002 0.0092166783 0.21179914
-0.010586815 0.0059324284 0.21453357
-0.01027592 0.0027139361 0.21702558
-0.010601627 -0.0014915075 0.21954979
-0.01246133 -0.005839284 0.22285292
-0.012416933 -0.0089386497 0.22469476
-0.012467178 -0.012120747 0.22740467
-0.012646047 -0.015683439 0.23023461
-0.012544506 -0.019365579 0.23237461
-0.012057211 -0.023957193 0.23618253
-0.012328235 -0.027532479 0.24059273
-0.0056425426 0.032232404 0.19557448
-0.0056559285 0.029731626 0.19790429
-0.006006327 0.026439378 0.20118196
-0.0063579287 0.023427315 0.20369183
-0.0065590101 0.020436781 0.20601387
-0.0067136111 0.016965207 0.20887867
-0.0069877626 0.013248117 0.21098484
-0.0069174971 0.00986424 0.21257283
-0.0067806337 0.0065217433 0.21512826
-0.0068738991 0.0029747125 0.21755512
-0.0066860286 -0.00090352271 0.2201824
-0.0069585233 -0.0051082605 0.22346172
-0.0075350986 -0.0087595684 0.22597744
-0.0082415072 -0.012282406 0.22814427
-0.0084537212 -0.015787389 0.23060347
-0.008585752 -0.019347616 0.23367317
-0.0087975888 -0.023069292 0.23597582
-0.0033630142 0.031748287 0.1977385
-0.0028460918 0.029607544 0.19908588
-0.0028963631 0.026316561 0.20154817
-0.0030215045 0.023264617 0.20360789
-0.0031513821 0.020333113 0.20571762
-0.003443762 0.017036686 0.2088729
-0.0035160617 0.013503646 0.21141638
-0.0033384373 0.010045932 0.2130812
-0.0033049774 0.0069191209 0.21546124
-0.0032121646 0.0032554378 0.21741487
-0.0032071099 -0.001000656 0.22110391
-0.0030595318 -0.0047442657 0.22320369
-0.003667396 -0.0087307952 0.22607344
-0.0041535753 -0.012205579 0.22791384
-0.0050927098 -0.015471182 0.22996163
-0.00021753671 0.028780317 0.19987048
0.00024901007 0.026311718 0.20172
7.7528959e-05 0.023133431 0.20345534
0.00019310749 0.020311993 0.20542756
2.0898513e-05 0.01698323 0.20795035
9.6068063e-05 0.01367706 0.21041918
0.00017414843 0.010487525 0.21279578
0.00018398542 0.0073229065 0.21526344
0.00052463857 0.0038020662 0.21659049
0.00046657227 -0.00040770989 0.22014169
0.00084400765 -0.0042481739 0.22269066
-0.00012525378 -0.0081707668 0.22565344
-0.0016202041 -0.011228888 0.22817288
0.0030136968 0.025911687 0.20228706
0.0032985655 0.023237405 0.20316482
0.0035867428 0.02031392 0.20491102
0.0034996376 0.016979614 0.20746963
0.0036042382 0.013742696 0.20969132
0.0036233445 0.01070941 0.21183698
0.0031985529 0.007388616 0.21507157
0.0030030711 0.0043207705 0.21660717
0.0029368598 -6.4475498e-05 0.21949267
0.0030390832 -0.003105463 0.22198863
0.0050818124 0.023113133 0.20341492
0.0056051076 0.020129928 0.20507912
0.0057066674 0.017147744 0.20731859
0.0056498148 0.013554507 0.21003583
0 0 0 1 0 0 0 1 0 0 0 1 0 0 0 0 0 354 1 0 0
