ply
format ascii 1.0
comment PCL generated
element vertex 354
property float x
property float y
property float z
element camera 1
property float view_px
property float view_py
property float view_pz
property float x_axisx
property float x_axisy
property float x_axisz
property float y_axisx
property float y_axisy
property float y_axisz
property float z_axisx
property float z_axisy
property float z_axisz
property float focal
property float scalex
property float scaley
property float centerx
property float centery
property int viewportx
property int viewporty
property float k1
property float k2
end_header
-0.056419339 0.027065329 0.18791467
-0.057242416 0.024252558 0.1901782
-0.05802457 0.020804489 0.19260243
-0.05854319 0.017131528 0.19425692
-0.058407784 0.01395845 0.19549593
-0.052428599 0.031632591 0.18389961
-0.053134266 0.029856604 0.18465103
-0.05362026 0.027223941 0.18575792
-0.053984307 0.024638023 0.18739025
-0.054820616 0.021540549 0.1900806
-0.055869315 0.017483562 0.19234864
-0.056661326 0.013519745 0.19427875
-0.05671712 0.0099270511 0.19543722
-0.055713344 0.0063534789 0.19741607
-0.049188748 0.034282017 0.18132678
-0.049673636 0.032515813 0.18210678
-0.049952511 0.030053327 0.18285853
-0.05019819 0.02733648 0.1840547
-0.050664697 0.024660951 0.18589656
-0.051601861 0.021438284 0.18873027
-0.052093044 0.017969219 0.19033915
-0.053143591 0.013992897 0.19165191
-0.053648103 0.0096948743 0.1945421
-0.052563567 0.0036995295 0.19905141
-0.051720358 -0.0020731292 0.19997267
-0.051041 -0.0060416562 0.20079592
-0.047088519 0.035027187 0.17987375
-0.047037762 0.032697354 0.18099973
-0.046941001 0.030138802 0.18213426
-0.047019918 0.027264114 0.18359409
-0.047666963 0.024539202 0.18521468
-0.048443511 0.021380424 0.18754527
-0.048734691 0.018119961 0.18885951
-0.049431082 0.014163039 0.19040716
-0.050217409 0.0091743069 0.19350591
-0.048657555 0.0015620528 0.19727345
-0.048260015 -0.0038784933 0.19813298
-0.048151817 -0.0069761821 0.20083988
-0.049060669 -0.0091735944 0.20254278
-0.050805546 -0.010053239 0.20383821
-0.044167411 0.037556298 0.17884092
-0.044310395 0.035563745 0.17974116
-0.044188175 0.033081923 0.18104123
-0.044063382 0.030482633 0.18255718
-0.044281974 0.027700521 0.1839539
-0.044946924 0.024782253 0.18516898
-0.045637686 0.021478111 0.18692861
-0.045849074 0.018215204 0.18784192
-0.046046775 0.014270126 0.18905921
-0.046291344 0.0083100991 0.19220683
-0.04603878 0.0017127218 0.19506919
-0.045359485 -0.0041182535 0.19694544
-0.045192011 -0.0062254318 0.20090614
-0.046236895 -0.0080292933 0.20310178
-0.048958723 -0.010536579 0.20480216
-0.051204272 -0.013379535 0.20800984
-0.052401975 -0.014689449 0.21272084
-0.052783016 -0.016351353 0.2162905
-0.041696142 0.03858237 0.1787211
-0.041568574 0.036028627 0.18011339
-0.041366663 0.033554092 0.18136863
-0.041424412 0.031051699 0.18272676
-0.041891623 0.02824877 0.18413718
-0.042199787 0.025098057 0.1857179
-0.042669114 0.021540662 0.18687223
-0.042772628 0.018114794 0.18728489
-0.043092854 0.014086562 0.18815939
-0.043187212 0.0091191502 0.1905428
-0.043062586 0.0023497723 0.19302079
-0.042282928 -0.0025342524 0.19528759
-0.041837249 -0.0049715703 0.19963498
-0.042444311 -0.0075883889 0.20274173
-0.045681499 -0.010710558 0.20580688
-0.048505269 -0.012850299 0.20935822
-0.049694918 -0.014379753 0.21356997
-0.050673895 -0.016250627 0.21690561
-0.050909497 -0.018175375 0.22116087
-0.050326068 -0.019898454 0.2246895
-0.038532875 0.041291371 0.17764543
-0.038774971 0.039524123 0.17910862
-0.038716249 0.036883302 0.18056551
-0.038594026 0.034360681 0.1817591
-0.038599458 0.031553365 0.1832992
-0.039009318 0.028654804 0.18494532
-0.039110906 0.025457514 0.18612556
-0.039502442 0.021721108 0.18720709
-0.039801374 0.018213393 0.18765442
-0.039781403 0.014272398 0.18833825
-0.040012456 0.0095949965 0.19025804
-0.040307663 0.0035257563 0.19218682
-0.039188739 -0.0010462329 0.19417424
-0.038479209 -0.0037142243 0.19757824
-0.039165456 -0.0066068666 0.20293924
-0.042635892 -0.010917869 0.20671508
-0.04539739 -0.012560869 0.21012798
-0.046364408 -0.014086755 0.21424437
-0.047178365 -0.016496085 0.21760172
-0.047001339 -0.018672314 0.22102131
-0.04704497 -0.021039153 0.22400361
-0.046717327 -0.022976168 0.22658534
-0.035497062 0.041892007 0.17808065
-0.035521407 0.040257428 0.17945695
-0.035472788 0.037715852 0.18110244
-0.035628248 0.034952689 0.18239042
-0.035239272 0.031832233 0.18400787
-0.035359684 0.028540516 0.1858959
-0.035665438 0.025476107 0.1872261
-0.036183968 0.022104304 0.188269
-0.036796022 0.018561685 0.18866172
-0.036746476 0.014492473 0.1896199
-0.037083916 0.0099224551 0.19100428
-0.03729694 0.0042118169 0.1925
-0.037077036 0.00053372665 0.19431816
-0.036174316 -0.0026552079 0.19729473
-0.036760725 -0.0062963464 0.20289291
-0.040048771 -0.010856002 0.20782836
-0.042076658 -0.012640772 0.21091746
-0.042754769 -0.014293921 0.21475367
-0.043090273 -0.016900156 0.21781732
-0.042939428 -0.019345848 0.22089845
-0.042726561 -0.021782858 0.22323571
-0.04273548 -0.024089038 0.22591591
-0.031789605 0.042721137 0.17905648
-0.031822111 0.040984385 0.18009494
-0.031814523 0.038338203 0.18181375
-0.031845257 0.035277706 0.18409194
-0.032070264 0.031933475 0.18558601
-0.031994708 0.028695421 0.18731612
-0.031982951 0.025517888 0.18868858
-0.032321423 0.022311989 0.18977852
-0.033652093 0.019160578 0.18972468
-0.033804417 0.014838981 0.19049831
-0.033979718 0.010336491 0.19175868
-0.034476891 0.0046048095 0.1937664
-0.034455515 0.0011188639 0.19587414
-0.034150083 -0.0016311725 0.19880487
-0.035530377 -0.0055942549 0.20423849
-0.037772518 -0.0094419243 0.20867862
-0.039159976 -0.012177137 0.21152984
-0.039651502 -0.014392972 0.21529017
-0.039510325 -0.017039413 0.21824001
-0.039236959 -0.019547263 0.22083974
-0.039026059 -0.021997286 0.22259028
-0.039136495 -0.024398984 0.22530021
-0.02830378 0.043298539 0.17979009
-0.028090857 0.041510426 0.18086521
-0.028113477 0.038856037 0.18272547
-0.028524937 0.035530157 0.18558855
-0.029004114 0.032198228 0.18733233
-0.028860873 0.029035319 0.18876626
-0.028560106 0.025942624 0.189614
-0.028199555 0.022967601 0.1907053
-0.02838302 0.019639133 0.19190951
-0.030271899 0.015709797 0.19212948
-0.031153511 0.0096192108 0.19338672
-0.031282414 0.0050934181 0.19583096
-0.03066197 0.0018932925 0.19838879
-0.030838445 -0.0016007535 0.20159331
-0.032232236 -0.0047401683 0.20617965
-0.034212645 -0.0080290912 0.20989864
-0.035847995 -0.011318832 0.21264923
-0.036876727 -0.014163977 0.21648411
-0.035992306 -0.016829809 0.21852528
-0.035650782 -0.019022893 0.22125579
-0.035450324 -0.021699706 0.22339612
-0.034979992 -0.024439432 0.22694056
-0.033990905 -0.026346853 0.22973847
-0.024726052 0.043564081 0.18084119
-0.024784137 0.04189276 0.18185577
-0.024507504 0.039197367 0.18337646
-0.025034599 0.036334351 0.18591779
-0.025948951 0.032850761 0.18800049
-0.025769873 0.029653467 0.18987192
-0.025338914 0.026668105 0.1908533
-0.024870181 0.023333369 0.19232085
-0.024482336 0.020388417 0.19397265
-0.025985327 0.016715441 0.19484298
-0.026600858 0.011399253 0.1968812
-0.026445271 0.0065520382 0.19820282
-0.026668724 0.0027297642 0.200573
-0.027371382 -0.00067194074 0.2038112
-0.028855061 -0.0036491987 0.20753832
-0.030605124 -0.0067403349 0.21146755
-0.031944759 -0.010027221 0.21476981
-0.032826971 -0.0130668 0.21863864
-0.031945314 -0.015769873 0.22005194
-0.03153076 -0.01831623 0.22330764
-0.030832799 -0.021220177 0.22566721
-0.030675024 -0.024061302 0.22800653
-0.030581415 -0.02710632 0.23051716
-0.02155913 0.044068046 0.18141526
-0.021466851 0.042328797 0.18238826
-0.021406326 0.039602064 0.18366814
-0.021355592 0.037097871 0.18545936
-0.02214927 0.033785127 0.18870249
-0.022381021 0.030682625 0.19108671
-0.022097686 0.02762015 0.19251296
-0.021606585 0.024429185 0.19416595
-0.021900753 0.020923497 0.19596036
-0.022961486 0.017276179 0.19769233
-0.023073649 0.012727508 0.19931735
-0.022886455 0.0084819403 0.20095539
-0.023506086 0.0044083777 0.20312157
-0.024091298 0.0004728217 0.20580435
-0.025579782 -0.0026494269 0.20919459
-0.026990579 -0.0055601369 0.2128752
-0.028114637 -0.0087436838 0.21663588
-0.028112063 -0.011649737 0.22106864
-0.02821511 -0.014709797 0.22307411
-0.027534058 -0.017356837 0.22615947
-0.026891498 -0.020341245 0.22729905
-0.026767677 -0.023593117 0.22905318
-0.026922924 -0.027051441 0.23164064
-0.018718192 0.042356513 0.18324995
-0.018254664 0.040089782 0.1846837
-0.018256234 0.037351344 0.18589161
-0.018497987 0.034250464 0.18893515
-0.018887434 0.031149816 0.19172597
-0.018872315 0.028274756 0.1933402
-0.018702565 0.025129769 0.19555736
-0.019329987 0.021194352 0.19730407
-0.019960154 0.017466759 0.19934103
-0.02006199 0.013426361 0.20113523
-0.019926101 0.0096276291 0.2028621
-0.020588029 0.0059285434 0.2056458
-0.021227853 0.0020610963 0.20815963
-0.022482445 -0.0018060806 0.21198614
-0.023492483 -0.0046719243 0.21525408
-0.024248719 -0.0077785859 0.21838352
-0.024247589 -0.01081067 0.22257356
-0.024225239 -0.013961666 0.22455062
-0.023877408 -0.016933875 0.2272024
-0.02296976 -0.019925054 0.22803552
-0.02297708 -0.023491094 0.22866035
-0.023265878 -0.027318541 0.23324969
-0.015421958 0.040342458 0.18537423
-0.015228149 0.037650388 0.18680884
-0.015256497 0.034487586 0.18904425
-0.015188951 0.031382773 0.19161882
-0.015207813 0.028524166 0.19369037
-0.015243621 0.025377043 0.19697613
-0.016437141 0.021143913 0.1993642
-0.016615685 0.01756919 0.20122977
-0.016773175 0.014139472 0.20257871
-0.016885428 0.010788222 0.20437129
-0.017420208 0.0071497662 0.20783764
-0.017468365 0.004111717 0.21071731
-0.018428074 0.00011812235 0.21380252
-0.020099999 -0.0039562033 0.21708384
-0.020854499 -0.0074544107 0.22070533
-0.020711171 -0.010325784 0.22370249
-0.020456379 -0.013579678 0.22544257
-0.020237651 -0.016651118 0.22797281
-0.019489033 -0.019896993 0.22849613
-0.019366141 -0.023534028 0.23020805
-0.019539939 -0.028050184 0.23681377
-0.012595852 0.037532113 0.18800884
-0.012026012 0.034944717 0.18961948
-0.011798407 0.031807736 0.19187087
-0.011671961 0.02892269 0.19423689
-0.012050349 0.025662126 0.19737658
-0.013055853 0.021867555 0.20090546
-0.013143847 0.018614152 0.20308851
-0.013385753 0.015296412 0.2048029
-0.014137548 0.011625067 0.2070602
-0.014106533 0.008220762 0.21023422
-0.014305802 0.0050914544 0.21255486
-0.014307379 0.0018092336 0.21543904
-0.016202237 -0.0032386589 0.21847863
-0.017271247 -0.0067858337 0.22184326
-0.017234152 -0.0097407037 0.22416703
-0.016840041 -0.01280198 0.22611503
-0.016782682 -0.015972512 0.22874235
-0.016232861 -0.019603228 0.23019288
-0.015765062 -0.023787526 0.23364536
-0.015979026 -0.028415943 0.23977914
-0.0095326239 0.034609757 0.19024938
-0.0087012704 0.032332651 0.19269282
-0.0085033942 0.029488642 0.1955467
-0.0088701453 0.02619404 0.19863452
-0.0096516069 0.022983069 0.20215979
-0.0099220993 0.019764829 0.20498978
-0.010135648 0.016444197 0.20738108
-0.010818672 0.012744565 0.20969668
-0.010654281 0.0091589196 0.21176249
-0.010612727 0.0058798091 0.21449327
-0.010285992 0.0026683765 0.21698393
-0.010614031 -0.0015367884 0.21951866
-0.012500083 -0.0058947788 0.22282746
-0.012467637 -0.0089750346 0.22465377
-0.012519191 -0.012141223 0.2273635
-0.012703643 -0.015704777 0.23019589
-0.012611113 -0.019377211 0.23233338
-0.012126782 -0.023958182 0.2361524
-0.012392903 -0.027531352 0.24057223
-0.0056460421 0.032222584 0.19552302
-0.0056579397 0.029720269 0.19786716
-0.0060385116 0.026399847 0.20114724
-0.0063981051 0.023375625 0.20364316
-0.0066010212 0.020388825 0.20595843
-0.0067638448 0.016917709 0.20885082
-0.0070291203 0.013195551 0.21097185
-0.0069558532 0.0098177576 0.21254793
-0.0068033873 0.0064823185 0.21509337
-0.0068872822 0.0029389285 0.21750446
-0.0066839079 -0.00095115299 0.22014874
-0.0069634286 -0.0051714205 0.22346209
-0.007554715 -0.0088073853 0.2259623
-0.0082787937 -0.012319124 0.22811507
-0.0085109714 -0.015824322 0.23058873
-0.0086586578 -0.019368811 0.23365639
-0.0088753337 -0.02307927 0.23594989
-0.0033728755 0.03173798 0.19769523
-0.0028684116 0.029587882 0.19905463
-0.0029444075 0.026262613 0.20150998
-0.0030794418 0.023191094 0.2035335
-0.0032165423 0.020267967 0.20563243
-0.0034983086 0.016982635 0.208823
-0.0035633517 0.013458785 0.21139374
-0.003379347 0.010008395 0.21306242
-0.0033350326 0.0068802172 0.21540838
-0.0032262893 0.0032169626 0.21734686
-0.0032118747 -0.0010607543 0.22106567
-0.0030605341 -0.0048113996 0.22319357
-0.0036934197 -0.0087912939 0.22607116
-0.004194445 -0.012258517 0.22791347
-0.0051469025 -0.015524724 0.22997434
-0.00025279351 0.028735656 0.19983496
0.00018956598 0.026230391 0.20165624
6.6563475e-06 0.023037413 0.20336047
0.00012491998 0.020218454 0.20533291
-4.8301448e-05 0.016909331 0.20787913
3.8666036e-05 0.013621471 0.21036842
0.00013277962 0.010450492 0.21274166
0.00015765156 0.0072813211 0.21517907
0.00049804582 0.0037537769 0.21650322
0.00045492005 -0.00047192301 0.22008422
0.00083951617 -0.0043150834 0.22266048
-0.00014198065 -0.0082391081 0.22565272
-0.0016611021 -0.011292496 0.22817402
0.0029386403 0.025792945 0.20219947
0.0032147651 0.023115123 0.20306072
0.003504646 0.020200951 0.20479208
0.0034218163 0.016894765 0.20738345
0.0035353492 0.013676996 0.20962
0.0035792445 0.010660569 0.21175808
0.0031714819 0.0073402473 0.21497093
0.002984042 0.0042741955 0.216499
0.0029164732 -0.0001321864 0.21942706
0.0030291313 -0.0031733119 0.22193679
0.0049937759 0.022976995 0.20329171
0.0055122203 0.020009477 0.20495741
0.0056313141 0.017057324 0.20722461
0.0055877077 0.013493408 0.20994911
0 0 0 1 0 0 0 1 0 0 0 1 0 0 0 0 0 354 1 0 0
