ply
format ascii 1.0
comment PCL generated
element vertex 354
property float x
property float y
property float z
element camera 1
property float view_px
property float view_py
property float view_pz
property float x_axisx
property float x_axisy
property float x_axisz
property float y_axisx
property float y_axisy
property float y_axisz
property float z_axisx
property float z_axisy
property float z_axisz
property float focal
property float scalex
property float scaley
property float centerx
property float centery
property int viewportx
property int viewporty
property float k1
property float k2
end_header
-0.056843601 0.026393093 0.18787991
-0.057607748 0.023528082 0.19003113
-0.058335621 0.020093728 0.19257835
-0.058739524 0.016481781 0.19452222
-0.058497999 0.013329609 0.19582735
-0.052728377 0.031084424 0.18401696
-0.053479422 0.029278284 0.18469182
-0.054022092 0.026583236 0.18568297
-0.054429833 0.023949146 0.18722296
-0.055229798 0.02082246 0.18999015
-0.056147557 0.016800899 0.1924931
-0.056898072 0.01280404 0.19464172
-0.05700041 0.0093613537 0.19590747
-0.05584966 0.0054406929 0.19787142
-0.049398217 0.033836264 0.18153356
-0.049915485 0.03207095 0.18230061
-0.050217036 0.029593641 0.18296432
-0.050476681 0.026836587 0.18395016
-0.051035617 0.023996156 0.18563394
-0.051986415 0.020721715 0.18847963
-0.052457921 0.017280335 0.19022574
-0.053418785 0.013498317 0.19222447
-0.054026164 0.0090974346 0.19499812
-0.052962907 0.0026674364 0.19916196
-0.05205356 -0.0030362119 0.20007776
-0.050990216 -0.0071801501 0.20109262
-0.047305707 0.034609389 0.18009691
-0.047289468 0.032274004 0.18118241
-0.04717664 0.029725242 0.18219137
-0.047259089 0.026801519 0.18346015
-0.04799521 0.023932435 0.1849867
-0.048788104 0.020603884 0.18714124
-0.049048766 0.017338743 0.18848996
-0.049763303 0.01358805 0.19059758
-0.050586265 0.0084385024 0.19361079
-0.049112733 0.0006013349 0.19708923
-0.048545927 -0.0049782479 0.19819649
-0.048409812 -0.0079845218 0.20099488
-0.049301662 -0.010183515 0.20254882
-0.050953142 -0.011194127 0.20370546
-0.044401351 0.037041828 0.1789753
-0.044525597 0.035087451 0.17986296
-0.044405501 0.032629803 0.18114008
-0.044338528 0.030031597 0.18257809
-0.044586398 0.027226418 0.18378924
-0.045337759 0.024203653 0.18486939
-0.04601223 0.020712832 0.18647115
-0.046221957 0.01739366 0.18736352
-0.046398383 0.013609028 0.18885306
-0.046613462 0.0073749209 0.1918073
-0.046501987 0.00065265613 0.19472337
-0.045701344 -0.0051808162 0.19711246
-0.045564391 -0.007088331 0.20113908
-0.046578143 -0.008895983 0.20321138
-0.049179785 -0.011638872 0.20460403
-0.051318381 -0.014596111 0.207708
-0.052685089 -0.015788859 0.21231502
-0.053126547 -0.017399155 0.21603929
-0.041932341 0.037996616 0.17872983
-0.041790809 0.035494696 0.18018594
-0.041635972 0.033088721 0.18146345
-0.041757181 0.030629968 0.1827729
-0.042269167 0.027826732 0.18402055
-0.04264107 0.024539674 0.18533875
-0.043058947 0.020795625 0.18631037
-0.043176863 0.017296474 0.18668415
-0.043404512 0.013279484 0.1877365
-0.043451138 0.00821946 0.18998049
-0.043511968 0.0012285358 0.19263902
-0.042754028 -0.0035155972 0.19544165
-0.042363849 -0.0056166491 0.20004967
-0.042869061 -0.0082026199 0.20306596
-0.045937814 -0.011686393 0.2056863
-0.048740931 -0.014060693 0.20908175
-0.050137926 -0.015506937 0.21319471
-0.05119944 -0.01724571 0.21659525
-0.05137052 -0.018906143 0.22102253
-0.050790664 -0.020371567 0.22476102
-0.038718276 0.040630855 0.17745152
-0.039012264 0.038882308 0.17894116
-0.038976476 0.036314432 0.18051973
-0.038894895 0.033877518 0.18187042
-0.038962267 0.031148892 0.18339701
-0.039411213 0.028151339 0.18484776
-0.039537065 0.024861565 0.18580955
-0.039896034 0.020976521 0.18654309
-0.04014479 0.017359899 0.18692695
-0.039866921 0.013363225 0.18749686
-0.040238235 0.0086576957 0.18952145
-0.040719535 0.0025571876 0.19185844
-0.039714884 -0.0020630523 0.19434641
-0.039278656 -0.0042540086 0.19797716
-0.039757956 -0.0069724396 0.20348701
-0.042905238 -0.011726358 0.20658822
-0.045895346 -0.013759142 0.20987889
-0.046896733 -0.015234937 0.21391885
-0.047730241 -0.017470384 0.21738176
-0.047513325 -0.019364178 0.22106513
-0.047529574 -0.021533908 0.22420584
-0.0471889 -0.023323029 0.22687849
-0.035636555 0.04128544 0.1779675
-0.035704996 0.039669499 0.17935425
-0.035682432 0.037157033 0.18104114
-0.035942242 0.034424745 0.18248759
-0.0355215 0.031316463 0.18408018
-0.035642561 0.027996374 0.18584095
-0.035974238 0.024905423 0.18703918
-0.036504529 0.021396663 0.1878151
-0.037098385 0.017688138 0.18799518
-0.036898758 0.013700595 0.18884911
-0.037318524 0.0090033868 0.19027744
-0.037718859 0.0032315045 0.19220267
-0.037667032 -0.0004007472 0.19416878
-0.03690809 -0.003249344 0.19755383
-0.037435722 -0.0066996394 0.20336011
-0.040388677 -0.011616274 0.20792434
-0.042327981 -0.013671971 0.2107282
-0.043256063 -0.015421162 0.21452075
-0.043633148 -0.017851116 0.21778871
-0.043422215 -0.020039888 0.22106884
-0.043183103 -0.022337751 0.22355646
-0.043142848 -0.024459355 0.22631292
-0.031841628 0.042236198 0.17903091
-0.031904008 0.040525451 0.18011633
-0.031916909 0.037908059 0.18190193
-0.032028202 0.034766577 0.18409303
-0.032312147 0.03139523 0.18562934
-0.032204382 0.028146619 0.18724158
-0.032172032 0.024992906 0.18858379
-0.032522917 0.021780066 0.189665
-0.033985429 0.018382031 0.18926883
-0.034069274 0.014075595 0.18999712
-0.034274828 0.009523103 0.19124772
-0.034883551 0.0035258878 0.19347437
-0.035036426 7.9512356e-05 0.19566377
-0.034879941 -0.0025271755 0.1988963
-0.036212858 -0.0063896812 0.20450507
-0.038025957 -0.010251193 0.20873681
-0.039441008 -0.013218022 0.21146576
-0.040160224 -0.015506038 0.21511622
-0.039996099 -0.017966496 0.21828386
-0.039656382 -0.020332716 0.22101443
-0.039395962 -0.022632448 0.22289321
-0.039476074 -0.024819613 0.22567829
-0.028268611 0.042902052 0.17990248
-0.028054241 0.041144013 0.18100204
-0.028079841 0.038511336 0.18289517
-0.028623648 0.035044618 0.18559547
-0.029176284 0.031613536 0.18726851
-0.02901097 0.028425919 0.18862177
-0.028697761 0.025374135 0.18952152
-0.028287996 0.022392835 0.19059198
-0.028462151 0.018999189 0.19173126
-0.030749291 0.015075405 0.19201259
-0.031544887 0.0087024784 0.19315121
-0.031621162 0.0038394392 0.19555697
-0.030995106 0.00061962148 0.19800808
-0.031361867 -0.0027280666 0.20132805
-0.032760747 -0.005886388 0.20626752
-0.034510683 -0.0092346026 0.21000054
-0.036062308 -0.012672822 0.21245368
-0.037398513 -0.015538172 0.21639194
-0.036511958 -0.017953664 0.21835706
-0.036043849 -0.019901346 0.22116849
-0.035752807 -0.022360094 0.22343244
-0.035190575 -0.024857925 0.22708963
-0.034010433 -0.026551485 0.22992845
-0.024676429 0.043178067 0.18099149
-0.024709284 0.041514039 0.18202437
-0.024422947 0.03880481 0.18352576
-0.025031351 0.035891626 0.18590994
-0.026104607 0.032241013 0.18785614
-0.025879243 0.029000867 0.18967441
-0.025388995 0.026035478 0.1906846
-0.02484173 0.022722045 0.1920971
-0.024407415 0.01984564 0.193652
-0.025888318 0.016322626 0.19469087
-0.026666081 0.010893843 0.1965667
-0.026679799 0.005745729 0.19786482
-0.026925607 0.0019340634 0.20009805
-0.027783314 -0.0015836025 0.20351908
-0.029385611 -0.0047369306 0.20749022
-0.030903263 -0.0079710698 0.211473
-0.032327965 -0.0113711 0.21478707
-0.033291593 -0.014546328 0.21841656
-0.032362621 -0.016975226 0.21966524
-0.031731348 -0.019240411 0.22288786
-0.030928496 -0.021888461 0.22530057
-0.030765116 -0.024426004 0.22787046
-0.030662544 -0.027246766 0.23043343
-0.021511534 0.043679215 0.18152684
-0.02139206 0.041958403 0.18250616
-0.021340437 0.039227527 0.18376726
-0.021281902 0.036718223 0.18546869
-0.022192976 0.033167791 0.18849277
-0.022416998 0.030022305 0.19077176
-0.022083154 0.027004456 0.1922411
-0.021497069 0.023850644 0.19386858
-0.021795282 0.020380529 0.19556594
-0.022995101 0.016851692 0.19710456
-0.023269664 0.012236984 0.1988146
-0.023195306 0.0079675559 0.20041071
-0.023860825 0.0037878864 0.20255233
-0.024632914 -0.00017793225 0.20560892
-0.026133684 -0.0035577791 0.20908864
-0.027383259 -0.0065653054 0.21281812
-0.028438063 -0.0099189933 0.21653041
-0.028600849 -0.012820612 0.22078294
-0.028632777 -0.015851958 0.22275355
-0.027834894 -0.018259795 0.22563706
-0.02704232 -0.020866863 0.2267354
-0.026947506 -0.023688504 0.22882012
-0.027099384 -0.027004723 0.23148364
-0.018641369 0.041971061 0.18332452
-0.018170075 0.039728541 0.18472679
-0.018200725 0.036969028 0.18592991
-0.018509904 0.033736143 0.18874079
-0.018923486 0.030539623 0.19139528
-0.01883878 0.027703602 0.1930439
-0.018560307 0.024595384 0.19523983
-0.019201752 0.020689141 0.19678512
-0.019962978 0.016996475 0.19870681
-0.020219771 0.012964072 0.2005731
-0.02022977 0.0091822688 0.20235738
-0.02101768 0.005491382 0.20515166
-0.021658389 0.0015184295 0.20774932
-0.022886712 -0.0026060704 0.21162333
-0.023838023 -0.005382617 0.21492125
-0.024552045 -0.0085700285 0.21803243
-0.024725134 -0.011686065 0.22223262
-0.024796272 -0.014803167 0.22438389
-0.024190124 -0.017574938 0.22679852
-0.023171159 -0.020303961 0.22740966
-0.023202484 -0.023612885 0.22847492
-0.023434015 -0.027217718 0.23298992
-0.015350315 0.0400059 0.18542282
-0.015166135 0.037277844 0.18682413
-0.015290508 0.034041766 0.18891124
-0.015242426 0.030850586 0.19130865
-0.01520066 0.028017115 0.19339298
-0.015141203 0.02493928 0.19669522
-0.016313549 0.0206437 0.1987806
-0.016570749 0.017047552 0.20057744
-0.016908811 0.013681139 0.20195358
-0.017176844 0.010369352 0.20383576
-0.017701143 0.006707842 0.20732583
-0.017778831 0.0037759936 0.2102595
-0.018815493 -0.00023731071 0.21345493
-0.020467279 -0.0045290198 0.21667051
-0.0211829 -0.0081301061 0.22031169
-0.021124749 -0.010992103 0.22332807
-0.021041794 -0.014129207 0.22528048
-0.020628057 -0.017078495 0.22748704
-0.019747265 -0.020188689 0.22787233
-0.019625919 -0.023566306 0.2298627
-0.019682318 -0.027978625 0.23653771
-0.012535195 0.037189003 0.18800803
-0.012056782 0.034617133 0.18953681
-0.011843911 0.031516727 0.19161329
-0.011657008 0.028629886 0.19398159
-0.012028757 0.025409961 0.19718482
-0.013067838 0.021478957 0.20047012
-0.013195151 0.018207084 0.20252559
-0.013518841 0.014878577 0.20423728
-0.014325937 0.011141133 0.20651312
-0.014286526 0.0077946559 0.2096903
-0.014563677 0.0047795079 0.21212596
-0.014578334 0.0016179961 0.21517971
-0.016568618 -0.0036406224 0.21808521
-0.017598573 -0.0072832387 0.22142959
-0.017611874 -0.010122427 0.22376381
-0.017253878 -0.012986301 0.22578827
-0.017132573 -0.016118027 0.22821604
-0.016494295 -0.019766862 0.22940461
-0.016027117 -0.02383063 0.233114
-0.016117146 -0.028390177 0.23932414
-0.0096053956 0.034465142 0.19020061
-0.0087527214 0.032237951 0.19257808
-0.0085214321 0.029427232 0.19547957
-0.0089195846 0.026144443 0.19876073
-0.009759184 0.022734214 0.20208983
-0.010084132 0.01945514 0.20474628
-0.010394399 0.016072927 0.20703439
-0.010935475 0.01228385 0.2091717
-0.010793584 0.0087424871 0.2112806
-0.010766683 0.0055535254 0.21410336
-0.010393432 0.0024598315 0.21672742
-0.010660389 -0.0016857579 0.21935879
-0.012606913 -0.0061838473 0.22256675
-0.012659047 -0.0091755334 0.22430001
-0.012730514 -0.012253019 0.22698811
-0.012947652 -0.015849568 0.22976455
-0.012899726 -0.019517748 0.2317441
-0.012382094 -0.024006555 0.2355625
-0.012523361 -0.027577419 0.2401256
-0.0057508848 0.032268245 0.19548546
-0.005695045 0.029800616 0.1980138
-0.0060981903 0.026372101 0.20147666
-0.0065514524 0.023126584 0.20369887
-0.0067933435 0.020082992 0.2058114
-0.0070333206 0.01653186 0.20865117
-0.0072283167 0.012745605 0.2106299
-0.0071647912 0.0094130384 0.21215756
-0.0069522765 0.0062117926 0.21479958
-0.006965525 0.0027745587 0.21724512
-0.0066363597 -0.001114128 0.21995527
-0.006877834 -0.0054529337 0.22336176
-0.0076025045 -0.0090419119 0.22573929
-0.0084332814 -0.012497051 0.22779657
-0.0087868562 -0.016036732 0.23029207
-0.0089982552 -0.019506557 0.23324937
-0.009181736 -0.023175959 0.23541449
-0.0034874748 0.031834543 0.19780418
-0.0029315311 0.029645383 0.19930816
-0.0030157699 0.026151074 0.20179695
-0.0032454282 0.022878457 0.20349982
-0.0034581015 0.019913847 0.20540793
-0.0037912996 0.016582588 0.2086146
-0.0038261567 0.013046773 0.2111357
-0.0036075637 0.009650426 0.2128045
-0.0035273929 0.0066146255 0.21505648
-0.0032984994 0.0030381039 0.21702005
-0.0031687592 -0.0012782064 0.22074987
-0.0029181845 -0.0051019718 0.22293696
-0.0037748818 -0.0090836305 0.22587107
-0.004384215 -0.012501824 0.22772048
-0.0053947386 -0.015795367 0.22984004
-0.00027395852 0.028640609 0.20006816
5.4735658e-05 0.025890145 0.20173159
-0.00023069704 0.02258339 0.20321015
-0.00012439603 0.019716734 0.20512573
-0.00040445788 0.016437251 0.20767364
-0.00030011844 0.013169785 0.21014284
-0.00011055799 0.010066724 0.21243072
-4.79236e-06 0.0069303703 0.21468857
0.00035636703 0.0034667463 0.21606405
0.00046390577 -0.00074531086 0.21963483
0.00095934398 -0.0046214955 0.22224833
-0.00014443758 -0.008556732 0.22540309
-0.0018518163 -0.011597097 0.2279536
0.0026781687 0.02520572 0.2021032
0.0029169498 0.022491347 0.20288585
0.0031901961 0.019609179 0.20455328
0.0030384217 0.016391711 0.20718685
0.0031638755 0.013191285 0.209373
0.0033103968 0.010205816 0.21137239
0.0029870679 0.0068696216 0.2143949
0.0028536296 0.0039033478 0.2159064
0.002838365 -0.00043821783 0.21891612
0.0030673107 -0.0034736576 0.22142132
0.0046541397 0.022266744 0.20304175
0.005136264 0.019373257 0.20475246
0.0052607316 0.016531643 0.20705381
0.0052347472 0.013023721 0.20965622
0 0 0 1 0 0 0 1 0 0 0 1 0 0 0 0 0 354 1 0 0
