ply
format ascii 1.0
comment PCL generated
element vertex 354
property float x
property float y
property float z
element camera 1
property float view_px
property float view_py
property float view_pz
property float x_axisx
property float x_axisy
property float x_axisz
property float y_axisx
property float y_axisy
property float y_axisz
property float z_axisx
property float z_axisy
property float z_axisz
property float focal
property float scalex
property float scaley
property float centerx
property float centery
property int viewportx
property int viewporty
property float k1
property float k2
end_header
-0.056966178 0.02597281 0.18769437
-0.057798948 0.023077294 0.18968475
-0.058536526 0.019738762 0.19244087
-0.058811411 0.016324107 0.1949808
-0.058524292 0.013212064 0.19646795
-0.052677494 0.030716926 0.18397288
-0.053460136 0.028902031 0.18459627
-0.054067556 0.026155822 0.18549469
-0.054565389 0.023457212 0.18689774
-0.055453766 0.020351784 0.18970311
-0.056248166 0.016530238 0.19273649
-0.056989856 0.012633093 0.19530624
-0.057113029 0.0092849825 0.196624
-0.05607184 0.0052647074 0.19848467
-0.049278241 0.03361645 0.1816026
-0.049803019 0.031787641 0.18229145
-0.050103471 0.029274276 0.1828105
-0.050377667 0.026427848 0.18354042
-0.051085502 0.023433592 0.1851941
-0.052147903 0.020216813 0.18821669
-0.052606814 0.016899558 0.19023144
-0.053536836 0.013343731 0.1926689
-0.054157555 0.0089813275 0.19572082
-0.05324911 0.0023542901 0.19972108
-0.052301303 -0.0033618822 0.20059933
-0.051193926 -0.0075165671 0.20159319
-0.047151852 0.034492157 0.18030377
-0.047156807 0.032108091 0.18127573
-0.047010593 0.029489473 0.18207659
-0.047097337 0.026451034 0.18305102
-0.047989365 0.023405585 0.1845669
-0.048908517 0.020027824 0.18688668
-0.04914749 0.01684051 0.18841587
-0.049895205 0.013382532 0.1908658
-0.050766833 0.0082213711 0.19423345
-0.049336273 0.0002932421 0.19776918
-0.048683349 -0.0052447398 0.19883415
-0.048592601 -0.0083052712 0.20153424
-0.049574975 -0.010532002 0.20283626
-0.051279157 -0.01159734 0.20380679
-0.044228431 0.036896098 0.17933033
-0.044358887 0.034972142 0.18016924
-0.044248622 0.032502703 0.1813764
-0.044226896 0.029825773 0.1826736
-0.044517871 0.026968002 0.18371774
-0.045405317 0.023811683 0.18474948
-0.046156093 0.020187968 0.18635476
-0.046339717 0.016856009 0.18729837
-0.046568181 0.013262084 0.18913358
-0.046801165 0.0069838599 0.19245106
-0.046550326 0.00041356654 0.19572422
-0.045802541 -0.0054106484 0.19791922
-0.04573787 -0.0074168919 0.20178007
-0.046881873 -0.0092218798 0.2036224
-0.04954388 -0.012007231 0.20468876
-0.051702492 -0.01493954 0.20768793
-0.052968167 -0.016421184 0.21208155
-0.053322483 -0.01792377 0.21564612
-0.041755434 0.037802003 0.17914428
-0.041645717 0.035349164 0.18064395
-0.041555416 0.032995399 0.18192267
-0.04175166 0.030542068 0.1831708
-0.042324465 0.027710602 0.18430828
-0.042834088 0.024322307 0.18555973
-0.043220084 0.020394526 0.18645987
-0.043273497 0.016813584 0.18673597
-0.043608755 0.012856066 0.18810655
-0.043647882 0.007844748 0.19060889
-0.04351278 0.0010372415 0.19378643
-0.042843882 -0.0036879964 0.1965313
-0.042500455 -0.0059599434 0.20085578
-0.043150101 -0.0085189212 0.2036045
-0.046338432 -0.012002007 0.2058316
-0.049148496 -0.014404548 0.20909214
-0.050481953 -0.016159469 0.21295989
-0.051533647 -0.017957263 0.21633863
-0.05166924 -0.019612245 0.22079925
-0.050997388 -0.02098798 0.2245546
-0.038486172 0.040296517 0.17787215
-0.038861249 0.038582556 0.17939253
-0.038886387 0.036113918 0.18109415
-0.038885225 0.033796582 0.18261996
-0.039108735 0.031189801 0.18430234
-0.03966298 0.02813286 0.18563358
-0.039828409 0.024796342 0.18652625
-0.040107112 0.020748081 0.18705283
-0.040250294 0.016975146 0.18716797
-0.040138684 0.013013982 0.18796214
-0.040458605 0.0083303219 0.19008361
-0.040857572 0.0023673021 0.19284229
-0.039849184 -0.0022376631 0.19548096
-0.039443407 -0.0045663905 0.19894835
-0.039998297 -0.0073767453 0.20411326
-0.043280311 -0.011941771 0.2067399
-0.046417341 -0.014137638 0.20994535
-0.047280189 -0.015898922 0.21368608
-0.048049994 -0.018176319 0.21710101
-0.047739059 -0.020021804 0.22082855
-0.047693919 -0.022142511 0.22400837
-0.047330253 -0.023886643 0.22671098
-0.035367493 0.04103047 0.17853945
-0.035510786 0.039433915 0.17996439
-0.035576165 0.0369347 0.1817347
-0.036010511 0.034318633 0.18345161
-0.035746012 0.031402752 0.18528934
-0.035963953 0.028100599 0.18700974
-0.036348842 0.024995176 0.18814664
-0.036803082 0.021308551 0.18864045
-0.037236981 0.017262906 0.18811861
-0.03710689 0.013392233 0.18914592
-0.037567757 0.0087077264 0.19074064
-0.037972867 0.003076758 0.19301704
-0.037839457 -0.00056599628 0.19507861
-0.036965072 -0.0035132505 0.19843388
-0.037585825 -0.0071882638 0.20381831
-0.040777363 -0.011978092 0.20814472
-0.042738926 -0.014022463 0.21072973
-0.043613032 -0.016052617 0.21427388
-0.043932609 -0.018538127 0.21751507
-0.043635301 -0.020679269 0.2208111
-0.043325715 -0.022924138 0.2233457
-0.04320012 -0.024905881 0.2261516
-0.031492107 0.042119216 0.17968592
-0.031627495 0.040455472 0.18084705
-0.031737164 0.037922669 0.18278156
-0.032146227 0.034837183 0.1851459
-0.032616969 0.031532675 0.18689801
-0.032531951 0.028303802 0.1884664
-0.032504193 0.02517454 0.18979558
-0.032822222 0.021910362 0.19076277
-0.034113303 0.018017566 0.18940651
-0.034243703 0.013757042 0.1901852
-0.034472376 0.0092621557 0.19156213
-0.035098627 0.0033035025 0.19394675
-0.035124898 -0.00019814252 0.19614303
-0.034760632 -0.0029065793 0.19940849
-0.036391728 -0.0071330373 0.20477137
-0.038303275 -0.010874338 0.20879541
-0.039767042 -0.013770204 0.2114954
-0.040531803 -0.016137162 0.21488006
-0.0402417 -0.018662814 0.21792026
-0.039780736 -0.021029385 0.22062376
-0.039442685 -0.023190295 0.22262406
-0.039487794 -0.025160111 0.22553726
-0.027829859 0.042898573 0.1806694
-0.027651299 0.04120611 0.1818538
-0.027774956 0.038679801 0.18387981
-0.028667714 0.035197254 0.18666765
-0.029410696 0.03170111 0.18839441
-0.029270295 0.02853433 0.1897496
-0.028989788 0.02552251 0.19065285
-0.028560327 0.022519939 0.19161966
-0.028651739 0.018928397 0.19222447
-0.030803032 0.014738904 0.1920148
-0.031662632 0.0083812075 0.19323584
-0.031694349 0.0034829821 0.19552851
-0.031004967 0.00021894633 0.19780444
-0.031444874 -0.0033190814 0.20108965
-0.032891456 -0.0067188316 0.20617166
-0.034715515 -0.0099248942 0.21004678
-0.036393534 -0.013306506 0.21259488
-0.037739825 -0.016328063 0.21621352
-0.036711778 -0.018871328 0.21772176
-0.036106024 -0.020660436 0.22051251
-0.035722114 -0.022859881 0.22297986
-0.035127468 -0.02494066 0.22685964
-0.03382121 -0.026249561 0.2299089
-0.024235843 0.043197367 0.18184389
-0.024272682 0.041585475 0.18295264
-0.024069017 0.038929027 0.18456905
-0.024859153 0.036042362 0.18695548
-0.026261007 0.032236721 0.18880674
-0.026030088 0.028998012 0.19056804
-0.025539877 0.026027016 0.19149759
-0.024961287 0.02264652 0.1926102
-0.024515174 0.019677099 0.19374484
-0.026221205 0.016230382 0.19456758
-0.027242666 0.010913149 0.19660643
-0.027190294 0.0056972997 0.19775294
-0.027328482 0.0018073908 0.1998648
-0.027993299 -0.0021108452 0.20321682
-0.029492034 -0.0054848832 0.20728391
-0.031042302 -0.0086397342 0.21145983
-0.032570641 -0.012193639 0.21469307
-0.033571079 -0.015413294 0.2179921
-0.032499846 -0.017805368 0.21885058
-0.031673629 -0.019854337 0.22197515
-0.030769071 -0.02221212 0.22461675
-0.03061128 -0.024369672 0.22757937
-0.030556507 -0.027086634 0.23026074
-0.021051273 0.043649282 0.18239127
-0.020926243 0.041950405 0.18341464
-0.020949159 0.039234471 0.18471348
-0.020949006 0.03670055 0.18634076
-0.022086477 0.032926779 0.18904832
-0.022357782 0.029790601 0.19118743
-0.022040397 0.026771059 0.19261925
-0.021411097 0.023547238 0.1939999
-0.021753412 0.020030165 0.195289
-0.023111843 0.016624188 0.19662061
-0.023613505 0.012073123 0.19855599
-0.023699092 0.0078964112 0.20029014
-0.024382111 0.0036557121 0.20242575
-0.024905564 -0.00055928889 0.20535213
-0.026294516 -0.0042032162 0.20882326
-0.027487328 -0.0070857187 0.21266966
-0.028632678 -0.010575949 0.21634467
-0.028939432 -0.013114832 0.22035713
-0.028765939 -0.016269594 0.22193415
-0.027749181 -0.01860371 0.22461149
-0.026894094 -0.020937784 0.225914
-0.026924688 -0.023438998 0.22853224
-0.027042897 -0.026817668 0.2311613
-0.018148057 0.041792214 0.18408617
-0.017714864 0.039509181 0.18540834
-0.017841933 0.036659915 0.18648998
-0.018264113 0.03320602 0.18887891
-0.018785322 0.030021012 0.19139759
-0.018711956 0.027267875 0.1931271
-0.018364739 0.024144884 0.19520758
-0.018998234 0.020232985 0.1961952
-0.019927671 0.01663889 0.19797204
-0.020377573 0.012706434 0.20005934
-0.020570915 0.0090192854 0.20209543
-0.021511434 0.0054132203 0.20501764
-0.022066889 0.0013133654 0.20761253
-0.023192994 -0.0030843655 0.21141635
-0.024078462 -0.005780221 0.21465908
-0.024746371 -0.008889162 0.21769634
-0.024983115 -0.011875378 0.22169873
-0.024961514 -0.015030574 0.22364017
-0.024076149 -0.017772174 0.22576384
-0.023028061 -0.020337746 0.22646295
-0.023188656 -0.02345616 0.22807975
-0.023310985 -0.027110631 0.23241349
-0.014873714 0.03960254 0.18592645
-0.014755545 0.036741354 0.18712747
-0.015021118 0.033346772 0.18886769
-0.01510254 0.030107304 0.1910751
-0.015081363 0.027427359 0.19332384
-0.014831509 0.024476836 0.19654132
-0.015819028 0.0201039 0.19789006
-0.016259497 0.016536161 0.19967353
-0.016845331 0.013264089 0.20121872
-0.017302129 0.010021024 0.20339143
-0.018001817 0.0065655713 0.20712009
-0.018162439 0.0037699142 0.21023037
-0.019242235 -0.00026257333 0.21341529
-0.020752588 -0.0047364556 0.21637142
-0.0214078 -0.0083023198 0.21995603
-0.021310776 -0.011109665 0.22273657
-0.02118988 -0.01421299 0.22448507
-0.020501744 -0.017185209 0.22629978
-0.019647358 -0.020226087 0.22694869
-0.019597882 -0.023449318 0.22921471
-0.019505324 -0.028137369 0.23575675
-0.012107106 0.036528509 0.1881389
-0.011732765 0.033876821 0.18941745
-0.011610016 0.030924337 0.1914704
-0.011498226 0.028214836 0.1940314
-0.011801347 0.025269261 0.19732019
-0.012738026 0.021131311 0.2000463
-0.01293816 0.01780514 0.20191257
-0.013376092 0.014424509 0.20360671
-0.014333492 0.010736267 0.20606422
-0.014525842 0.0077127707 0.20954795
-0.014999781 0.0048843496 0.21222396
-0.015127482 0.0019110598 0.21556202
-0.016882641 -0.0036526355 0.21783745
-0.017797362 -0.0073103788 0.22107033
-0.017779641 -0.010075688 0.22324656
-0.01734167 -0.012886349 0.22513476
-0.017131058 -0.016098505 0.22734602
-0.016398828 -0.019774025 0.22845086
-0.015949808 -0.023922734 0.23223008
-0.015954696 -0.028839871 0.23834397
-0.0092737461 0.033928972 0.19021775
-0.0084979245 0.031882174 0.19272108
-0.0083965519 0.02929163 0.19586746
-0.0088871978 0.026293872 0.1994518
-0.0098049045 0.02264631 0.20240487
-0.010222306 0.019252617 0.20473613
-0.010662028 0.015794594 0.20684719
-0.010945613 0.011933714 0.20875686
-0.01099947 0.0086037479 0.21117111
-0.011204834 0.0057546445 0.21447693
-0.010891497 0.0030060585 0.21762271
-0.01105015 -0.0011287692 0.22030123
-0.012696192 -0.0060497904 0.22261941
-0.012696353 -0.0089767063 0.22414713
-0.012782108 -0.012066573 0.22673123
-0.013016954 -0.015794042 0.22934976
-0.012914917 -0.019599425 0.23106065
-0.012262039 -0.024313813 0.23446918
-0.012316655 -0.028114732 0.23901837
-0.0055829315 0.032159332 0.19588153
-0.005577046 0.029923297 0.19882183
-0.0061944318 0.026578901 0.20273282
-0.0068096607 0.023138052 0.20453475
-0.0070810295 0.019914515 0.20624758
-0.0073848697 0.016102903 0.2087177
-0.0075222766 0.012361454 0.21052271
-0.0075115762 0.0091595678 0.21224891
-0.0073447875 0.0063297893 0.21530357
-0.0073478594 0.00319488 0.21812211
-0.0069220192 -0.00070167013 0.22095081
-0.0069938363 -0.0053295768 0.22408782
-0.0077103539 -0.0088552684 0.22610049
-0.0085147871 -0.012287164 0.22781987
-0.008891115 -0.016030971 0.23008393
-0.0090554478 -0.019738041 0.2326919
-0.0090960432 -0.023604574 0.23441924
-0.0033643688 0.031935964 0.19860236
-0.002851601 0.029959399 0.20076706
-0.0030663908 0.026446363 0.20354263
-0.0033223319 0.02290458 0.20466509
-0.0036170182 0.019688295 0.20594952
-0.0041474667 0.016073262 0.20876025
-0.0041981959 0.012549895 0.21110761
-0.0039669308 0.0093562948 0.21299925
-0.003867476 0.0065525849 0.21548112
-0.0036057679 0.0032182753 0.21777332
-0.003385274 -0.0010655255 0.22152542
-0.0030065353 -0.005052459 0.22357638
-0.0039127921 -0.0089471443 0.22631206
-0.0045205317 -0.01234605 0.22793207
-0.0054864502 -0.015794601 0.22975834
-0.00021132559 0.029199947 0.20235445
4.084823e-05 0.026220348 0.20378497
-0.00026634854 0.022611234 0.2045555
-0.00026546165 0.019416893 0.20580456
-0.00075659947 0.015918324 0.20795329
-0.00070046773 0.012625086 0.21033086
-0.00044150423 0.0096179442 0.21264602
-0.00032904383 0.0065774908 0.2148906
2.621549e-05 0.0032850408 0.2165432
0.00024341441 -0.00070629636 0.22024143
0.00085054385 -0.0046303235 0.22276351
-0.00028048849 -0.0085309809 0.22587003
-0.0020152028 -0.011508663 0.22823276
0.0026104278 0.025443997 0.20422077
0.0028886804 0.022492604 0.20445314
0.0030465052 0.0192616 0.2053571
0.0027082872 0.015869092 0.20761375
0.0028002975 0.012653094 0.20972376
0.0029616847 0.009660827 0.21161552
0.0026272251 0.0063011767 0.21450332
0.0024986961 0.0034903365 0.21612488
0.0025615233 -0.0005062492 0.21940151
0.0028777893 -0.0035037019 0.22190154
0.0045916205 0.022204317 0.20463327
0.0049263849 0.018907107 0.20550185
0.0049530277 0.015962096 0.20751484
0.0048842514 0.012450481 0.20999324
0 0 0 1 0 0 0 1 0 0 0 1 0 0 0 0 0 354 1 0 0
