ply
format ascii 1.0
comment PCL generated
element vertex 354
property float x
property float y
property float z
element camera 1
property float view_px
property float view_py
property float view_pz
property float x_axisx
property float x_axisy
property float x_axisz
property float y_axisx
property float y_axisy
property float y_axisz
property float z_axisx
property float z_axisy
property float z_axisz
property float focal
property float scalex
property float scaley
property float centerx
property float centery
property int viewportx
property int viewporty
property float k1
property float k2
end_header
-0.056970086 0.026162645 0.18818422
-0.057752304 0.02326446 0.1902182
-0.058554478 0.019745445 0.19258395
-0.058912959 0.016122257 0.19463873
-0.058593053 0.013002719 0.19603862
-0.052840687 0.030892096 0.18432018
-0.053597093 0.029074458 0.18499736
-0.054133553 0.026380111 0.18598925
-0.054538403 0.023760902 0.18748687
-0.055419981 0.020580854 0.19010742
-0.056335509 0.016477799 0.19255319
-0.057021454 0.012473793 0.19488092
-0.057084821 0.0090023847 0.19609094
-0.055945549 0.0050210054 0.19795129
-0.049522333 0.033711061 0.18181953
-0.050028961 0.031953953 0.18258947
-0.050324492 0.029463787 0.18324986
-0.050556924 0.026710782 0.18419123
-0.051082239 0.023874013 0.18589684
-0.052114289 0.020541169 0.18865834
-0.052640669 0.017057419 0.1902898
-0.053607989 0.013152018 0.19218929
-0.054121602 0.0087585319 0.19519933
-0.053059082 0.0021099593 0.19914727
-0.052141719 -0.0036275559 0.19999897
-0.051050205 -0.0077973851 0.20102848
-0.047462594 0.034505125 0.18036912
-0.047449928 0.032167837 0.18142742
-0.047271922 0.029618496 0.18238069
-0.047335587 0.026679438 0.18359976
-0.04804071 0.023800977 0.18521486
-0.04885776 0.020446861 0.18738015
-0.049145263 0.017156223 0.18869965
-0.050008662 0.013268426 0.19042228
-0.050701402 0.008075838 0.19376576
-0.049247622 7.0115284e-08 0.1970187
-0.048615154 -0.005645413 0.19810717
-0.048458051 -0.0086494023 0.20090997
-0.049392637 -0.010885219 0.20241268
-0.051102914 -0.011898698 0.20351045
-0.044609141 0.03694097 0.17922916
-0.044693843 0.034975514 0.18006152
-0.044533744 0.032504879 0.18128611
-0.044455234 0.029903376 0.18267718
-0.044657629 0.02708899 0.18383774
-0.045407347 0.024046754 0.18497422
-0.046097655 0.020530928 0.18672262
-0.046326336 0.017209984 0.18764915
-0.046668056 0.013222416 0.18878153
-0.046822581 0.0069322991 0.19199717
-0.046656031 0.00014032859 0.19469918
-0.04577918 -0.0058221868 0.19702871
-0.045620866 -0.0077614496 0.20104304
-0.046686117 -0.0095943417 0.20309083
-0.049383707 -0.012343707 0.20444258
-0.051644105 -0.015147147 0.20765498
-0.052904833 -0.016186867 0.21232763
-0.053377867 -0.017641349 0.21599992
-0.042159844 0.037884284 0.17891563
-0.041959357 0.035359774 0.18030578
-0.04177944 0.032957546 0.18154307
-0.041896306 0.030496355 0.18281174
-0.042374931 0.02770495 0.18402925
-0.042733718 0.024389429 0.18534423
-0.043157745 0.020580806 0.18645212
-0.043323934 0.017074943 0.1869515
-0.043693222 0.012857567 0.18777896
-0.043708529 0.0077829883 0.19017777
-0.043685231 0.00070997019 0.19257973
-0.042895686 -0.0040992456 0.19535586
-0.042444803 -0.0062555545 0.1999574
-0.04298133 -0.0089010308 0.20297502
-0.046186034 -0.012391804 0.20559621
-0.049101524 -0.014594699 0.20907316
-0.050404627 -0.015936822 0.21323945
-0.051545244 -0.017609127 0.2166653
-0.051642966 -0.019189026 0.2211269
-0.051152728 -0.02062184 0.22494766
-0.038991179 0.040569138 0.17757082
-0.039251007 0.038769897 0.17901807
-0.039166611 0.036169279 0.18052526
-0.039044905 0.033727128 0.18185824
-0.03907714 0.031036949 0.18336762
-0.039509572 0.028031709 0.18481761
-0.039625645 0.024702804 0.1858104
-0.03999757 0.02073214 0.18658462
-0.040300764 0.0170858 0.18713947
-0.040248178 0.012971161 0.18762742
-0.040547997 0.00825202 0.18962467
-0.040940117 0.0020660111 0.19178346
-0.039894629 -0.0025960265 0.1942846
-0.039437491 -0.0048070117 0.19790244
-0.039870918 -0.0076729134 0.20340173
-0.043141611 -0.012399429 0.20653199
-0.046383075 -0.014344669 0.20995648
-0.047202062 -0.01571119 0.21400444
-0.048091207 -0.017872455 0.21750902
-0.047917493 -0.019689839 0.22127567
-0.047979165 -0.021800019 0.2244692
-0.047636963 -0.023530208 0.22712342
-0.035813883 0.04119879 0.17798182
-0.035871975 0.039550848 0.1793302
-0.035826363 0.036998414 0.18093967
-0.036067728 0.034229327 0.18238281
-0.03554289 0.031094415 0.18402155
-0.035655301 0.027802063 0.18584709
-0.036002357 0.024738265 0.187093
-0.036579832 0.021182917 0.18793598
-0.037296332 0.017430726 0.18822488
-0.037246969 0.013318681 0.18885942
-0.037682448 0.0086066062 0.19032179
-0.038008004 0.0028386624 0.19215001
-0.037875194 -0.00083022792 0.19404528
-0.037011653 -0.0036659224 0.19744363
-0.037571855 -0.0073497435 0.20336731
-0.040659878 -0.012390325 0.20800735
-0.042705525 -0.014288707 0.21076965
-0.043546192 -0.015944541 0.21466987
-0.044003583 -0.018308761 0.21801011
-0.043828223 -0.020413099 0.22135903
-0.043618806 -0.022656551 0.22391517
-0.043616559 -0.02467831 0.22668214
-0.031859141 0.042117987 0.17894575
-0.031942766 0.040410757 0.18005265
-0.031929538 0.037794009 0.18185535
-0.031998653 0.034501497 0.18395761
-0.032287072 0.031116163 0.18557142
-0.032188408 0.027923515 0.18724839
-0.032171566 0.024829088 0.18868648
-0.03254503 0.021655897 0.18989125
-0.034189548 0.018169481 0.18954772
-0.034411673 0.013676186 0.1899364
-0.034632057 0.0091517773 0.19122232
-0.035172138 0.003142301 0.19324555
-0.035199936 -0.0003437243 0.19536538
-0.034896322 -0.0029490835 0.19871725
-0.036494594 -0.0070869336 0.20462371
-0.038293779 -0.011106783 0.20888367
-0.039828237 -0.01397237 0.21169938
-0.040476367 -0.016040122 0.21530189
-0.040388875 -0.018457333 0.21859506
-0.040061481 -0.020758398 0.22142372
-0.039802577 -0.022995722 0.22335757
-0.039874028 -0.025080618 0.22614677
-0.028166533 0.042740811 0.17980377
-0.027950112 0.041007474 0.18094549
-0.027984461 0.038420241 0.18290539
-0.028580196 0.034830701 0.18555476
-0.029173844 0.031343531 0.18721916
-0.029046267 0.028197624 0.18865854
-0.028763352 0.025210548 0.18971282
-0.028390514 0.022270489 0.19087411
-0.028612452 0.018869158 0.19208308
-0.031001942 0.014638734 0.19184814
-0.031857494 0.0082776528 0.19290459
-0.031805418 0.003397271 0.19504511
-0.031105209 0.00016772606 0.19742742
-0.031609166 -0.0032700344 0.20096529
-0.033095308 -0.0065308618 0.20632584
-0.034845617 -0.0098918919 0.21029566
-0.036501933 -0.013387109 0.21292305
-0.037816025 -0.016160015 0.21680191
-0.03701181 -0.018477099 0.21877192
-0.036462419 -0.020354349 0.22155502
-0.036128052 -0.022730758 0.22382455
-0.035517737 -0.02513057 0.22751996
-0.034219567 -0.026717581 0.23036218
-0.024555271 0.042984843 0.18090163
-0.024583613 0.041340612 0.18197528
-0.024338624 0.038649216 0.18352424
-0.024996826 0.03571244 0.18590665
-0.026160946 0.032007415 0.18789454
-0.025975844 0.028777959 0.18981488
-0.025501125 0.025861079 0.1909216
-0.024987681 0.022603545 0.19241259
-0.02454775 0.019755006 0.19395855
-0.02609859 0.01605795 0.1942735
-0.026999515 0.010653609 0.19617018
-0.026969628 0.0054189391 0.19732177
-0.027214082 0.0016053944 0.19955216
-0.028066576 -0.0021125756 0.2031091
-0.029685969 -0.005308406 0.20737338
-0.031235 -0.0084491353 0.21169911
-0.032626856 -0.011989727 0.21525799
-0.033729713 -0.015266043 0.21882756
-0.032838624 -0.017563261 0.21998164
-0.032067873 -0.019777715 0.22312315
-0.03119109 -0.022329839 0.22550946
-0.031004697 -0.02471309 0.2281366
-0.030811582 -0.027357828 0.23069674
-0.021454828 0.043486405 0.18146469
-0.021330275 0.041798506 0.18248343
-0.021298258 0.039095018 0.18378974
-0.021272931 0.036605641 0.18548502
-0.022301637 0.03292343 0.18864202
-0.022551468 0.029792182 0.19096997
-0.022202758 0.026818339 0.19249174
-0.021592567 0.023712046 0.19413188
-0.021881597 0.020270107 0.19579963
-0.023129109 0.016766934 0.19720905
-0.023444001 0.012097328 0.19890128
-0.023360783 0.0078102453 0.20044579
-0.0240147 0.0035925391 0.20255035
-0.024887981 -0.0006450314 0.2051671
-0.026415931 -0.0040951963 0.20882569
-0.027614564 -0.0069635469 0.21283321
-0.028681407 -0.010471569 0.21695416
-0.029047223 -0.013593896 0.22109908
-0.029040435 -0.016649412 0.22305627
-0.028119927 -0.018953025 0.22577174
-0.027243029 -0.021344608 0.2267922
-0.027152367 -0.023930971 0.22895306
-0.027259197 -0.027091367 0.23161475
-0.018629275 0.041840501 0.18334422
-0.018173818 0.039614983 0.18478645
-0.018215749 0.036856201 0.18602093
-0.018589374 0.033522688 0.18882816
-0.019020915 0.030265428 0.19155331
-0.018898336 0.027480157 0.19323085
-0.018583152 0.024414865 0.19541891
-0.019226424 0.020564498 0.19689368
-0.0200544 0.016870694 0.19873489
-0.02037188 0.012841799 0.20061681
-0.020438883 0.0090533635 0.20241438
-0.021169584 0.0053346911 0.20520422
-0.021810407 0.0013344134 0.20780876
-0.023108078 -0.0028926088 0.2117846
-0.024023119 -0.0056539634 0.21514766
-0.024729075 -0.0089778109 0.21829386
-0.02510329 -0.01232358 0.22245601
-0.025235819 -0.015468592 0.22467928
-0.024488518 -0.018144807 0.22692141
-0.023393674 -0.020721173 0.22742547
-0.0234353 -0.023842046 0.22861733
-0.02355122 -0.027277226 0.23307087
-0.015379678 0.039943896 0.18551542
-0.015195956 0.037181895 0.18690474
-0.015384971 0.03388695 0.18899681
-0.015327833 0.030603955 0.19140583
-0.015227751 0.027777886 0.19348696
-0.015022282 0.024693897 0.1967265
-0.016180729 0.020423077 0.19869326
-0.01652417 0.016845468 0.20047259
-0.017022396 0.013527413 0.20190971
-0.017402086 0.010246387 0.20387173
-0.01786579 0.0065975478 0.20735171
-0.017910542 0.0037410152 0.21023479
-0.018971303 -0.00036227625 0.21349806
-0.020629354 -0.0048266044 0.21683368
-0.021346157 -0.0085569033 0.22049247
-0.021401055 -0.011513863 0.22344241
-0.02146654 -0.014631276 0.22547653
-0.020945581 -0.017530547 0.2275257
-0.020013606 -0.020535441 0.22780688
-0.019850038 -0.023725267 0.22985753
-0.019677861 -0.028076546 0.23651056
-0.012561926 0.037124466 0.18806653
-0.012138358 0.034545146 0.1896397
-0.011929261 0.031438272 0.1916794
-0.011662235 0.028527349 0.19402818
-0.011887844 0.02523871 0.19721517
-0.01284403 0.021192454 0.20031473
-0.013045739 0.017935697 0.2022966
-0.013482979 0.014639839 0.20408033
-0.014436283 0.010973145 0.20647116
-0.014385009 0.0076720421 0.2096401
-0.014668864 0.004701098 0.21209809
-0.014680275 0.001564212 0.21515046
-0.016700745 -0.0039309538 0.21818559
-0.017719937 -0.0076719648 0.22149816
-0.017824555 -0.010505849 0.22374751
-0.017503915 -0.013275701 0.22571479
-0.01734239 -0.016356958 0.22801861
-0.016688172 -0.019996941 0.22905488
-0.01613516 -0.023950063 0.23290853
-0.015973654 -0.028487893 0.23908989
-0.0096997712 0.034485325 0.19034819
-0.0088110454 0.032257732 0.19269343
-0.0085226884 0.029460985 0.1956061
-0.0088187465 0.026099693 0.19904333
-0.0096021378 0.022498948 0.20219702
-0.0099358261 0.019184312 0.20465685
-0.010323423 0.015822021 0.20687094
-0.01096286 0.012086435 0.20906287
-0.010862225 0.0085821608 0.2112406
-0.010829014 0.0053812843 0.2141034
-0.010427038 0.0022687442 0.21669592
-0.010610929 -0.0018797639 0.21932235
-0.012618081 -0.0065135071 0.22251703
-0.012765104 -0.009415674 0.22416401
-0.012871401 -0.012402093 0.22685049
-0.013111514 -0.015990796 0.22961374
-0.013067248 -0.019661075 0.2314724
-0.012458724 -0.024044311 0.23533508
-0.012414502 -0.027665464 0.23995753
-0.0058128955 0.032371707 0.19560696
-0.0056803185 0.029885637 0.19828159
-0.0059402571 0.026342981 0.20196335
-0.0064104577 0.022968387 0.20398919
-0.0066647036 0.019904312 0.20593491
-0.0070183198 0.01623656 0.20857154
-0.0072361236 0.012467967 0.21048714
-0.0072389971 0.0091771679 0.21205606
-0.0070115607 0.0060321903 0.214801
-0.0069909906 0.0026175773 0.21724634
-0.006575312 -0.0012622072 0.21995495
-0.0067888023 -0.0056999424 0.22339053
-0.0076657129 -0.0092434883 0.22566035
-0.0085694911 -0.012615391 0.2277244
-0.0089712134 -0.016159432 0.23024146
-0.0091951787 -0.019573303 0.23309983
-0.0092966734 -0.023139857 0.23520662
-0.0035354879 0.031929966 0.19801202
-0.0028852047 0.029640658 0.1995936
-0.0028022127 0.026076054 0.20221262
-0.0030469003 0.022761507 0.20385896
-0.0033016033 0.0197895 0.20567361
-0.0037835303 0.016341047 0.20873131
-0.003846942 0.012755278 0.21106865
-0.0036666903 0.0093954662 0.21275346
-0.0036305957 0.0064860005 0.21507907
-0.0033321008 0.0029635343 0.21710892
-0.0031071443 -0.0013693575 0.22078578
-0.002767921 -0.005263614 0.22296529
-0.003827065 -0.0092845587 0.22585946
-0.0045105787 -0.012614814 0.22768153
-0.0055710771 -0.015916442 0.22984549
-0.00012218 0.028490126 0.20023637
0.00024798507 0.02566608 0.20197073
-7.0567468e-05 0.022377657 0.20349519
1.6277218e-05 0.019484634 0.20541109
-0.0003853766 0.016194586 0.20792733
-0.0003478835 0.012920192 0.21036057
-0.00019117257 0.0098719839 0.21261691
-9.4424387e-05 0.0068297032 0.21485792
0.00029527891 0.0034500349 0.21630885
0.00051428849 -0.00076058315 0.2197606
0.0011006775 -0.0047107842 0.22232486
-0.00013046438 -0.0087069562 0.22544284
-0.0019919756 -0.011747787 0.22789496
0.0028152096 0.024863807 0.20224015
0.0030449959 0.022166995 0.20310888
0.0033076985 0.019293265 0.20484534
0.0030617979 0.016122732 0.20753704
0.0031293726 0.012952778 0.20974778
0.0032377976 0.010025756 0.21173005
0.002878007 0.0067435503 0.21469252
0.0027663517 0.0038812186 0.21624507
0.002836688 -0.00039653221 0.21911518
0.0031408179 -0.0034718201 0.22154325
0.0047578127 0.021890901 0.20322639
0.0052260389 0.0189866 0.20513719
0.0052916156 0.016244343 0.20750824
0.0051784646 0.012800398 0.2101061
0 0 0 1 0 0 0 1 0 0 0 1 0 0 0 0 0 354 1 0 0
