ply
format ascii 1.0
comment PCL generated
element vertex 354
property float x
property float y
property float z
element camera 1
property float view_px
property float view_py
property float view_pz
property float x_axisx
property float x_axisy
property float x_axisz
property float y_axisx
property float y_axisy
property float y_axisz
property float z_axisx
property float z_axisy
property float z_axisz
property float focal
property float scalex
property float scaley
property float centerx
property float centery
property int viewportx
property int viewporty
property float k1
property float k2
end_header
-0.05733005 0.025872927 0.18898892
-0.058058463 0.022973662 0.19102855
-0.058789652 0.019565208 0.19331989
-0.059030376 0.016145382 0.19552834
-0.058629978 0.01316773 0.19705218
-0.05325608 0.030603291 0.18490294
-0.053992588 0.028804639 0.18566827
-0.05448674 0.026129484 0.18678589
-0.05481381 0.023523413 0.18835042
-0.055682991 0.020381263 0.19095525
-0.056487761 0.016453417 0.19343634
-0.057073697 0.01263286 0.19592513
-0.056939278 0.0091144787 0.19707151
-0.055567298 0.0053444877 0.19926217
-0.049911339 0.03350414 0.18240696
-0.05038885 0.031770129 0.18317167
-0.050657798 0.029274432 0.18383183
-0.050831165 0.026564617 0.18475753
-0.051289096 0.023771023 0.18683141
-0.052256618 0.020470228 0.18967928
-0.052746877 0.017040508 0.19129103
-0.053692527 0.01319048 0.19288179
-0.053984415 0.0089421207 0.19618531
-0.052551705 0.002504772 0.20053574
-0.051666774 -0.0033179116 0.2012469
-0.050712645 -0.0075515914 0.20204623
-0.047880303 0.03434781 0.18107364
-0.047812961 0.032054201 0.18208073
-0.047533296 0.029534945 0.1829451
-0.047540888 0.026637679 0.18418415
-0.048199948 0.023844356 0.18642643
-0.04888479 0.020545835 0.18886001
-0.049125783 0.017308952 0.1901779
-0.04999854 0.013517285 0.19151357
-0.050482955 0.0083430763 0.19488895
-0.048847113 0.00016253327 0.19805348
-0.048336782 -0.0054939827 0.19895944
-0.048177224 -0.0085343122 0.20167537
-0.049143106 -0.010730275 0.20308471
-0.050897323 -0.011705688 0.20412739
-0.045193169 0.036806624 0.17998494
-0.045160312 0.034887437 0.18078518
-0.044897072 0.032462247 0.1819686
-0.0447492 0.02993002 0.1832923
-0.044864066 0.027163792 0.18452057
-0.045547675 0.024187582 0.18609434
-0.046114009 0.020739792 0.18844873
-0.046275631 0.017477326 0.18934244
-0.046557389 0.013606586 0.19029275
-0.046564963 0.0071992567 0.19340824
-0.046254098 0.00024256123 0.19569431
-0.045524418 -0.0057711494 0.19767694
-0.045295112 -0.0077901175 0.2016619
-0.046385657 -0.0095764929 0.2037455
-0.049226459 -0.012254657 0.20501384
-0.051664066 -0.015098171 0.20811853
-0.053292114 -0.015784927 0.21308807
-0.053823482 -0.017072529 0.21677168
-0.042869367 0.037787322 0.17964931
-0.042508364 0.03532891 0.1810201
-0.04221933 0.033002682 0.18224265
-0.04223289 0.030611182 0.18345359
-0.042625207 0.027879873 0.18466064
-0.042912211 0.024575289 0.18626936
-0.043194864 0.020786094 0.18796428
-0.043338053 0.017323444 0.18862773
-0.043574773 0.013223602 0.18932261
-0.043619491 0.0081071816 0.19159488
-0.043320272 0.00086336717 0.19357561
-0.042622358 -0.0040745703 0.19594191
-0.042083729 -0.0064249788 0.20040186
-0.042654123 -0.0090597318 0.20352063
-0.04605579 -0.012453726 0.20618033
-0.049152173 -0.014623442 0.20958994
-0.050822385 -0.015574205 0.21403526
-0.052045126 -0.017118612 0.21751307
-0.052068371 -0.018619452 0.222064
-0.051535446 -0.020047328 0.22584346
-0.039893072 0.040540561 0.17809954
-0.040053621 0.038750473 0.17958246
-0.03982823 0.036187246 0.18114068
-0.03955251 0.033841096 0.18251731
-0.039424464 0.031288572 0.18397428
-0.039778423 0.028282041 0.18543039
-0.039806448 0.024939252 0.18664187
-0.040069461 0.020944042 0.1878141
-0.040318895 0.017311798 0.1886193
-0.040253825 0.013290268 0.18913288
-0.04051679 0.0084924763 0.19098447
-0.040691752 0.0021670263 0.19269988
-0.039611645 -0.0025698375 0.19482584
-0.039106827 -0.0049610059 0.19825771
-0.039453149 -0.0079956949 0.20382212
-0.043050222 -0.012620613 0.20716326
-0.046482258 -0.014454362 0.21052139
-0.047647588 -0.015411302 0.21484092
-0.048605684 -0.017436875 0.21842046
-0.048448224 -0.019257985 0.22227341
-0.048570558 -0.021408232 0.22547029
-0.04816974 -0.023157196 0.2279578
-0.036583498 0.041315343 0.17834371
-0.036604024 0.039671581 0.17971922
-0.036481407 0.037136607 0.18135561
-0.036592994 0.034408089 0.18292503
-0.035860304 0.031275466 0.18479094
-0.035913602 0.027995566 0.18676634
-0.036213566 0.02496363 0.18806766
-0.036674872 0.021402396 0.18903701
-0.037369329 0.017742071 0.1896449
-0.037316173 0.013627042 0.19031961
-0.037707023 0.00884292 0.19161654
-0.03783945 0.0029382466 0.19293222
-0.037600476 -0.00071343401 0.19473624
-0.036731694 -0.0036090729 0.19803394
-0.03734396 -0.0075841164 0.20414495
-0.040689994 -0.012606329 0.20881231
-0.042792734 -0.014510618 0.21135376
-0.043985359 -0.015730003 0.2155652
-0.044524994 -0.018011259 0.21900424
-0.044383466 -0.020182464 0.2223739
-0.044239998 -0.022474261 0.22492041
-0.044323225 -0.024451204 0.22757944
-0.032339912 0.042391088 0.17909226
-0.032431178 0.04070805 0.18026355
-0.032370679 0.03811837 0.1821145
-0.03232405 0.034570936 0.18455276
-0.032586072 0.031165795 0.18648382
-0.032499149 0.028081585 0.18830302
-0.032479849 0.025062691 0.18988018
-0.03280608 0.021940559 0.19120315
-0.034337573 0.018507231 0.19101295
-0.034534715 0.013995266 0.19142233
-0.034705088 0.0094356034 0.19250537
-0.035074178 0.0033913765 0.19410826
-0.035062395 9.4082543e-06 0.19624333
-0.034815174 -0.0026077572 0.19969548
-0.036440063 -0.0072240909 0.20555007
-0.038580321 -0.011116551 0.21006094
-0.040253129 -0.013986439 0.21275513
-0.041037261 -0.015877876 0.21628396
-0.04093967 -0.018404918 0.21959966
-0.040612243 -0.020872425 0.22245674
-0.040408336 -0.023117844 0.22439203
-0.040503103 -0.025129471 0.22714505
-0.028381253 0.042998191 0.17985995
-0.028140552 0.041298743 0.18104988
-0.028166533 0.038748957 0.18307684
-0.028834855 0.034881774 0.18614599
-0.029525034 0.031359818 0.18811975
-0.02943651 0.02829705 0.18972911
-0.029196436 0.025435928 0.19104873
-0.028887121 0.022593925 0.19244467
-0.02909944 0.019330839 0.19393426
-0.031152694 0.015056561 0.193367
-0.031973958 0.0086574387 0.1940908
-0.031850401 0.003892709 0.19617803
-0.031178342 0.00076151721 0.19875094
-0.031674959 -0.0028318656 0.20223971
-0.033110615 -0.0065063052 0.20742159
-0.035058547 -0.0099719251 0.21152134
-0.036971759 -0.013537282 0.21415813
-0.038565591 -0.016235378 0.21805245
-0.037674244 -0.018773884 0.21986701
-0.037045002 -0.020701405 0.22253774
-0.036714155 -0.023037631 0.22478226
-0.036081288 -0.025395663 0.22847883
-0.034706857 -0.02693237 0.23128524
-0.024658561 0.043138925 0.18091552
-0.024662461 0.041519918 0.18203501
-0.024473554 0.038807474 0.18365034
-0.025186498 0.035750654 0.18621731
-0.026524682 0.031957719 0.1887475
-0.026401371 0.028843138 0.19089296
-0.02598889 0.026051661 0.1922327
-0.025552038 0.022972448 0.19406095
-0.025090067 0.020364786 0.19594243
-0.026493281 0.016656402 0.19622643
-0.027177703 0.011134158 0.19756214
-0.026896974 0.0058038379 0.19849037
-0.027130565 0.0019599937 0.20071077
-0.028099637 -0.0017893993 0.20435476
-0.029777756 -0.0052001709 0.20856428
-0.031382125 -0.0085534984 0.21292439
-0.033196725 -0.012226879 0.21661867
-0.034443595 -0.015753698 0.21999428
-0.033536971 -0.018072339 0.22098392
-0.032593571 -0.020335129 0.22406344
-0.031711753 -0.022834314 0.22640327
-0.031481113 -0.025106559 0.22896409
-0.031152248 -0.027628634 0.23131123
-0.021597816 0.043551411 0.18151741
-0.021457158 0.041883875 0.1825693
-0.021441938 0.039191283 0.18394381
-0.021435428 0.036698345 0.1856955
-0.022609502 0.032762218 0.18925293
-0.02293084 0.029767659 0.19186988
-0.022631079 0.026983703 0.19365536
-0.022053218 0.024102686 0.19562125
-0.022289524 0.020954555 0.19775085
-0.023510532 0.017491477 0.19910139
-0.023726199 0.012663775 0.20054483
-0.023478938 0.0082732076 0.2017632
-0.024056954 0.0039172997 0.2036393
-0.024844756 -0.0004124066 0.20636402
-0.026535256 -0.0039583375 0.21007183
-0.02778664 -0.0069409274 0.21414146
-0.029177671 -0.010885272 0.21836524
-0.029757602 -0.014574472 0.2221774
-0.029732399 -0.017585244 0.22423959
-0.028676204 -0.01973458 0.22681513
-0.027765805 -0.021857066 0.22768657
-0.027622767 -0.024297338 0.22966139
-0.027653633 -0.027407439 0.23212558
-0.018800797 0.041900985 0.18349752
-0.018352436 0.039642096 0.18501405
-0.018381156 0.036891088 0.18633868
-0.018834077 0.033410288 0.18930224
-0.019355329 0.030232532 0.19235054
-0.019232064 0.027623465 0.19424213
-0.018935436 0.024787119 0.19671497
-0.019599294 0.021233076 0.19881128
-0.020476248 0.017572168 0.20069389
-0.020743553 0.013444364 0.20237039
-0.020735314 0.0095185423 0.20387648
-0.021203315 0.005633106 0.2063635
-0.021898985 0.0015459836 0.20887193
-0.023410773 -0.0028351853 0.21297434
-0.024355015 -0.0057029608 0.21651874
-0.025121208 -0.0093134185 0.21977441
-0.025767306 -0.013175447 0.22352912
-0.025943561 -0.016350972 0.22576031
-0.025110126 -0.0188209 0.2278721
-0.023938008 -0.0211353 0.22826283
-0.02392479 -0.024121718 0.2293908
-0.02395699 -0.027590673 0.23366669
-0.01557853 0.040036056 0.18580571
-0.01539508 0.037244927 0.18721956
-0.015646536 0.033828136 0.1894471
-0.015645541 0.03056485 0.19219424
-0.015532375 0.027896622 0.19445014
-0.0152774 0.025073605 0.19800474
-0.01652403 0.021068614 0.20055895
-0.016909976 0.017472992 0.2023098
-0.017459814 0.014083729 0.20364432
-0.017810594 0.010678734 0.20536552
-0.018074509 0.0069269179 0.2085833
-0.01799766 0.0040498595 0.21124186
-0.019068096 -0.00028648585 0.21455102
-0.020935215 -0.0049946308 0.21832968
-0.021772316 -0.0090201376 0.22199516
-0.021940876 -0.012199953 0.22452992
-0.022139199 -0.015343281 0.22639124
-0.021577837 -0.018067772 0.22835796
-0.020629052 -0.020826172 0.22861424
-0.020378647 -0.02393846 0.23061503
-0.020051481 -0.028324733 0.23701893
-0.012768442 0.037235502 0.1883613
-0.012381776 0.034569334 0.19003136
-0.012181162 0.03148016 0.19225854
-0.011877983 0.028688738 0.19475512
-0.012046481 0.025486289 0.19826819
-0.01300603 0.021557938 0.20166899
-0.013269429 0.018358165 0.20365821
-0.013738097 0.015058084 0.20546855
-0.014722628 0.011299284 0.20775308
-0.014553973 0.0079126377 0.21067318
-0.014720883 0.0049106409 0.21301006
-0.014650202 0.0017002347 0.21592487
-0.016999871 -0.0041508344 0.21978718
-0.018077156 -0.0081017083 0.22298039
-0.018293984 -0.011005257 0.22494322
-0.017966764 -0.013665764 0.22672194
-0.017854681 -0.016680814 0.22890721
-0.017267348 -0.020190755 0.22979626
-0.016595816 -0.024130832 0.23361309
-0.01624058 -0.028596219 0.23955576
-0.0099238642 0.03450847 0.19071285
-0.0089794677 0.032313522 0.19309077
-0.0085961604 0.029641243 0.19610994
-0.008782276 0.026142618 0.19986372
-0.0095464801 0.022605607 0.20327733
-0.0099127181 0.019424284 0.20572934
-0.010309854 0.016075876 0.20790578
-0.011127973 0.012294333 0.21007922
-0.010961818 0.0087136328 0.21212319
-0.010826807 0.005429545 0.21492694
-0.010408091 0.0022708261 0.21745318
-0.010619358 -0.0018502956 0.22021559
-0.012878848 -0.0068635917 0.22384949
-0.013098205 -0.0097625377 0.22533658
-0.013236493 -0.012718942 0.22791162
-0.013597105 -0.016321827 0.23058318
-0.013613851 -0.019925216 0.23222014
-0.012908698 -0.024104452 0.23605797
-0.012740357 -0.027785596 0.2407728
-0.0058410889 0.032464173 0.1958237
-0.0055967323 0.029962597 0.19870706
-0.0057016835 0.026181946 0.20268372
-0.006190626 0.022927897 0.20482792
-0.0064696879 0.020032119 0.20684534
-0.0069280569 0.016380062 0.20950477
-0.0072484645 0.012583782 0.21132623
-0.0073045553 0.0092475945 0.21283855
-0.0070234621 0.0060785785 0.21559356
-0.0069738803 0.0026841611 0.21801919
-0.0065380828 -0.0011470856 0.22069982
-0.0068756742 -0.0058227954 0.22415414
-0.0078899274 -0.009632281 0.22646759
-0.0089288307 -0.013033744 0.22867586
-0.0094453571 -0.01659129 0.23113872
-0.0097066155 -0.019879343 0.2337365
-0.0097560072 -0.023152983 0.23591015
-0.0034666411 0.031960271 0.19822717
-0.0027508517 0.029515754 0.2000196
-0.0025360624 0.025925726 0.20296626
-0.0027771578 0.022758357 0.2048292
-0.0030570452 0.019960664 0.20675316
-0.0037068655 0.016476491 0.20981635
-0.0038172407 0.012861325 0.21196499
-0.0036941827 0.0094559137 0.21357897
-0.0036801486 0.0065967063 0.21588019
-0.0033608631 0.0030855439 0.21794757
-0.0030731501 -0.0012824557 0.22147438
-0.0027486458 -0.0053531746 0.22346929
-0.0040624891 -0.0097044241 0.2264619
-0.004855487 -0.013096306 0.22838755
-0.0060209101 -0.016436217 0.23065539
0.0001089301 0.028228978 0.20077814
0.00051321165 0.025499878 0.20280077
0.00018665474 0.022407141 0.20459379
0.00023983374 0.019592421 0.2066298
-0.00025827985 0.01632631 0.20912023
-0.00028027405 0.01302606 0.21148533
-0.00017188552 0.010033323 0.21371053
-0.00010020027 0.0070334421 0.21589507
0.00027286418 0.0036740014 0.21736665
0.00051893212 -0.00063500745 0.22050577
0.0011351655 -0.0048078066 0.2227786
-0.00031283248 -0.0090794424 0.22587223
-0.0023380273 -0.012288327 0.22838598
0.0030443952 0.024735132 0.20320199
0.0032976272 0.022166939 0.20428242
0.0035443795 0.019397926 0.20614821
0.0032153714 0.016219044 0.20880781
0.003250181 0.01304674 0.21097443
0.0033104902 0.010206412 0.21297309
0.0028986286 0.0069852932 0.21590792
0.0027650571 0.0041672373 0.21748468
0.0028143791 -0.00021536897 0.2199377
0.0031486307 -0.0034522659 0.22208568
0.004986912 0.021921111 0.20442557
0.0054241433 0.018997667 0.20654421
0.0055027446 0.016301345 0.20882903
0.0052857418 0.012899067 0.21136573
0 0 0 1 0 0 0 1 0 0 0 1 0 0 0 0 0 354 1 0 0
