ply
format ascii 1.0
comment PCL generated
element vertex 354
property float x
property float y
property float z
element camera 1
property float view_px
property float view_py
property float view_pz
property float x_axisx
property float x_axisy
property float x_axisz
property float y_axisx
property float y_axisy
property float y_axisz
property float z_axisx
property float z_axisy
property float z_axisz
property float focal
property float scalex
property float scaley
property float centerx
property float centery
property int viewportx
property int viewporty
property float k1
property float k2
end_header
-0.057408158 0.02583378 0.18909313
-0.058130935 0.022937667 0.19115713
-0.058848005 0.019560678 0.19347763
-0.059075311 0.016184 0.19571361
-0.058668002 0.01323346 0.19725309
-0.053327188 0.030550545 0.18497056
-0.054064427 0.028761743 0.18575548
-0.05455707 0.026092749 0.18690197
-0.054875936 0.023485305 0.18849239
-0.055741489 0.020359464 0.19113106
-0.056529529 0.016481075 0.19363861
-0.057106849 0.01270048 0.19613713
-0.056898814 0.0092813568 0.19734021
-0.055521902 0.0055100736 0.19950911
-0.049968373 0.033432517 0.1824705
-0.050445419 0.031713702 0.18324661
-0.050714102 0.029231748 0.18392642
-0.050887171 0.026542548 0.18487658
-0.051342063 0.023755429 0.18701546
-0.052293692 0.020466732 0.18989737
-0.052773114 0.017055435 0.1915268
-0.053664442 0.013291366 0.19315062
-0.053955674 0.0090978025 0.19642761
-0.052525382 0.0026210737 0.20065843
-0.051709525 -0.0032418363 0.20125185
-0.050783794 -0.0074851364 0.20203379
-0.047935542 0.034271412 0.18115443
-0.047860559 0.031996302 0.18217394
-0.047576439 0.029499959 0.18305537
-0.047584783 0.026633818 0.18433817
-0.048245177 0.023866363 0.18669996
-0.048901781 0.020573121 0.18916938
-0.049131826 0.017350724 0.19049613
-0.049973 0.013587134 0.19181803
-0.050470471 0.0084679816 0.19509135
-0.04889112 0.00020320018 0.19797421
-0.048422217 -0.0054714628 0.19888231
-0.048244361 -0.0084914919 0.20163786
-0.049194898 -0.010683139 0.20311514
-0.050947864 -0.011637077 0.20420067
-0.045268677 0.036729142 0.18006386
-0.045220438 0.03482224 0.18087348
-0.044946466 0.032416135 0.1820713
-0.044793062 0.029911779 0.18341275
-0.044904418 0.027173072 0.18468706
-0.045584265 0.024223028 0.18635519
-0.046124186 0.020787597 0.18880036
-0.046273414 0.017539967 0.18969123
-0.046539146 0.013702728 0.19062173
-0.046569675 0.0072376803 0.19347395
-0.046293315 0.000280854 0.19555715
-0.045604963 -0.0057658777 0.19753364
-0.0453519 -0.0077710492 0.20156476
-0.046431608 -0.0095385984 0.20373474
-0.049283404 -0.012178403 0.20511582
-0.051756565 -0.014921819 0.20833211
-0.053361069 -0.01560893 0.21329556
-0.05389272 -0.016864685 0.21698982
-0.042967014 0.037718467 0.17972471
-0.042581875 0.03527895 0.18111062
-0.042279784 0.032971222 0.18234892
-0.042278517 0.030602029 0.18357389
-0.042666767 0.027896395 0.18480913
-0.042951562 0.02461331 0.18649586
-0.043207195 0.020834748 0.18827894
-0.043340918 0.017384185 0.18896508
-0.043560952 0.013362035 0.18967366
-0.043634109 0.0081857052 0.19170482
-0.043361239 0.00088796625 0.19337435
-0.042698056 -0.0040939241 0.19568484
-0.042130772 -0.006458295 0.20019759
-0.042697277 -0.0090601286 0.20345272
-0.046118844 -0.012373251 0.20630018
-0.049248721 -0.014429607 0.20980883
-0.050890472 -0.015409255 0.21424012
-0.052116331 -0.016921019 0.21773405
-0.052122727 -0.018406326 0.22230497
-0.051569209 -0.01984339 0.22606868
-0.040035609 0.040490691 0.17814334
-0.040176306 0.038704868 0.17963631
-0.039923128 0.036149684 0.18121864
-0.039621815 0.033823844 0.18261376
-0.0394703 0.031297371 0.18408091
-0.039819367 0.028308136 0.18556681
-0.039843149 0.024979901 0.18683586
-0.040085588 0.020991607 0.18807347
-0.040313318 0.017369214 0.18890399
-0.040260214 0.01347602 0.18953185
-0.040524583 0.0086092623 0.19114916
-0.040695731 0.0021974982 0.19246528
-0.039662551 -0.0026021169 0.19452021
-0.039143499 -0.0050448752 0.19793832
-0.039478511 -0.0080412198 0.20367786
-0.043121789 -0.012535728 0.20729755
-0.046581175 -0.01425369 0.21074833
-0.047714833 -0.015263218 0.21504213
-0.048676498 -0.017254751 0.21864222
-0.048513222 -0.01908493 0.22250696
-0.048644539 -0.021251602 0.22569872
-0.04823285 -0.023017475 0.22815868
-0.036704388 0.04130714 0.17836489
-0.036719289 0.039667763 0.17975086
-0.036583066 0.037137367 0.18140437
-0.03666883 0.03441643 0.18300597
-0.035913579 0.031302024 0.18493995
-0.035965919 0.028034369 0.18695331
-0.036261987 0.025008747 0.1882641
-0.036694851 0.021444337 0.18924378
-0.037362602 0.017814273 0.18991083
-0.037351478 0.013785647 0.19074397
-0.037736677 0.0089569623 0.19183977
-0.037840035 0.0029954019 0.19281614
-0.037621696 -0.00070526556 0.19453566
-0.036765013 -0.003671563 0.19777048
-0.037370365 -0.007593459 0.20407565
-0.040792353 -0.012475772 0.20900662
-0.042896323 -0.014308006 0.21158732
-0.044052411 -0.015605429 0.21576308
-0.044597361 -0.017866371 0.21922494
-0.044457026 -0.020066516 0.2225927
-0.044329867 -0.022377912 0.22512743
-0.044425018 -0.024364877 0.22776669
-0.032407124 0.042433865 0.17908165
-0.032500096 0.040755723 0.18026367
-0.032436978 0.038173206 0.18212546
-0.032381695 0.034597024 0.18467171
-0.03264774 0.031193117 0.18668193
-0.032571312 0.028126126 0.18852526
-0.032557033 0.025114847 0.19011821
-0.032872889 0.021995019 0.19144396
-0.034346864 0.018576294 0.19128759
-0.034590282 0.014134199 0.19188897
-0.034765672 0.00954579 0.19282089
-0.035113547 0.0034749843 0.19415085
-0.035113007 5.4880093e-05 0.19619511
-0.034889773 -0.002628505 0.19959606
-0.036460962 -0.007218305 0.20557271
-0.038720489 -0.010923606 0.21035682
-0.040430062 -0.013721772 0.2130973
-0.04112279 -0.015777562 0.21648695
-0.0410157 -0.018326612 0.21980445
-0.040695466 -0.020842535 0.22265448
-0.040504988 -0.023100859 0.22458379
-0.040605363 -0.025111198 0.22732607
-0.028405119 0.043059818 0.17985703
-0.028162576 0.041366629 0.18105498
-0.028191954 0.038820628 0.18309139
-0.028881734 0.034906983 0.18627015
-0.029600777 0.031384248 0.18832317
-0.029523356 0.02833497 0.18995954
-0.029296583 0.025491567 0.19131447
-0.029000105 0.022663463 0.19274502
-0.02920088 0.019418962 0.19427395
-0.031238541 0.015171962 0.19387904
-0.03206731 0.0087702675 0.19442764
-0.031951219 0.0040026046 0.19636814
-0.031280801 0.00087143108 0.19894019
-0.031710375 -0.0027799234 0.20237134
-0.033140548 -0.0064858524 0.20754063
-0.035169926 -0.0098507507 0.21177511
-0.037156671 -0.013316744 0.21451108
-0.038671333 -0.016190169 0.21827395
-0.037768971 -0.018780392 0.22006789
-0.037137333 -0.020724388 0.22272444
-0.036812522 -0.023063965 0.22496296
-0.036174085 -0.025431918 0.22865342
-0.034792375 -0.026979204 0.23145002
-0.024666181 0.043194607 0.18092887
-0.024669237 0.041579057 0.18205443
-0.024489904 0.0388611 0.18368176
-0.025215568 0.035781514 0.18628873
-0.026598124 0.031963561 0.18893266
-0.026496734 0.028874446 0.19111201
-0.026100222 0.026103834 0.19248889
-0.025677824 0.023054533 0.19437106
-0.02520453 0.02048539 0.19630763
-0.026636606 0.01686256 0.19674726
-0.027293412 0.011319071 0.19800477
-0.026935305 0.0059474604 0.19876769
-0.027157407 0.0020768638 0.20093063
-0.028118307 -0.0017189676 0.20453355
-0.029813517 -0.0051752673 0.20870058
-0.031452201 -0.0085204411 0.2131027
-0.033280313 -0.012225041 0.21684101
-0.03454287 -0.01578887 0.22019543
-0.033641867 -0.018121811 0.22117907
-0.032683279 -0.020398494 0.22425885
-0.031802941 -0.022897797 0.22658807
-0.031563729 -0.025168706 0.22912225
-0.031213682 -0.02768028 0.23142457
-0.021609766 0.043586895 0.18153881
-0.021465639 0.041919652 0.1825926
-0.021453386 0.039226301 0.18397763
-0.021450987 0.036730375 0.18574066
-0.022669595 0.032750126 0.1893647
-0.023021745 0.029782088 0.19203903
-0.022738196 0.027033834 0.19387427
-0.022167889 0.024193285 0.19590095
-0.022378825 0.021090804 0.19811074
-0.023575101 0.017625952 0.19945487
-0.023778308 0.012779306 0.20087221
-0.023524815 0.0083830329 0.20204492
-0.024113631 0.0040187365 0.20389362
-0.02484539 -0.0003638062 0.20653287
-0.026565237 -0.0039475863 0.21023139
-0.027824823 -0.0069535621 0.21429542
-0.029250391 -0.010934074 0.21858588
-0.029866656 -0.014727181 0.22236136
-0.02983964 -0.017710531 0.2244624
-0.028767509 -0.019838478 0.22702189
-0.02785656 -0.021929817 0.22786559
-0.027697718 -0.024352977 0.2298016
-0.027719256 -0.027461642 0.23223387
-0.018809916 0.041919488 0.18351939
-0.018362498 0.039652031 0.18504333
-0.018393379 0.036901157 0.18638228
-0.018876884 0.033405468 0.18937503
-0.019441448 0.030253859 0.19248432
-0.019328468 0.02767851 0.19442883
-0.019039532 0.024886349 0.19696565
-0.019682936 0.021369888 0.1991826
-0.020554066 0.017709212 0.20107865
-0.020812167 0.013566475 0.20272326
-0.020790469 0.009615887 0.2041706
-0.021235194 0.0057071554 0.2066028
-0.021954503 0.0016220158 0.20910875
-0.02348694 -0.0027731357 0.21321347
-0.024419846 -0.0056809783 0.21677707
-0.025190325 -0.0093625747 0.2200294
-0.025871238 -0.013316777 0.22369789
-0.026047878 -0.016488045 0.22593756
-0.02520591 -0.018919267 0.22804154
-0.02402737 -0.021191277 0.22841372
-0.024003243 -0.024163209 0.22952847
-0.024025757 -0.027649764 0.23378563
-0.015584318 0.040043537 0.18582846
-0.015406905 0.037251472 0.18725123
-0.015686253 0.033823408 0.18951352
-0.015726188 0.030581776 0.19233391
-0.015624699 0.027955307 0.19463983
-0.015377245 0.025196414 0.19828124
-0.016621266 0.021224495 0.20096792
-0.017006034 0.017616639 0.20270754
-0.017548401 0.014206904 0.20401064
-0.017883593 0.01077193 0.20566954
-0.018115468 0.0069914502 0.20883045
-0.018025156 0.0041202945 0.21146785
-0.019100958 -0.00023514175 0.21479005
-0.020997964 -0.0049957028 0.21862729
-0.021856736 -0.0090905847 0.22226906
-0.022029571 -0.012316307 0.22470973
-0.022232966 -0.015469279 0.22652391
-0.021673655 -0.018152721 0.22849301
-0.020728363 -0.020862095 0.22876142
-0.020463588 -0.023977365 0.23075287
-0.020116039 -0.028378805 0.23711167
-0.012778812 0.037245572 0.18838236
-0.012414328 0.034571722 0.19008169
-0.012242898 0.031502414 0.1923769
-0.011951342 0.028744781 0.19491722
-0.012123789 0.025578449 0.19851215
-0.01308777 0.021683371 0.20199899
-0.013355765 0.018486686 0.20399167
-0.013820305 0.015177088 0.20579006
-0.014787321 0.011382507 0.20802633
-0.014593037 0.0079742912 0.21089001
-0.014739674 0.004972294 0.21321353
-0.014657666 0.0017617468 0.21611986
-0.017070387 -0.0041564549 0.2201332
-0.018155281 -0.0081610503 0.22328015
-0.018375386 -0.011085888 0.22517101
-0.018027605 -0.013742466 0.22689684
-0.017921841 -0.016753346 0.22905412
-0.017356277 -0.020231782 0.22994503
-0.016667234 -0.02417942 0.23374796
-0.016298015 -0.028640183 0.23963143
-0.0099629555 0.034507398 0.19077422
-0.0090270126 0.032327179 0.19317825
-0.0086388076 0.029681969 0.19622441
-0.0088118082 0.026168289 0.20002976
-0.0095756194 0.022670755 0.20351689
-0.0099498173 0.019519223 0.20598824
-0.010345505 0.016164331 0.20815572
-0.011181837 0.012367203 0.21030493
-0.010991439 0.0087639578 0.21230479
-0.010838798 0.0054734498 0.21510199
-0.010423011 0.0023310708 0.21764763
-0.01064891 -0.0017864044 0.22045854
-0.012940574 -0.0068986439 0.22414574
-0.013153534 -0.0098164026 0.225587
-0.01328384 -0.012791214 0.22811146
-0.013662089 -0.016406586 0.23075135
-0.013690883 -0.019993247 0.23236074
-0.012976944 -0.024141515 0.23619884
-0.012801116 -0.027841786 0.24091978
-0.0058614728 0.032472838 0.19587988
-0.0056066392 0.029973719 0.19878824
-0.0056892955 0.026152698 0.20279039
-0.0061853952 0.022937898 0.20497945
-0.0064698132 0.020078762 0.20702265
-0.0069312737 0.016442304 0.20970275
-0.0072763744 0.012642954 0.21151106
-0.007331776 0.0092901709 0.21300171
-0.0070350203 0.006118095 0.21575527
-0.006982395 0.002743698 0.21820258
-0.0065511893 -0.001078318 0.22088818
-0.0069038915 -0.0058129965 0.22432591
-0.0079206256 -0.0096902149 0.22664861
-0.0089743333 -0.013116763 0.22886191
-0.0095088761 -0.016674109 0.23130894
-0.0097788842 -0.019934772 0.23387784
-0.00982357 -0.023176901 0.23605712
-0.0034706066 0.031955771 0.19827324
-0.0027504286 0.029491296 0.20009159
-0.0025247384 0.025897061 0.20306994
-0.0027681901 0.022754822 0.20496556
-0.0030492756 0.019989323 0.20690733
-0.0037086466 0.016512755 0.20998812
-0.0038294855 0.012905812 0.21212539
-0.0037119437 0.009489215 0.21372524
-0.0036885063 0.0066294367 0.21601757
-0.0033744089 0.0031274459 0.21810749
-0.0030818032 -0.0012429304 0.22162804
-0.0027665948 -0.0053464384 0.2235833
-0.0040983194 -0.0097607905 0.22659808
-0.0048992601 -0.013176036 0.22854346
-0.0060779448 -0.016519196 0.2308225
0.00011990628 0.028188379 0.20086908
0.00052340666 0.025476426 0.20292154
0.00019574283 0.022412168 0.2047437
0.00024434889 0.019609837 0.20679076
-0.00025866379 0.016345656 0.20927392
-0.00028159464 0.013048617 0.21163076
-0.00016841694 0.010068434 0.21386066
-9.6026088e-05 0.0070646009 0.21603067
0.00026465583 0.0037022459 0.2175139
0.00050460798 -0.00061099307 0.22063965
0.0011188873 -0.0048173191 0.22286758
-0.00035050654 -0.0091334395 0.2259662
-0.0023832852 -0.012370654 0.22850753
0.0030497801 0.024722364 0.20334175
0.0033050727 0.022169828 0.2044428
0.0035499663 0.019416654 0.20631656
0.0032197041 0.01623369 0.20896037
0.0032574004 0.01306127 0.21111394
0.0033204688 0.010234383 0.21311329
0.0029120876 0.007017388 0.21604525
0.0027705196 0.0041993717 0.21762826
0.0027986222 -0.00019624832 0.22006546
0.0031329391 -0.0034540843 0.22217607
0.0049925721 0.021930248 0.20458643
0.0054270602 0.019007027 0.20671399
0.005518666 0.016312204 0.20897952
0.0052953269 0.012909924 0.21149236
0 0 0 1 0 0 0 1 0 0 0 1 0 0 0 0 0 354 1 0 0
