ply
format ascii 1.0
comment PCL generated
element vertex 354
property float x
property float y
property float z
element camera 1
property float view_px
property float view_py
property float view_pz
property float x_axisx
property float x_axisy
property float x_axisz
property float y_axisx
property float y_axisy
property float y_axisz
property float z_axisx
property float z_axisy
property float z_axisz
property float focal
property float scalex
property float scaley
property float centerx
property float centery
property int viewportx
property int viewporty
property float k1
property float k2
end_header
-0.057486869 0.025801839 0.18921028
-0.058207646 0.02290659 0.19129537
-0.058918573 0.019556066 0.19363661
-0.059138808 0.016219435 0.19589373
-0.058726072 0.013297071 0.19745055
-0.053396977 0.030501155 0.18505354
-0.054135524 0.028724073 0.18586029
-0.054627191 0.02606261 0.18703686
-0.054939251 0.023453014 0.1886507
-0.055806614 0.020340513 0.19131777
-0.056584574 0.016508313 0.19384389
-0.057156671 0.012767483 0.19635041
-0.056874342 0.0094451383 0.19760682
-0.055484843 0.0056991144 0.1997994
-0.050024316 0.033351298 0.18253852
-0.050501566 0.031652614 0.18333481
-0.050771233 0.029189076 0.18404502
-0.050946072 0.02652533 0.18503048
-0.051396675 0.023746232 0.18722495
-0.052337043 0.020465875 0.1901311
-0.052809134 0.017071342 0.19177417
-0.053626489 0.013409494 0.19344941
-0.053929385 0.0092715416 0.19670674
-0.052501358 0.0028003457 0.20088652
-0.051723219 -0.0030905711 0.20139293
-0.050820339 -0.0073360237 0.20216356
-0.047989476 0.034177683 0.181233
-0.047907494 0.031925727 0.18227731
-0.047622297 0.029459203 0.18319164
-0.047634102 0.026632173 0.18453316
-0.048296873 0.023892647 0.18700518
-0.048927095 0.020600937 0.18949398
-0.04914809 0.017392254 0.19082855
-0.049904488 0.013706089 0.19218652
-0.050422337 0.0086509967 0.19539842
-0.048874874 0.00033915121 0.19808318
-0.048448741 -0.0053549712 0.19897985
-0.048275046 -0.0083594257 0.20175913
-0.049231134 -0.010539173 0.20326483
-0.050992239 -0.011466374 0.20437023
-0.045340676 0.03663148 0.18013524
-0.045278329 0.034738015 0.1809596
-0.044996195 0.032354847 0.18218201
-0.044838987 0.029884886 0.18355507
-0.044949584 0.027179688 0.18488628
-0.04562746 0.024258215 0.18664567
-0.046142988 0.020833211 0.18916543
-0.046281509 0.017600333 0.19005513
-0.046463069 0.013843633 0.1910011
-0.046470635 0.0073868232 0.19373582
-0.046227641 0.00041293725 0.19566962
-0.045605637 -0.0056641237 0.19761665
-0.045367636 -0.0076591 0.20166492
-0.046457548 -0.0094142947 0.20386794
-0.049337614 -0.012011853 0.20529933
-0.051850848 -0.014682054 0.20857164
-0.053431973 -0.015429253 0.21351184
-0.053964153 -0.01665674 0.2172157
-0.043061085 0.037630569 0.17979233
-0.042652704 0.035210948 0.18119867
-0.042339448 0.032923639 0.1824608
-0.042325079 0.030581024 0.1837112
-0.042712685 0.02790634 0.18498592
-0.042996757 0.024649082 0.18675181
-0.043227818 0.02088064 0.18861027
-0.043352351 0.017442217 0.18931922
-0.043489005 0.013520449 0.19003333
-0.043565374 0.0083422866 0.19195969
-0.043292992 0.0010016671 0.1934637
-0.042668767 -0.0040093674 0.1957372
-0.04211938 -0.0063776849 0.20026414
-0.042715944 -0.0089712525 0.20357004
-0.046179187 -0.01222781 0.20649345
-0.049343754 -0.014199655 0.21005432
-0.050960436 -0.015240718 0.21445428
-0.052189343 -0.016722897 0.21796247
-0.05218102 -0.018197387 0.22255076
-0.051609702 -0.019648463 0.22629741
-0.040177826 0.040428046 0.17818318
-0.040297516 0.038644917 0.17968546
-0.040015534 0.036096226 0.18129356
-0.039689615 0.033790849 0.18271121
-0.039516799 0.031292014 0.18419965
-0.039862998 0.028325967 0.1857256
-0.03988545 0.025015993 0.18705545
-0.040108442 0.021034271 0.18835293
-0.040315926 0.017424578 0.18920878
-0.040174954 0.013633165 0.18980224
-0.040454753 0.0087545058 0.19135405
-0.040628158 0.0022966864 0.19250193
-0.039613761 -0.0025406103 0.19453824
-0.039097365 -0.0049978751 0.1979547
-0.039478961 -0.0079825399 0.20377341
-0.043188807 -0.012408595 0.20749751
-0.046677824 -0.014036268 0.21100087
-0.047783803 -0.015111436 0.21525334
-0.048749212 -0.017072301 0.21887174
-0.048581146 -0.018916035 0.22274543
-0.048723362 -0.021101944 0.22592956
-0.048302852 -0.022887195 0.22836258
-0.036825411 0.041289177 0.17838362
-0.036834262 0.03965421 0.17977993
-0.036683761 0.037127517 0.18145105
-0.036742989 0.034412265 0.18308644
-0.035967968 0.031320356 0.1850978
-0.036021836 0.028069569 0.18715483
-0.036316629 0.025052113 0.18847901
-0.036723785 0.021483855 0.18947259
-0.037363343 0.017887022 0.19019799
-0.037268486 0.013921862 0.19098344
-0.037669539 0.0090850955 0.19203295
-0.037775315 0.0030945002 0.19287944
-0.037561405 -0.00062697061 0.19458425
-0.036712792 -0.0036185607 0.19779544
-0.037356399 -0.0075329808 0.20419444
-0.040881313 -0.012348107 0.20924492
-0.042997282 -0.014109284 0.21184413
-0.044121377 -0.015477177 0.21597131
-0.044671796 -0.01772139 0.21945368
-0.04453307 -0.019954557 0.22281791
-0.044424124 -0.022287216 0.22533861
-0.044531751 -0.024287146 0.22795804
-0.032474514 0.04246876 0.17906673
-0.032568667 0.040795933 0.1802597
-0.032502715 0.038221326 0.18213353
-0.032440763 0.034621619 0.18479665
-0.032712158 0.031219883 0.18689199
-0.032648634 0.02817115 0.18876132
-0.032641858 0.025168246 0.19037214
-0.032950029 0.0220525 0.19170512
-0.034365296 0.018648027 0.19158678
-0.034514312 0.014265885 0.19213292
-0.034709461 0.0096676545 0.19304344
-0.035059012 0.0035724991 0.19428417
-0.035064545 0.00014521109 0.19630204
-0.034847885 -0.0025703777 0.19968902
-0.036451586 -0.0071775964 0.20573287
-0.038831446 -0.010782662 0.21068051
-0.040570982 -0.013530178 0.21342357
-0.041210093 -0.015674761 0.21670145
-0.041093215 -0.018249163 0.22001885
-0.040780984 -0.02081524 0.22285968
-0.040605363 -0.023087967 0.22478375
-0.040713795 -0.025098251 0.22751471
-0.02842926 0.043115359 0.17984928
-0.028184701 0.041428939 0.18105593
-0.028217264 0.038888142 0.18310417
-0.028930727 0.034934033 0.18640441
-0.029680561 0.031411223 0.18854089
-0.029615317 0.02837537 0.19020419
-0.029404258 0.025549209 0.19159442
-0.029121954 0.022735847 0.19306174
-0.029314084 0.019509794 0.194635
-0.03116861 0.015303494 0.19413999
-0.032024737 0.0088924011 0.19466896
-0.031911608 0.0040964126 0.19656192
-0.031234795 0.0009625497 0.19914889
-0.031648569 -0.0027434782 0.20256485
-0.03315359 -0.0064651747 0.20775633
-0.035260461 -0.0097748814 0.21207619
-0.037302766 -0.013204616 0.21485378
-0.038776908 -0.016141677 0.21850695
-0.037861239 -0.018789643 0.22027956
-0.037231006 -0.020749988 0.22292426
-0.03691553 -0.023093019 0.22515897
-0.036274739 -0.025470944 0.22884528
-0.03488908 -0.027030062 0.23163547
-0.024674142 0.043248452 0.18094081
-0.024676869 0.041636858 0.18207337
-0.02450694 0.038916659 0.18371588
-0.025246264 0.035818338 0.18636934
-0.026676595 0.031973291 0.18913226
-0.026599234 0.02890845 0.19134372
-0.02621996 0.026159205 0.1927589
-0.025813106 0.023140917 0.19469717
-0.025329692 0.020608222 0.19668655
-0.026614267 0.017125072 0.19723389
-0.027230488 0.011529967 0.19839789
-0.026876824 0.0061012958 0.1990952
-0.027094007 0.0022010382 0.20121934
-0.028074179 -0.0016528741 0.20479475
-0.029832778 -0.0051465482 0.20894285
-0.031523831 -0.0084983883 0.21337175
-0.033368122 -0.012213912 0.21707973
-0.034643393 -0.015818605 0.22041257
-0.03374574 -0.018172834 0.22139354
-0.032778021 -0.020462878 0.22447993
-0.031902239 -0.022961652 0.2268012
-0.031656276 -0.025232989 0.22930744
-0.031283982 -0.027736939 0.23156358
-0.021622993 0.043623019 0.18156011
-0.021474874 0.041957065 0.18261693
-0.021465356 0.039265271 0.18401505
-0.021467716 0.036768992 0.18579252
-0.02273595 0.032744747 0.1894865
-0.023123227 0.029800022 0.19221945
-0.022856921 0.027088482 0.19410628
-0.02229468 0.024289396 0.19619629
-0.022479044 0.021228341 0.19847994
-0.023649173 0.017757833 0.19981346
-0.023844918 0.012894984 0.20121269
-0.02359492 0.0084992405 0.2023515
-0.024197809 0.0041312701 0.20417982
-0.024830315 -0.00027449953 0.20683612
-0.026598612 -0.0039116861 0.21052274
-0.027889149 -0.0069463328 0.21458121
-0.029327685 -0.010971844 0.21882579
-0.02998109 -0.014880027 0.22257642
-0.029952766 -0.017834516 0.22472025
-0.028869072 -0.019941879 0.22727014
-0.027958523 -0.022005087 0.22808623
-0.027781313 -0.024413411 0.22997671
-0.027791036 -0.027521186 0.23237331
-0.018818825 0.041940581 0.18354148
-0.018372465 0.039666705 0.18507406
-0.018406622 0.036916818 0.18642868
-0.018924229 0.033408053 0.18945274
-0.019537922 0.030281899 0.19262519
-0.019437188 0.027740479 0.19462714
-0.0191576 0.02499456 0.19723183
-0.01977649 0.02150787 0.19956082
-0.020638624 0.017843584 0.20146368
-0.020889616 0.013688565 0.20308116
-0.020862905 0.0097187376 0.20448132
-0.021292413 0.0057928553 0.20686744
-0.02203309 0.0017125894 0.20937492
-0.023579983 -0.0026929295 0.21348032
-0.024495849 -0.0056442679 0.21706095
-0.025267426 -0.0094037373 0.22030719
-0.025983285 -0.013457605 0.22389866
-0.026161091 -0.016625272 0.22615364
-0.025311558 -0.01901889 0.22825313
-0.024127133 -0.021249741 0.22860417
-0.024089852 -0.024208583 0.22969648
-0.024099108 -0.027713787 0.23393315
-0.015588746 0.040054481 0.18584989
-0.015418264 0.037261996 0.18728241
-0.015728954 0.033824634 0.18958257
-0.015816081 0.030607434 0.19248047
-0.015728742 0.028024627 0.19484109
-0.015490459 0.025335632 0.1985766
-0.016726123 0.021387778 0.20138969
-0.017107164 0.017761253 0.20310694
-0.017641684 0.01432904 0.20437576
-0.017967319 0.01086885 0.20598224
-0.018173724 0.007067828 0.20909874
-0.018070042 0.004206093 0.21172228
-0.019150643 -0.00016456985 0.21506113
-0.02107228 -0.0049824631 0.21895491
-0.021951528 -0.0091541177 0.2225683
-0.022127818 -0.01243161 0.22491878
-0.022335274 -0.015598012 0.22669372
-0.021780085 -0.018240351 0.22866957
-0.020837072 -0.020900492 0.22894205
-0.020555802 -0.024021532 0.23091568
-0.020179311 -0.028438879 0.23722874
-0.012787348 0.037258133 0.18839961
-0.012448584 0.034578145 0.19013207
-0.012312917 0.031533826 0.19250624
-0.012036075 0.028812548 0.19509459
-0.012214468 0.025689205 0.19878024
-0.013179014 0.021825498 0.20235261
-0.013447884 0.018623969 0.2043387
-0.013905089 0.015296825 0.20611151
-0.014858988 0.011468784 0.20830293
-0.014644015 0.0080464426 0.21112107
-0.014772271 0.0050492743 0.2134399
-0.014678075 0.001842004 0.2163422
-0.017153591 -0.0041487538 0.22051391
-0.018246472 -0.0082145995 0.22360887
-0.018467622 -0.011165444 0.22542375
-0.018095363 -0.013826129 0.22708893
-0.017991286 -0.016836625 0.22921349
-0.017449673 -0.020283978 0.23010911
-0.016738737 -0.024238575 0.23389724
-0.016350199 -0.028695816 0.23972087
-0.010006549 0.034511458 0.19084217
-0.009083448 0.032349054 0.19327921
-0.0086931242 0.029732633 0.19635472
-0.0088532567 0.026207129 0.20021294
-0.0096128043 0.022751266 0.20377631
-0.0099919923 0.019623553 0.20626266
-0.010383542 0.016253291 0.20840925
-0.011239282 0.012442324 0.21052796
-0.011028036 0.008820287 0.21249042
-0.010859618 0.0055286647 0.21529084
-0.010446413 0.0024092705 0.21786477
-0.010687551 -0.0017061438 0.22073239
-0.013013395 -0.0069310856 0.22446348
-0.013218277 -0.0098728426 0.22585182
-0.013334038 -0.012874587 0.22831425
-0.013724457 -0.016505634 0.2309186
-0.013764289 -0.020076172 0.23250252
-0.013039121 -0.024193998 0.23634477
-0.012850944 -0.027913442 0.24107036
-0.0058915298 0.03248905 0.19595148
-0.0056271912 0.029991647 0.1988811
-0.0056838798 0.026127748 0.20290092
-0.0061864383 0.022956723 0.20514154
-0.0064744027 0.020133579 0.20721075
-0.0069361422 0.016508589 0.20990609
-0.0073090997 0.012705955 0.21169974
-0.0073649925 0.0093372809 0.21317139
-0.0070526842 0.0061669722 0.21592839
-0.0069971364 0.0028178915 0.2184063
-0.0065701106 -0.00099779561 0.22109979
-0.0069352877 -0.0058012446 0.2245131
-0.0079545435 -0.0097521292 0.22683783
-0.0090196775 -0.013209509 0.22904782
-0.0095685218 -0.016767807 0.23147632
-0.0098442519 -0.020003097 0.23401883
-0.0098847151 -0.023217564 0.2362029
-0.0034839904 0.031957004 0.19833136
-0.0027580978 0.029468039 0.20016621
-0.0025192869 0.025866877 0.20316765
-0.0027643321 0.022751177 0.20509873
-0.0030451554 0.020018687 0.2070597
-0.0037115461 0.016550139 0.21015857
-0.0038454966 0.012952536 0.21228692
-0.003735319 0.00952587 0.2138759
-0.0037002778 0.0066664736 0.21616052
-0.0033923446 0.0031771953 0.21827859
-0.0030950003 -0.0011987452 0.22179911
-0.00278892 -0.0053375661 0.22371371
-0.0041358708 -0.0098183136 0.2267423
-0.0049422877 -0.013261523 0.22870012
-0.0061306907 -0.016609641 0.23098494
0.00012439469 0.028142938 0.20095167
0.00052781188 0.025447665 0.20303063
0.00019961498 0.022411937 0.20488188
0.00024392543 0.019621395 0.20693938
-0.00026290116 0.016360033 0.20941736
-0.00028646633 0.013069896 0.21176966
-0.00016761616 0.010104324 0.21400841
-9.3803523e-05 0.0070944037 0.21616204
0.00025237721 0.0037285129 0.21765967
0.00048500655 -0.00058749173 0.22078447
0.0010974575 -0.0048270435 0.2229709
-0.00039110761 -0.009188273 0.22607045
-0.0024281035 -0.012457112 0.22863188
0.0030501948 0.024700778 0.2034644
0.0033056368 0.022162238 0.20458429
0.0035484764 0.01942339 0.20646481
0.0032196757 0.01624055 0.20909867
0.003260148 0.013073701 0.21124627
0.0033271306 0.010262948 0.21324834
0.0029239298 0.0070479228 0.21617523
0.0027742288 0.0042275498 0.21776338
0.0027779406 -0.00018072451 0.22019964
0.003112094 -0.0034578233 0.22227737
0.004991788 0.021925531 0.20472409
0.005423794 0.019003589 0.20686072
0.0055300128 0.016315954 0.20911664
0.005300588 0.012918753 0.2116107
0 0 0 1 0 0 0 1 0 0 0 1 0 0 0 0 0 354 1 0 0
