ply
format ascii 1.0
comment PCL generated
element vertex 354
property float x
property float y
property float z
element camera 1
property float view_px
property float view_py
property float view_pz
property float x_axisx
property float x_axisy
property float x_axisz
property float y_axisx
property float y_axisy
property float y_axisz
property float z_axisx
property float z_axisy
property float z_axisz
property float focal
property float scalex
property float scaley
property float centerx
property float centery
property int viewportx
property int viewporty
property float k1
property float k2
end_header
-0.057603009 0.025803765 0.18928474
-0.058275569 0.022886649 0.1915461
-0.058867455 0.019621294 0.19414835
-0.059019674 0.016396146 0.19649628
-0.058580797 0.013527718 0.19804132
-0.053390004 0.030702915 0.18522683
-0.054180916 0.028859237 0.18589129
-0.054724984 0.026110547 0.18703844
-0.05502243 0.023425428 0.18883561
-0.055796023 0.020355174 0.19179532
-0.056469213 0.016677171 0.19449022
-0.057008404 0.013013016 0.19694638
-0.0569092 0.0098422682 0.19841361
-0.055478554 0.0061223139 0.20058493
-0.049840331 0.03406341 0.18362544
-0.050355989 0.032179754 0.18391106
-0.050678514 0.029585335 0.18414959
-0.050904445 0.026811464 0.18481402
-0.051446512 0.023793327 0.18742183
-0.052239925 0.020561151 0.19072066
-0.052627977 0.017239612 0.19247828
-0.05354774 0.013814742 0.19454691
-0.053929657 0.0097658467 0.19764042
-0.052495062 0.0032457705 0.20148641
-0.051709611 -0.0027201679 0.20174463
-0.050812326 -0.006935874 0.20254335
-0.047786098 0.035149239 0.18264641
-0.047716338 0.032710537 0.18309772
-0.04742647 0.030012811 0.18335687
-0.047482003 0.026997009 0.18430938
-0.048188332 0.02406045 0.18734103
-0.048670031 0.020813994 0.19030736
-0.048832331 0.017658161 0.19169341
-0.049653035 0.014146864 0.19352372
-0.050279375 0.0092454478 0.19647326
-0.048733417 0.00071074825 0.19839071
-0.048376974 -0.0050132438 0.19933707
-0.048230719 -0.0079464139 0.20220107
-0.049265239 -0.010066279 0.20376311
-0.051086288 -0.010874797 0.20493776
-0.045237329 0.037549082 0.1816383
-0.04512075 0.035606429 0.18220586
-0.044781826 0.033056501 0.18293433
-0.044624344 0.030352181 0.18373507
-0.044754915 0.027460855 0.18474118
-0.04544076 0.02446284 0.18680356
-0.045784369 0.021078892 0.18994462
-0.045907259 0.017920379 0.19081654
-0.046172697 0.014343759 0.19225055
-0.046050146 0.0078182193 0.19443165
-0.04584568 0.00075837027 0.19604416
-0.045415424 -0.0053452188 0.19801553
-0.045273561 -0.0072694784 0.20209008
-0.046446323 -0.0089986539 0.20431957
-0.049478617 -0.011427323 0.20588577
-0.052129269 -0.013768391 0.20938693
-0.053648509 -0.014803352 0.21404493
-0.05417797 -0.016034948 0.21775083
-0.043048706 0.038412165 0.18108225
-0.04254416 0.035897873 0.18220708
-0.04217086 0.033479203 0.18308571
-0.042111196 0.030948356 0.18383896
-0.042494923 0.02815122 0.18477084
-0.042823259 0.024823129 0.1866896
-0.042872742 0.021055266 0.18898535
-0.043025032 0.017680256 0.18976906
-0.043243587 0.01398508 0.19095765
-0.043282941 0.0087509044 0.19246715
-0.042900458 0.0012530837 0.19373159
-0.042348672 -0.0037368145 0.19612846
-0.041904602 -0.0060300045 0.20066355
-0.042664845 -0.0086529041 0.20399198
-0.046322081 -0.011760357 0.20704015
-0.049571626 -0.01338513 0.21081899
-0.051169477 -0.014686322 0.2149726
-0.052411992 -0.016161012 0.21850666
-0.052309852 -0.017709419 0.22313714
-0.051563282 -0.019274248 0.22676615
-0.040419146 0.041053075 0.1789971
-0.040408216 0.039228752 0.18048556
-0.039976705 0.036589492 0.18200633
-0.039535124 0.03419001 0.18312585
-0.03929675 0.031548504 0.18408005
-0.039664842 0.02852024 0.18546742
-0.039697576 0.025200708 0.18689947
-0.039814018 0.021167213 0.18829127
-0.039921436 0.017498385 0.18910398
-0.039812844 0.013895667 0.19006015
-0.040183444 0.0090581141 0.19149967
-0.040315557 0.0024948337 0.19234839
-0.039269973 -0.00234921 0.1947463
-0.038744055 -0.0047162999 0.19823657
-0.039353359 -0.0077139013 0.20415254
-0.043333072 -0.01205958 0.20799951
-0.046878729 -0.013336337 0.21170853
-0.04798869 -0.014629327 0.21576019
-0.048969414 -0.016562782 0.21942092
-0.048743188 -0.018573219 0.22323255
-0.048852105 -0.020944813 0.22630112
-0.048321899 -0.022899371 0.22855186
-0.036936026 0.041767851 0.17864351
-0.036887538 0.040069479 0.17999692
-0.036661789 0.037442546 0.18157429
-0.036612604 0.034666028 0.18312177
-0.035851568 0.031571724 0.18525085
-0.035932258 0.028304029 0.18734299
-0.036173008 0.02523315 0.18849435
-0.036365211 0.021530563 0.18906809
-0.03692295 0.017900771 0.18988299
-0.036927342 0.014116571 0.19120327
-0.037408352 0.0093190288 0.19213539
-0.0375003 0.0033186893 0.192701
-0.037263624 -0.00038286953 0.19466262
-0.03640753 -0.0033328242 0.1979592
-0.037263114 -0.0072795786 0.20453739
-0.041112829 -0.011974297 0.20982392
-0.043188676 -0.013562102 0.21245943
-0.044320781 -0.015053087 0.21647388
-0.044885654 -0.017316528 0.21996263
-0.04474337 -0.019867605 0.22307774
-0.044629261 -0.022386886 0.22546214
-0.044723693 -0.024488794 0.22798216
-0.032355335 0.042882893 0.17888133
-0.0324574 0.041185204 0.18005559
-0.032385334 0.038565416 0.18186972
-0.032339595 0.034800623 0.18498051
-0.032683197 0.031419292 0.18733953
-0.032619577 0.028355222 0.1891638
-0.03259125 0.025309024 0.19066332
-0.03277785 0.022078462 0.19168606
-0.033947971 0.018644601 0.19123553
-0.034223184 0.014476983 0.19244626
-0.03451414 0.0098989904 0.19337659
-0.034835178 0.0038368767 0.19441372
-0.034867026 0.00043719981 0.19649854
-0.034673322 -0.0023087231 0.19990453
-0.036423743 -0.0070044231 0.20607576
-0.039196134 -0.01029271 0.21151419
-0.040908411 -0.012909698 0.21424943
-0.041469302 -0.0152763 0.21726291
-0.041327674 -0.018167799 0.22030188
-0.041006129 -0.021089382 0.22291909
-0.040823691 -0.023431834 0.22476684
-0.040858816 -0.025497565 0.22742897
-0.02818129 0.043530189 0.17972723
-0.027962346 0.041849345 0.18094438
-0.02805071 0.039275609 0.18297242
-0.028852051 0.035064738 0.1866309
-0.029692432 0.031517077 0.18899605
-0.029655602 0.028476745 0.19066429
-0.029440971 0.025679253 0.19206806
-0.02915954 0.022873597 0.1935499
-0.029222734 0.019726809 0.19505113
-0.030951016 0.015550685 0.19462368
-0.031925563 0.0091954488 0.19523466
-0.031798318 0.0044062366 0.19699042
-0.031156989 0.0013171827 0.19970852
-0.031495165 -0.0025943038 0.2029666
-0.033224784 -0.0063468763 0.20812759
-0.035515428 -0.0095191542 0.21268314
-0.03760292 -0.012919539 0.21557602
-0.039081469 -0.016075049 0.21900381
-0.038218793 -0.019074121 0.22035265
-0.037493639 -0.02114444 0.22284868
-0.037082374 -0.023516778 0.22501542
-0.036258709 -0.025952864 0.22862753
-0.034721304 -0.027524479 0.23129284
-0.02438789 0.043523464 0.18084271
-0.024405461 0.041914452 0.18197347
-0.024291832 0.039073396 0.18354076
-0.025088897 0.035814259 0.18624997
-0.026661158 0.031944308 0.18950748
-0.026651623 0.028976236 0.19175892
-0.026308609 0.026287809 0.1932485
-0.025946241 0.023409683 0.19534266
-0.025365196 0.021119557 0.19767974
-0.026415566 0.017796973 0.19846579
-0.026920274 0.012137813 0.1995229
-0.026827836 0.0067435415 0.20010422
-0.027043471 0.0027283214 0.20203669
-0.027982935 -0.0013789998 0.20536928
-0.029884564 -0.0049974206 0.20936929
-0.031666745 -0.0084292162 0.21377519
-0.03347053 -0.012459109 0.21734762
-0.034883194 -0.016212432 0.22051848
-0.034099534 -0.018566821 0.22129202
-0.032920931 -0.020909647 0.22423935
-0.031905297 -0.023427265 0.22640513
-0.031486709 -0.025728425 0.22871275
-0.030936906 -0.028090259 0.2306727
-0.02129041 0.04367983 0.18135035
-0.021173332 0.041984867 0.18236712
-0.021203317 0.039226275 0.1837149
-0.021219647 0.036655258 0.1854375
-0.022652427 0.03258748 0.18947044
-0.023164617 0.029856509 0.19248348
-0.022965228 0.02730016 0.19454189
-0.022455668 0.024736064 0.19690034
-0.022539273 0.02192211 0.19970076
-0.023541976 0.018424612 0.20109102
-0.023652246 0.013418236 0.20233704
-0.023317801 0.0088948486 0.20316139
-0.02382189 0.0043292041 0.20458862
-0.024802441 4.7811882e-05 0.20752478
-0.02667629 -0.0037294282 0.21105814
-0.027949143 -0.0069626328 0.21493678
-0.029257098 -0.011609324 0.21864936
-0.03017156 -0.015651751 0.22213279
-0.030069754 -0.018486585 0.22434233
-0.028690243 -0.020535402 0.22660378
-0.027663445 -0.022483127 0.22706658
-0.027324915 -0.024833547 0.22874923
-0.027373692 -0.027854728 0.23118676
-0.018509025 0.041796084 0.18317516
-0.01808203 0.0394563 0.18467632
-0.0181363 0.036709718 0.18609227
-0.018804945 0.03325022 0.18930784
-0.019593926 0.030336747 0.1928062
-0.01954668 0.027987802 0.19501799
-0.019326003 0.025476985 0.19791721
-0.019882852 0.022282129 0.20108384
-0.020718142 0.018560657 0.20313448
-0.020897308 0.014235918 0.20451103
-0.020718804 0.010054218 0.205495
-0.020950984 0.0058891638 0.20743845
-0.02167147 0.0016455099 0.20964956
-0.02336801 -0.002961834 0.21355852
-0.024287792 -0.0060791052 0.21698181
-0.025040751 -0.010109778 0.2198792
-0.025940666 -0.014309939 0.22296132
-0.026059167 -0.017367322 0.22521472
-0.025006164 -0.019611651 0.22711468
-0.023774927 -0.021706071 0.22716458
-0.023665827 -0.024617603 0.22840761
-0.023736548 -0.028040525 0.23282461
-0.015270154 0.039816525 0.1853919
-0.015157149 0.037070185 0.18694681
-0.015615524 0.033649746 0.18947448
-0.015849145 0.030506358 0.19264619
-0.015815375 0.028115675 0.19519545
-0.015674124 0.025678651 0.19935066
-0.017024992 0.022143241 0.20320298
-0.01740209 0.018505713 0.20501205
-0.017833794 0.014935216 0.20606428
-0.017891536 0.011153727 0.20708711
-0.017883066 0.0070886272 0.20975918
-0.017698495 0.0041467585 0.21209753
-0.018759176 -0.00049473945 0.21514341
-0.020813821 -0.005518496 0.21879767
-0.021694796 -0.0099404985 0.22206946
-0.021853384 -0.013285482 0.22382154
-0.022115206 -0.016356943 0.22525859
-0.021449888 -0.018811284 0.22712617
-0.020457165 -0.021300012 0.22747503
-0.020132951 -0.024398396 0.22977176
-0.019897016 -0.028845722 0.23605612
-0.012545737 0.03713217 0.18810904
-0.012304304 0.0344593 0.19002314
-0.012218285 0.0313286 0.19247828
-0.011956308 0.028672373 0.19515285
-0.012203178 0.025648985 0.1992484
-0.013409287 0.022265619 0.20365214
-0.01376859 0.019251406 0.20589636
-0.014203105 0.015926149 0.20773041
-0.014823344 0.011753459 0.20943455
-0.014464932 0.0081390953 0.21189883
-0.014497665 0.0050198808 0.2139456
-0.014344589 0.0016912406 0.21665636
-0.016895447 -0.0046711196 0.2204354
-0.017874312 -0.0089085754 0.2231314
-0.018035682 -0.011897974 0.22457464
-0.017500605 -0.014416493 0.22612114
-0.017477147 -0.01732962 0.22822593
-0.016968643 -0.020595139 0.22917993
-0.01637057 -0.024591362 0.23303884
-0.016063735 -0.029314825 0.23858893
-0.009800965 0.034256317 0.1906143
-0.0088373134 0.032028604 0.19300504
-0.0083833355 0.029448876 0.19611393
-0.0086150598 0.025887685 0.20044489
-0.009595491 0.022872088 0.20462856
-0.010120991 0.020090103 0.20745344
-0.010532008 0.016790012 0.20975317
-0.011385379 0.012833046 0.21185932
-0.01097617 0.0090436619 0.21351218
-0.010722482 0.0056386823 0.21608479
-0.010352793 0.0024562411 0.21857326
-0.010595787 -0.001695658 0.22133926
-0.012665792 -0.0072148982 0.22460222
-0.012713968 -0.010163016 0.22578076
-0.012902689 -0.013079685 0.22827132
-0.013462522 -0.016735928 0.230799
-0.013500006 -0.020267727 0.23220788
-0.012841272 -0.024515342 0.23586519
-0.01277031 -0.028545985 0.2404439
-0.0054737511 0.032062557 0.19545357
-0.0052111442 0.029614324 0.19861831
-0.0053914534 0.025806455 0.20320396
-0.0059916675 0.02285344 0.20566712
-0.0063745435 0.020345684 0.20803466
-0.0069418284 0.016978642 0.21107915
-0.0073852427 0.013193645 0.21305087
-0.007362572 0.0097373743 0.21439423
-0.0070068468 0.0064289877 0.21698169
-0.0069681066 0.003005032 0.21933186
-0.0065199118 -0.00074771431 0.22194938
-0.006841714 -0.0056350897 0.22524844
-0.0076204129 -0.0096649909 0.22745995
-0.0087201996 -0.013128714 0.22965835
-0.0094157644 -0.016685642 0.23204499
-0.0098276576 -0.019845435 0.23445733
-0.0097668711 -0.023227904 0.23623581
-0.0030195094 0.031497262 0.19788514
-0.0024121739 0.029096104 0.20016794
-0.0022628268 0.025584433 0.20357768
-0.0025495661 0.022552544 0.2055739
-0.0028814969 0.020091461 0.20775716
-0.0036729542 0.017024675 0.21138389
-0.0038759364 0.013529746 0.21368843
-0.0037241504 0.010013185 0.21520245
-0.0036924819 0.0070732324 0.2174014
-0.0033804383 0.0035076903 0.21942523
-0.0030209401 -0.00091791636 0.22264327
-0.0027042695 -0.005177428 0.22428042
-0.0039173453 -0.0096774837 0.22751197
-0.0046587298 -0.012992308 0.22969936
-0.0059594987 -0.016324429 0.23204684
0.00040067305 0.027833337 0.20130403
0.00076352328 0.025148762 0.20347306
0.00038050723 0.022179751 0.20537627
0.00038741744 0.019600477 0.20768425
-0.00015560695 0.016736442 0.21066958
-0.00020245233 0.013656767 0.2133007
-6.8456058e-05 0.010728434 0.21556072
-3.7920709e-05 0.0077240593 0.21769683
0.00031547624 0.0042965179 0.21912748
0.0005601336 -0.00022004718 0.22169743
0.0011943458 -0.0046655727 0.22349119
-0.00025800738 -0.0091000143 0.22668657
-0.0022164625 -0.012176633 0.22964716
0.003252059 0.024380732 0.20389205
0.0034889209 0.021843677 0.20507008
0.003683832 0.019290633 0.20721686
0.003403747 0.016664604 0.21052955
0.0034892722 0.01371109 0.21293367
0.0035259661 0.010997218 0.21501829
0.00303994 0.0078328028 0.21795817
0.0028524899 0.0049751643 0.21948312
0.0028499127 0.00027527544 0.2212224
0.0032061646 -0.0031963307 0.22292881
0.0051579908 0.021599667 0.20518793
0.0056106299 0.019032689 0.20789844
0.0057989955 0.016884554 0.21074931
0.0055180388 0.013635146 0.21339309
0 0 0 1 0 0 0 1 0 0 0 1 0 0 0 0 0 354 1 0 0
