ply
format ascii 1.0
comment PCL generated
element vertex 354
property float x
property float y
property float z
element camera 1
property float view_px
property float view_py
property float view_pz
property float x_axisx
property float x_axisy
property float x_axisz
property float y_axisx
property float y_axisy
property float y_axisz
property float z_axisx
property float z_axisy
property float z_axisz
property float focal
property float scalex
property float scaley
property float centerx
property float centery
property int viewportx
property int viewporty
property float k1
property float k2
end_header
-0.057869487 0.025628421 0.18981062
-0.05863199 0.022751575 0.19196591
-0.059436273 0.019551825 0.19432469
-0.059760801 0.016387474 0.19661455
-0.059389152 0.013604351 0.19826546
-0.053684127 0.030179245 0.18552421
-0.054454993 0.028480824 0.18646523
-0.054956369 0.025870821 0.18779778
-0.055236869 0.023259791 0.1895069
-0.056197576 0.020252692 0.19229159
-0.057066787 0.016668735 0.19486642
-0.057727583 0.013115132 0.19735244
-0.057333864 0.010149841 0.19926451
-0.055847097 0.0065454477 0.20161225
-0.050182663 0.032719918 0.1828441
-0.050696362 0.031167872 0.18380895
-0.051013086 0.028839469 0.18475403
-0.051252808 0.026341982 0.18600397
-0.051641889 0.023627661 0.1884046
-0.052607074 0.020418467 0.19142504
-0.053122345 0.017152192 0.19318706
-0.05396479 0.01393535 0.1954315
-0.054310672 0.010172119 0.19866183
-0.052861664 0.0036473062 0.20249796
-0.052111156 -0.0024137679 0.20243108
-0.051226128 -0.0066817445 0.20312865
-0.048123773 0.033406179 0.18155035
-0.048039243 0.031295106 0.1828105
-0.047824528 0.02903294 0.18401398
-0.047916055 0.026473489 0.1857499
-0.048587147 0.02389344 0.18869768
-0.049127858 0.020651216 0.19125322
-0.049357988 0.017563371 0.19272658
-0.050085716 0.014212526 0.19468887
-0.050597958 0.0096873743 0.19776885
-0.049114831 0.0010594878 0.19913836
-0.048735071 -0.0047350088 0.20000671
-0.048622694 -0.0076618111 0.20288019
-0.04963541 -0.0097819436 0.20444667
-0.051445227 -0.010554055 0.20566669
-0.045579586 0.035862695 0.18042442
-0.045457292 0.034021724 0.18134525
-0.045186423 0.031763863 0.18277062
-0.045045957 0.029526602 0.18441446
-0.045191728 0.027046621 0.18611425
-0.045860123 0.024289887 0.1883028
-0.046312708 0.020940311 0.19113803
-0.046444844 0.017839761 0.19216006
-0.046529852 0.014462492 0.19375291
-0.046179712 0.0081117842 0.19601615
-0.046172287 0.0011553115 0.19689874
-0.045743298 -0.0050238417 0.198845
-0.045712627 -0.0069321888 0.20290662
-0.046858985 -0.0087029366 0.20503409
-0.049821299 -0.011114958 0.20661834
-0.052384805 -0.013369344 0.21019363
-0.053921625 -0.014244481 0.21492039
-0.054437291 -0.015377373 0.21867044
-0.043430213 0.036967482 0.1800901
-0.042919066 0.034627851 0.18161744
-0.042588629 0.03244029 0.1830727
-0.042553756 0.03027639 0.18456754
-0.042984948 0.027810739 0.18613082
-0.043243971 0.024720456 0.18829502
-0.043390062 0.021003352 0.19051243
-0.043493796 0.017660059 0.19144167
-0.043504484 0.014171315 0.19260487
-0.04338748 0.0089921374 0.1942548
-0.043067329 0.0016560738 0.19512232
-0.042665105 -0.0033818749 0.19720151
-0.042381562 -0.0056732628 0.20170887
-0.043129034 -0.0083364388 0.20482467
-0.046653237 -0.011491119 0.2077305
-0.049805161 -0.012986259 0.21158959
-0.051440857 -0.014110104 0.21584865
-0.052662559 -0.0154905 0.2194221
-0.052541401 -0.016991746 0.22407471
-0.051865589 -0.018619495 0.22769718
-0.040872198 0.040072922 0.17845748
-0.040856853 0.038250323 0.17996761
-0.040419284 0.035680361 0.18167463
-0.040010333 0.033465028 0.18325067
-0.039801754 0.031157745 0.18501987
-0.040133905 0.028344059 0.18679276
-0.040136155 0.025121313 0.18841298
-0.040261116 0.02113378 0.19011191
-0.040427465 0.017655363 0.19120973
-0.040012632 0.01418485 0.19167976
-0.040288024 0.009260498 0.19315001
-0.040434264 0.0028055289 0.19419898
-0.039515842 -0.0019506213 0.1962256
-0.03918669 -0.0043874606 0.19959266
-0.039897177 -0.0073847347 0.20518015
-0.043653361 -0.011838697 0.2086421
-0.047103338 -0.012964351 0.21244378
-0.048255607 -0.014053683 0.21663111
-0.049213611 -0.015914278 0.22032683
-0.048986182 -0.017911581 0.22418199
-0.049170233 -0.02028108 0.22724797
-0.048730277 -0.022220636 0.22949325
-0.037439983 0.041161478 0.17850462
-0.037403189 0.039548099 0.17994072
-0.037172284 0.037029553 0.1817008
-0.037107874 0.034333691 0.18355253
-0.036287658 0.03133956 0.18600914
-0.036328379 0.02814042 0.18823338
-0.036624327 0.025161998 0.18963769
-0.036953725 0.02157156 0.19088522
-0.037479863 0.018191719 0.1921099
-0.03715805 0.014402991 0.19285586
-0.037519574 0.0095013902 0.1936537
-0.037699498 0.0035964847 0.19449006
-0.037564736 6.8669658e-07 0.19633015
-0.036890056 -0.0030080706 0.19952722
-0.037756886 -0.0069643944 0.20565765
-0.041355107 -0.011791011 0.21044816
-0.043410245 -0.013279825 0.21313031
-0.044591464 -0.014518849 0.21732444
-0.045137949 -0.016745664 0.22087534
-0.044984806 -0.019254554 0.22412014
-0.044967178 -0.021773709 0.22646642
-0.045116916 -0.023922043 0.22891392
-0.03285348 0.042552296 0.17888407
-0.032938585 0.04091024 0.1801257
-0.03284562 0.03837353 0.18205574
-0.032750059 0.034670934 0.18537925
-0.033041809 0.031232953 0.1879147
-0.033021938 0.028243612 0.18987304
-0.033055011 0.025260581 0.19153979
-0.03334111 0.022179404 0.1929719
-0.034536887 0.018918622 0.19344792
-0.034516878 0.014763797 0.19419639
-0.034704722 0.010082019 0.19489439
-0.035163358 0.0041615367 0.19615865
-0.03530971 0.00080453511 0.19822253
-0.035306975 -0.0019674862 0.20157252
-0.036933802 -0.0066278637 0.20719059
-0.039405968 -0.010123 0.21224615
-0.041093703 -0.012746597 0.2149305
-0.041767113 -0.014850485 0.21809448
-0.041565441 -0.017658569 0.22130018
-0.041264948 -0.020595867 0.2239086
-0.041162279 -0.023009079 0.22575299
-0.041311529 -0.025067687 0.22837861
-0.028607398 0.043300714 0.1796764
-0.028347166 0.041646637 0.180925
-0.028387064 0.039129552 0.18304083
-0.029197736 0.034985472 0.1870317
-0.030054379 0.031401709 0.18955527
-0.030036496 0.028409831 0.1913145
-0.029920544 0.025640918 0.19286169
-0.029722298 0.02291467 0.19455506
-0.02994624 0.019798983 0.19656783
-0.031415425 0.015762253 0.19657382
-0.032262195 0.0094351964 0.19686328
-0.032369319 0.004824107 0.19876638
-0.032057431 0.0018299603 0.20157138
-0.032501988 -0.0017876591 0.20464234
-0.033834841 -0.0057783541 0.20938098
-0.035842579 -0.0092603518 0.21362258
-0.03784788 -0.012746072 0.21637389
-0.039383661 -0.01565331 0.21997686
-0.038333852 -0.018761178 0.22137399
-0.037712257 -0.020875832 0.2238781
-0.037452515 -0.023272498 0.22607987
-0.036806379 -0.025742266 0.22971164
-0.035392169 -0.027417365 0.23245735
-0.024773998 0.043508045 0.18095979
-0.024779251 0.041908927 0.18212385
-0.024632223 0.039201573 0.18384866
-0.025433766 0.035994288 0.18673216
-0.027061792 0.031892028 0.19004875
-0.027098907 0.028888904 0.1923888
-0.026812378 0.026251817 0.19402115
-0.02652397 0.023427505 0.19632739
-0.02605959 0.02103498 0.19860329
-0.027098577 0.017828956 0.19960056
-0.02764543 0.01226964 0.20062996
-0.027798232 0.0071077361 0.20150609
-0.028215427 0.003321795 0.20366715
-0.029078275 -0.00051266438 0.20705381
-0.030635392 -0.0042661452 0.21074082
-0.032159578 -0.0079877591 0.21493709
-0.033937939 -0.011881028 0.21860528
-0.035205536 -0.015781006 0.22169207
-0.03426398 -0.018399647 0.22249416
-0.033256732 -0.020840464 0.22555175
-0.032427467 -0.023367701 0.22781028
-0.032168847 -0.025673652 0.23015787
-0.031695869 -0.028239941 0.23202366
-0.021765638 0.043861944 0.18169631
-0.021578552 0.042197667 0.18275981
-0.021551536 0.039515968 0.18420283
-0.02155734 0.037001129 0.18602318
-0.023089267 0.032672267 0.1900599
-0.023679832 0.029737929 0.19307004
-0.023501512 0.027215829 0.19523384
-0.023009799 0.024640208 0.1977288
-0.023113556 0.021693969 0.20028558
-0.024228526 0.018126195 0.20153259
-0.024526464 0.013287606 0.2030756
-0.024416801 0.0090682236 0.204264
-0.025100715 0.004805224 0.2061298
-0.025827093 0.00083792082 0.20906627
-0.02752083 -0.0029609094 0.21250798
-0.028577775 -0.0063419403 0.21632698
-0.029750079 -0.01099974 0.2201415
-0.030614741 -0.015593365 0.22374326
-0.030526374 -0.018508798 0.22600242
-0.029444724 -0.020590467 0.22849612
-0.028559318 -0.022556674 0.22922817
-0.028310107 -0.024894077 0.23086987
-0.02825997 -0.028017638 0.2329897
-0.018904677 0.042131759 0.18369202
-0.01844362 0.039823882 0.1852306
-0.018478477 0.037060317 0.18663269
-0.019165831 0.033454888 0.18984661
-0.020069737 0.030365258 0.19333373
-0.020036967 0.027960377 0.19563048
-0.019842219 0.025452556 0.19860825
-0.020373445 0.02193757 0.20134883
-0.021213155 0.018204646 0.20320687
-0.02149844 0.014082317 0.20484731
-0.021569116 0.010189018 0.20624857
-0.021979965 0.0063143987 0.20853956
-0.022774523 0.0023399615 0.21114513
-0.02430171 -0.0020690816 0.21516553
-0.024987787 -0.0053529572 0.21865177
-0.025700789 -0.009630736 0.22166726
-0.026609179 -0.014205832 0.22494462
-0.026800718 -0.017382583 0.22728294
-0.025909672 -0.01965807 0.2293904
-0.024727179 -0.021692365 0.229739
-0.024627475 -0.02455421 0.23065683
-0.024605827 -0.028184848 0.2346866
-0.015617857 0.040202323 0.18596625
-0.015462399 0.037391208 0.18742052
-0.015933897 0.033893634 0.18992703
-0.016296713 0.030776557 0.19324358
-0.016291803 0.028374368 0.19587894
-0.016117416 0.025973046 0.20008875
-0.01730804 0.021951281 0.20343406
-0.017681463 0.018214097 0.20496085
-0.018224645 0.014707205 0.20606208
-0.018599179 0.011304921 0.20763174
-0.018706407 0.007528529 0.2106863
-0.01847001 0.0047271447 0.21330269
-0.019543553 0.00032757397 0.21675125
-0.021544782 -0.0048570889 0.22074705
-0.022539653 -0.009508187 0.22408248
-0.022723468 -0.013073254 0.2259918
-0.022925518 -0.016330687 0.22761859
-0.022427669 -0.018814767 0.22969662
-0.021518942 -0.02119852 0.23008232
-0.021174382 -0.024313206 0.23187463
-0.020654274 -0.028832408 0.2379351
-0.012800888 0.037400864 0.18846172
-0.012596059 0.034672219 0.19038408
-0.012672427 0.031742498 0.19322795
-0.012471745 0.029202934 0.19605838
-0.012706893 0.026190663 0.200203
-0.013672065 0.022407316 0.20419708
-0.013932066 0.019146673 0.20612438
-0.014358434 0.015720379 0.20770481
-0.015354526 0.011866226 0.20969406
-0.015050382 0.0084546888 0.21239209
-0.015060853 0.0055307592 0.21476629
-0.014846764 0.0023982553 0.21770267
-0.017725296 -0.00403722 0.22266687
-0.018883524 -0.0085155657 0.2253422
-0.01908524 -0.011635852 0.22670443
-0.018562604 -0.014379365 0.22797509
-0.018419428 -0.017402688 0.22992495
-0.018041875 -0.020678395 0.23099253
-0.017240375 -0.024610085 0.23473237
-0.016772417 -0.029037027 0.24034747
-0.010197113 0.034562048 0.19122504
-0.0093603944 0.032483313 0.19387957
-0.0089742495 0.030015415 0.19710511
-0.0090884743 0.02634915 0.20120248
-0.0098158717 0.023076352 0.20513673
-0.010201236 0.020038825 0.20768753
-0.010562154 0.016539942 0.20966165
-0.011578281 0.012726113 0.21147388
-0.011288689 0.0090777082 0.21335159
-0.011029387 0.0058453316 0.21627052
-0.010598022 0.0029105113 0.21906823
-0.010948752 -0.0012206531 0.22228479
-0.013566071 -0.0071562338 0.22606464
-0.013707226 -0.010255757 0.2271098
-0.013688781 -0.013438392 0.22915252
-0.0141108 -0.017137282 0.23161015
-0.014228334 -0.020610215 0.2331761
-0.013472151 -0.024541907 0.23717563
-0.013253904 -0.028317971 0.24193995
-0.0060451436 0.032575551 0.19642381
-0.005751844 0.030084919 0.1994573
-0.0056455908 0.025975576 0.20354757
-0.0061683971 0.02300478 0.20601815
-0.0064679766 0.020362016 0.20819937
-0.0069297892 0.01671231 0.2108044
-0.0074796537 0.012877878 0.21240215
-0.0075697838 0.0094892252 0.21390066
-0.0071841823 0.0064161331 0.21675865
-0.007111805 0.0032520329 0.21948901
-0.0067025204 -0.00056922372 0.22227652
-0.0071595372 -0.0058243657 0.22550486
-0.0082146097 -0.010179137 0.22774468
-0.0093170116 -0.013805172 0.22989103
-0.0099476734 -0.01733882 0.23227166
-0.010265662 -0.020437639 0.23478803
-0.010319685 -0.023497123 0.23705335
-0.0035604236 0.031964924 0.19874449
-0.00278875 0.029364856 0.2006848
-0.0024618909 0.02572494 0.20373014
-0.0026948999 0.022729483 0.20579706
-0.002969357 0.02014529 0.20780499
-0.0036839941 0.016641088 0.21090876
-0.0039292853 0.013068504 0.21290718
-0.0038958043 0.0096558537 0.21453872
-0.0037944096 0.0068248892 0.21680287
-0.0035094353 0.0034445405 0.21912238
-0.0032211195 -0.0010012895 0.22277187
-0.0029682086 -0.0053285775 0.22453564
-0.0043928195 -0.010183921 0.22753668
-0.0052188379 -0.013788985 0.22951443
-0.0064572915 -0.017140107 0.23181996
0.00017254436 0.027960582 0.20147654
0.00059044024 0.025315097 0.20359799
0.00027107014 0.022382412 0.20553212
0.00028544158 0.019605689 0.20757112
-0.00025268583 0.016325025 0.20998625
-0.00029083679 0.013084987 0.21230017
-0.0001718335 0.010227565 0.2146218
-0.00010796827 0.0071762605 0.21667948
0.00014327389 0.0037966147 0.21829133
0.00031774861 -0.00052631658 0.22162469
0.00091554865 -0.0049083563 0.22370932
-0.00067185151 -0.0095106242 0.22678977
-0.0027302515 -0.012969498 0.22935115
0.0031067668 0.024576355 0.20402923
0.0033470839 0.022069322 0.20518149
0.0035664742 0.019334162 0.2070148
0.0032463791 0.016126994 0.20957072
0.0032832217 0.013033331 0.21173753
0.0033544211 0.010348594 0.21378163
0.0029664864 0.0071287989 0.21665891
0.0027627225 0.0042775325 0.21828319
0.0026111051 -0.00017664277 0.22096229
0.0029322386 -0.0035144638 0.22297999
0.0050350334 0.021810722 0.20525618
0.0054310071 0.01882956 0.20734189
0.0056101731 0.016170654 0.20956074
0.0053354008 0.012861229 0.21201853
0 0 0 1 0 0 0 1 0 0 0 1 0 0 0 0 0 354 1 0 0
