ply
format ascii 1.0
comment PCL generated
element vertex 354
property float x
property float y
property float z
element camera 1
property float view_px
property float view_py
property float view_pz
property float x_axisx
property float x_axisy
property float x_axisz
property float y_axisx
property float y_axisy
property float y_axisz
property float z_axisx
property float z_axisy
property float z_axisz
property float focal
property float scalex
property float scaley
property float centerx
property float centery
property int viewportx
property int viewporty
property float k1
property float k2
end_header
-0.058214657 0.025616942 0.190387
-0.059100784 0.022606762 0.19237043
-0.060036242 0.019435572 0.19465145
-0.060411826 0.016441243 0.19707848
-0.060041677 0.013802609 0.19889343
-0.053742342 0.030412361 0.18664326
-0.054609787 0.028659172 0.18747036
-0.055214714 0.025933888 0.18864822
-0.05555667 0.023168834 0.19017887
-0.05667695 0.020102495 0.19287337
-0.057603385 0.016708242 0.19552012
-0.058291603 0.013346353 0.19814581
-0.058123764 0.010411752 0.19989446
-0.05672624 0.0069317967 0.20249565
-0.050015461 0.032974269 0.18426727
-0.050619215 0.031423099 0.18519793
-0.051059026 0.02908715 0.18613304
-0.05143654 0.026578331 0.1873686
-0.051894154 0.023664031 0.18947352
-0.052994896 0.020361779 0.19232842
-0.053543203 0.017139176 0.19411564
-0.054549426 0.014115442 0.19630797
-0.055042379 0.010635726 0.19975851
-0.053728968 0.0040577562 0.20344554
-0.052773375 -0.0020722821 0.20316978
-0.051808074 -0.006286643 0.20392828
-0.047941521 0.033497993 0.18290155
-0.047912724 0.031412654 0.18425342
-0.047843747 0.029167173 0.18550391
-0.048064895 0.026678381 0.18736915
-0.048862211 0.024004232 0.19029567
-0.049463239 0.020717226 0.19259946
-0.049727734 0.017650975 0.19409959
-0.050671615 0.01431959 0.19598764
-0.05118962 0.010331959 0.19952582
-0.049654063 0.0016030065 0.20025645
-0.049220271 -0.0043116328 0.200874
-0.049175262 -0.0072216792 0.20378464
-0.050090622 -0.0093461359 0.20538341
-0.051871702 -0.010173272 0.20656081
-0.045410253 0.035673924 0.18146721
-0.045296412 0.033896483 0.18249923
-0.045112561 0.03169173 0.18405187
-0.045047328 0.029517345 0.18580818
-0.045295987 0.027079022 0.18761861
-0.046041757 0.024346676 0.18991795
-0.046585068 0.021034701 0.19274136
-0.046781726 0.017959232 0.19376947
-0.047058567 0.014587015 0.19549152
-0.046458375 0.0085385898 0.1983155
-0.046599496 0.0019344073 0.19834617
-0.046214942 -0.0045388974 0.19981936
-0.046332881 -0.0064935279 0.20392051
-0.047441509 -0.0082038362 0.20606492
-0.050239004 -0.010631636 0.20761974
-0.052817542 -0.012892962 0.21109228
-0.0544817 -0.013863129 0.215712
-0.055167548 -0.015090173 0.21939822
-0.043339506 0.036684334 0.18096758
-0.042809866 0.034375031 0.18260044
-0.042534761 0.032227479 0.18418247
-0.042544138 0.030129619 0.18576942
-0.043108407 0.027742049 0.18743825
-0.04342534 0.024714943 0.18977213
-0.043627881 0.021045968 0.19216588
-0.043794513 0.017745767 0.19318345
-0.043919507 0.014381612 0.19484375
-0.043642044 0.0093915602 0.19693063
-0.043325081 0.0022924037 0.19689752
-0.043166459 -0.0029099081 0.19831458
-0.043041632 -0.0053323223 0.20286742
-0.043786474 -0.0078123845 0.20602535
-0.047115304 -0.010834021 0.20892595
-0.05034291 -0.012400615 0.21266088
-0.052059174 -0.013673824 0.21678409
-0.053441644 -0.01517593 0.22025801
-0.053515546 -0.016886055 0.22487694
-0.052943256 -0.018700147 0.22843127
-0.040955186 0.039808452 0.17908008
-0.040883251 0.037970375 0.18063605
-0.040385451 0.035380453 0.18245484
-0.039991215 0.033186216 0.18408915
-0.039863799 0.030914638 0.18592937
-0.040258773 0.028207755 0.18788071
-0.040334251 0.025075495 0.18973233
-0.04048891 0.021083482 0.19175839
-0.040853925 0.017811194 0.19321114
-0.040594589 0.014645679 0.19451475
-0.040583216 0.0098127779 0.1962893
-0.040457744 0.0033232421 0.1967417
-0.039830193 -0.0016259034 0.19767871
-0.039746854 -0.0042372369 0.200883
-0.040665429 -0.0069430722 0.20656674
-0.044154145 -0.0110074 0.2100292
-0.047699533 -0.012249088 0.21370152
-0.048922643 -0.013533022 0.21776342
-0.050041724 -0.015520658 0.22137584
-0.049934261 -0.017762899 0.22515936
-0.050236199 -0.020329829 0.2280813
-0.049830131 -0.02238125 0.23020366
-0.037531313 0.040938452 0.17896809
-0.03746539 0.039339665 0.18041942
-0.037202355 0.036817975 0.18222909
-0.037132666 0.034095656 0.18415861
-0.03647035 0.031225553 0.18701385
-0.036633842 0.028167376 0.18948242
-0.03699689 0.025244165 0.19099241
-0.037367072 0.021657862 0.19254567
-0.038099956 0.01865015 0.19445491
-0.037944254 0.014965582 0.19587751
-0.038052671 0.010128101 0.19712125
-0.037842356 0.004149314 0.1974526
-0.03773864 0.00025420653 0.19817123
-0.037286036 -0.0030439934 0.2009363
-0.038441513 -0.0065779467 0.20722042
-0.041973639 -0.010876684 0.21208017
-0.044046447 -0.012355769 0.2146627
-0.045284446 -0.013891249 0.21868922
-0.045968514 -0.016277963 0.22218077
-0.045886081 -0.019073253 0.22528711
-0.045934185 -0.021754548 0.22749361
-0.046131879 -0.024034794 0.22983786
-0.033001181 0.04232629 0.17897725
-0.033067185 0.040726572 0.18027417
-0.032948293 0.038234778 0.18227479
-0.032973137 0.034629479 0.1862286
-0.033392124 0.031276423 0.18919897
-0.033494618 0.02839224 0.1913038
-0.033640046 0.025490899 0.19310841
-0.034019042 0.022497615 0.19474356
-0.035393815 0.01951725 0.19607335
-0.035505988 0.015462915 0.19744357
-0.035551149 0.010787086 0.19854622
-0.035566606 0.0045871567 0.19896539
-0.035607461 0.0009236469 0.20019098
-0.035706762 -0.0021404482 0.20308423
-0.03759915 -0.0062175835 0.20878723
-0.04018696 -0.0092780525 0.21421693
-0.041972056 -0.011721949 0.21700497
-0.042611394 -0.014013509 0.21983589
-0.042379748 -0.017194863 0.22286768
-0.042047031 -0.020449705 0.22529256
-0.04198293 -0.022987783 0.22708744
-0.042200014 -0.025138367 0.22960754
-0.028753009 0.043069601 0.17955832
-0.028484289 0.041451659 0.18083847
-0.028512254 0.038997088 0.18306202
-0.029453533 0.034961082 0.18788275
-0.030470751 0.031445608 0.19085135
-0.030549165 0.028538002 0.1927453
-0.030601995 0.025870191 0.19448684
-0.03052664 0.02330857 0.19647001
-0.03105586 0.02052499 0.1992074
-0.032702848 0.016576195 0.2001029
-0.03325535 0.010154939 0.20048052
-0.033066936 0.0051015331 0.20141874
-0.032715727 0.0018638453 0.20357607
-0.033108361 -0.0016448817 0.20627928
-0.034357745 -0.0053995079 0.21098408
-0.036573913 -0.0085240845 0.21558088
-0.038827144 -0.011679382 0.21869211
-0.040370386 -0.014703163 0.22208436
-0.03908208 -0.018449677 0.22317757
-0.038458861 -0.020783972 0.22548853
-0.038256515 -0.023259673 0.22763149
-0.037615966 -0.025847118 0.2312323
-0.036188088 -0.027616238 0.23398063
-0.024912359 0.043409955 0.18094723
-0.024914633 0.041833814 0.18214694
-0.024787437 0.039209347 0.18400855
-0.02564491 0.035975713 0.1871613
-0.027479423 0.0318048 0.19114272
-0.02764513 0.02891805 0.19365966
-0.027494088 0.026432365 0.19553156
-0.027385185 0.023924934 0.19825798
-0.027113317 0.021816518 0.20099126
-0.028659752 0.018474435 0.20230871
-0.029600579 0.012888622 0.20361404
-0.029442091 0.0076099457 0.20414749
-0.029359814 0.0036123809 0.20581229
-0.029761026 -0.00031879931 0.20879506
-0.031149346 -0.003979567 0.21229304
-0.032711066 -0.0075041819 0.21661362
-0.034752633 -0.011140759 0.22061825
-0.03618091 -0.015076794 0.22387139
-0.035077922 -0.018159939 0.2245121
-0.034022737 -0.02082148 0.22752228
-0.033222288 -0.023392521 0.22970085
-0.032918077 -0.025797579 0.23181291
-0.032225523 -0.028476084 0.23325352
-0.021991042 0.043895483 0.18189307
-0.021786153 0.042264268 0.18301126
-0.021757223 0.039650869 0.18454765
-0.021782571 0.037165664 0.18646592
-0.023448531 0.032504208 0.19067062
-0.024222299 0.029581578 0.19398178
-0.024135102 0.027312351 0.19644046
-0.02376727 0.025086271 0.19936918
-0.024055529 0.022432175 0.20242451
-0.025370345 0.018843984 0.2038673
-0.025869725 0.013913145 0.20557499
-0.025780102 0.0096970377 0.20662363
-0.026099913 0.005235428 0.20801555
-0.026575254 0.0010368156 0.2108006
-0.028093696 -0.0027327922 0.21404403
-0.029040001 -0.0060791569 0.2177915
-0.030202344 -0.010766886 0.22168887
-0.03146816 -0.015791934 0.22585899
-0.031330012 -0.01869072 0.2282895
-0.03016869 -0.020765556 0.23077668
-0.029256037 -0.022743346 0.23128372
-0.028837876 -0.025137136 0.232491
-0.028700922 -0.028289232 0.23431228
-0.019150894 0.042294934 0.18410711
-0.018701887 0.040019587 0.18570004
-0.018731641 0.037249919 0.18712343
-0.0194507 0.033431269 0.19032317
-0.020493623 0.030204352 0.19392309
-0.020526061 0.02793749 0.19648829
-0.020465028 0.025779653 0.19987436
-0.021217795 0.022490701 0.20318945
-0.022152927 0.018694 0.2051014
-0.022522468 0.014530782 0.20679797
-0.022678917 0.010625005 0.20824952
-0.022834715 0.0066284798 0.21024577
-0.02325844 0.0024313407 0.21248448
-0.024752736 -0.00188858 0.21646889
-0.025326576 -0.0052182232 0.21995896
-0.025981233 -0.0097449953 0.22288328
-0.027255148 -0.014626944 0.22657637
-0.0275623 -0.017684029 0.2293691
-0.026586417 -0.019880198 0.23145242
-0.025350818 -0.021876449 0.23161222
-0.025130119 -0.024713656 0.23222722
-0.025045471 -0.028407464 0.23613702
-0.015876081 0.040461946 0.18649447
-0.015695535 0.03758353 0.18786101
-0.016191777 0.033914551 0.19032368
-0.01664173 0.030708432 0.19379073
-0.016672581 0.028371282 0.19655894
-0.016553605 0.026300132 0.20119837
-0.017877331 0.022407254 0.20500359
-0.018310178 0.01848444 0.20627744
-0.018974753 0.014885216 0.20734391
-0.019337807 0.011431264 0.20896412
-0.019194132 0.0077274977 0.21205096
-0.018750425 0.0050018039 0.21463299
-0.019842498 0.00064105086 0.21820766
-0.021938391 -0.00462711 0.22228806
-0.022968763 -0.0096183885 0.2254121
-0.023223745 -0.013423968 0.22730355
-0.023598103 -0.016696377 0.22933656
-0.023110112 -0.019042544 0.23157425
-0.022125883 -0.021282125 0.23183827
-0.021695653 -0.024414159 0.23345219
-0.021028418 -0.028937658 0.2394308
-0.012971577 0.03753493 0.18873838
-0.012791769 0.034650829 0.19058886
-0.012954826 0.03172547 0.19367404
-0.012771454 0.029253336 0.19659624
-0.01311498 0.026460098 0.20124409
-0.014077083 0.022874273 0.20556177
-0.014290034 0.01945175 0.20721051
-0.014664809 0.015762646 0.20837913
-0.01572076 0.011828955 0.21041162
-0.015331084 0.0086125806 0.2132948
-0.015278401 0.005863315 0.21588592
-0.014954126 0.0029033066 0.21898498
-0.018243441 -0.0036760271 0.22452824
-0.019377919 -0.0085585685 0.22678427
-0.019527627 -0.011875425 0.22786967
-0.018860878 -0.014787064 0.22889574
-0.018674184 -0.017776329 0.23090993
-0.018470753 -0.02088646 0.23241138
-0.017592791 -0.024758486 0.23624589
-0.017061021 -0.029111644 0.24178332
-0.010395736 0.034504537 0.1914459
-0.0096122762 0.032472342 0.19424146
-0.0092343958 0.030048339 0.19752324
-0.0093992623 0.02631711 0.20182747
-0.010002841 0.023320243 0.20612748
-0.010343618 0.02029804 0.20862366
-0.010643751 0.016541788 0.21020974
-0.011736944 0.012626936 0.21171078
-0.011420504 0.0091167092 0.21384256
-0.0111331 0.0061888923 0.21723428
-0.010726198 0.0035951105 0.22043432
-0.011186022 -0.00045715217 0.2240613
-0.014012082 -0.0071139792 0.22741893
-0.014035558 -0.01045045 0.2281239
-0.013852064 -0.01381053 0.2299443
-0.014309612 -0.01744988 0.23254845
-0.014506577 -0.020819437 0.23438472
-0.013761225 -0.024639482 0.23866706
-0.013494525 -0.028425498 0.2434435
-0.0062793484 0.032579757 0.19679664
-0.0059760301 0.029979236 0.19975901
-0.0057613421 0.025598895 0.20371163
-0.006210485 0.02290858 0.20650478
-0.0064435294 0.02047486 0.20883849
-0.0068814117 0.016810438 0.21136862
-0.0075470828 0.012889626 0.2127983
-0.0076548145 0.0095756184 0.2145303
-0.00727006 0.0068129264 0.21776187
-0.0072235325 0.0039284038 0.22088704
-0.0068292436 0.00010401988 0.22383995
-0.0073577063 -0.0055965977 0.22686443
-0.0083857281 -0.010329654 0.22886789
-0.0094537502 -0.014089226 0.23099385
-0.010179662 -0.017513618 0.23356187
-0.010579675 -0.02048051 0.23628601
-0.010634914 -0.02348545 0.23860642
-0.0037814341 0.031887066 0.19904713
-0.0029807671 0.029067632 0.20081221
-0.0025642354 0.025250455 0.20370845
-0.0027233129 0.022375731 0.20593801
-0.0029160136 0.020018555 0.20809938
-0.0036226481 0.016670126 0.21140249
-0.0039588185 0.01316989 0.21340534
-0.0039747106 0.009857377 0.21530518
-0.0038191541 0.0071714423 0.21775559
-0.0035718095 0.003976197 0.22038291
-0.003331129 -0.00064298906 0.22407956
-0.0031919125 -0.0051825554 0.22572911
-0.0046003633 -0.01028246 0.22872202
-0.005374732 -0.013959235 0.23085052
-0.0066505685 -0.017246213 0.23330361
4.3616554e-05 0.027451949 0.20143764
0.00049628416 0.024778903 0.20351405
0.00022157835 0.021931874 0.20551848
0.00027634608 0.019226473 0.20763308
-0.00025862179 0.016130133 0.21025424
-0.00027362243 0.01307351 0.21274632
-0.0001398739 0.010417857 0.21535425
-7.3520569e-05 0.0074371654 0.21754082
9.137208e-05 0.0040985006 0.21938953
0.00015668312 -0.00039614231 0.22271532
0.00068197132 -0.0049617495 0.22470839
-0.00095194951 -0.0096605709 0.2278901
-0.0029415272 -0.013123324 0.23065183
0.0030314457 0.023975462 0.20386276
0.0032618006 0.021450339 0.20501095
0.0034932313 0.018719893 0.20684949
0.0032161712 0.015791936 0.20969479
0.0033056815 0.012971194 0.21216621
0.003411253 0.010517623 0.21444577
0.0030364231 0.0074029467 0.21748318
0.0027994497 0.0045572952 0.21927872
0.0024616616 -0.00015209775 0.22194518
0.0027254026 -0.0035761353 0.22390454
0.0049576485 0.021098647 0.20496921
0.0053532436 0.018181134 0.2071314
0.0056259944 0.015848376 0.20966709
0.005365747 0.01281248 0.2124074
0 0 0 1 0 0 0 1 0 0 0 1 0 0 0 0 0 354 1 0 0
