ply
format ascii 1.0
comment PCL generated
element vertex 354
property float x
property float y
property float z
element camera 1
property float view_px
property float view_py
property float view_pz
property float x_axisx
property float x_axisy
property float x_axisz
property float y_axisx
property float y_axisy
property float y_axisz
property float z_axisx
property float z_axisy
property float z_axisz
property float focal
property float scalex
property float scaley
property float centerx
property float centery
property int viewportx
property int viewporty
property float k1
property float k2
end_header
-0.05807592 0.025479833 0.19017467
-0.058837831 0.022598363 0.1922926
-0.059714112 0.019444566 0.19451068
-0.060175378 0.016326895 0.19669345
-0.059886858 0.013605032 0.19838111
-0.053902347 0.029991675 0.18589871
-0.054685317 0.028322242 0.1868868
-0.055156495 0.025725942 0.1882655
-0.055356491 0.023103198 0.18998323
-0.0563659 0.020138131 0.19274491
-0.057356499 0.01665633 0.19526424
-0.058143258 0.013168549 0.19765696
-0.058065947 0.010413276 0.1996108
-0.056707684 0.0068833739 0.2021044
-0.050320614 0.032437492 0.18324283
-0.050864704 0.030921288 0.18423961
-0.051217396 0.028654046 0.1852525
-0.051497895 0.026221305 0.18660845
-0.051735569 0.02350325 0.18905854
-0.05270759 0.020320211 0.19211966
-0.053290941 0.017145727 0.19395608
-0.054422248 0.014173933 0.19620962
-0.055005211 0.010581239 0.19941536
-0.053718835 0.0040259189 0.20309849
-0.052777164 -0.0020554217 0.20292687
-0.051847372 -0.006273787 0.20370044
-0.048239242 0.033076998 0.18199286
-0.048176918 0.031003809 0.18329965
-0.048021827 0.02881569 0.18459903
-0.048165813 0.026374346 0.18649428
-0.048742406 0.023795668 0.18955751
-0.049222641 0.020590885 0.19215645
-0.049484137 0.017622719 0.1937855
-0.050491687 0.014382226 0.19589782
-0.051182274 0.010235369 0.19907878
-0.049683098 0.0015664946 0.19993414
-0.049246758 -0.00430799 0.20067903
-0.049238514 -0.0072026975 0.20359841
-0.050235253 -0.0092491526 0.20526625
-0.052027341 -0.0099459169 0.20657213
-0.045746863 0.035520326 0.18086687
-0.045602672 0.033698596 0.18180877
-0.045367781 0.031477984 0.18330128
-0.045256343 0.029339891 0.18503553
-0.045415584 0.026952418 0.18686628
-0.04600729 0.024231782 0.18915203
-0.046400972 0.020914605 0.19210087
-0.046548389 0.017933683 0.19332674
-0.046875093 0.014639812 0.19530167
-0.046477415 0.0085241888 0.19781542
-0.04665212 0.0018646677 0.19796856
-0.046233851 -0.0045571746 0.19965366
-0.046382368 -0.0064659351 0.20375288
-0.047529645 -0.0081534591 0.20588218
-0.050383162 -0.010411441 0.20760646
-0.052873097 -0.012449348 0.21130903
-0.054264031 -0.013657431 0.21554504
-0.05480345 -0.014827198 0.21928069
-0.043656174 0.036667574 0.18049927
-0.043117721 0.034351304 0.18205424
-0.042804055 0.032199539 0.18359466
-0.042802375 0.030119104 0.18519036
-0.043250959 0.027753163 0.18686503
-0.043419838 0.024724793 0.18912938
-0.043460656 0.02099682 0.19145067
-0.043560605 0.017735895 0.19262113
-0.043768823 0.014426571 0.19453216
-0.04362049 0.0093763927 0.19642791
-0.043383181 0.0022762436 0.19659317
-0.04317138 -0.0029154827 0.19815244
-0.043080397 -0.0052697621 0.20272811
-0.043860592 -0.0078055565 0.2057869
-0.047210343 -0.010718586 0.20875661
-0.050286938 -0.012044716 0.21270689
-0.051790994 -0.013537004 0.21649346
-0.053036459 -0.014955862 0.2200485
-0.052889194 -0.016562568 0.22466639
-0.052178774 -0.01831861 0.22819392
-0.041281532 0.039934356 0.17879716
-0.041181963 0.038079455 0.18031028
-0.040682662 0.035490945 0.18204187
-0.040265203 0.033306632 0.18367824
-0.040096864 0.031116044 0.18557218
-0.040397268 0.028380739 0.18745111
-0.040337399 0.025181573 0.18915741
-0.040325027 0.021124505 0.19103359
-0.040447358 0.017754875 0.19241026
-0.040345002 0.014511377 0.19384372
-0.040538043 0.0097234203 0.19570957
-0.040578991 0.0032687369 0.19632003
-0.039897494 -0.0016034411 0.19754446
-0.039815713 -0.0041309455 0.20080768
-0.040719088 -0.0069081443 0.20629974
-0.044208027 -0.011008615 0.20969215
-0.047583189 -0.011999737 0.21356885
-0.048614703 -0.013484738 0.21730712
-0.049593277 -0.01539419 0.22097953
-0.049346406 -0.017539928 0.22473261
-0.049546618 -0.020038821 0.22768958
-0.049116265 -0.022073554 0.22982933
-0.037826497 0.041113012 0.17868432
-0.037750516 0.039508294 0.18011954
-0.037473723 0.036986902 0.18191466
-0.037371218 0.03430533 0.18386896
-0.036547087 0.031332068 0.1864543
-0.036521737 0.028130539 0.18869145
-0.036796965 0.025178457 0.19015722
-0.037077554 0.021584542 0.19165757
-0.037469305 0.018298725 0.19332479
-0.037532341 0.014679091 0.19491962
-0.037893768 0.0099255769 0.19629166
-0.037916068 0.0040003704 0.19680159
-0.037871528 0.00026170077 0.19795838
-0.037428986 -0.0028963045 0.20091279
-0.038499087 -0.0064463289 0.20694514
-0.041913368 -0.010883116 0.21159072
-0.043894209 -0.012265093 0.21427938
-0.044958457 -0.0139465 0.21803679
-0.045514572 -0.016273497 0.22152883
-0.045352522 -0.01898982 0.22460705
-0.04536872 -0.021625457 0.22682905
-0.045530599 -0.023865156 0.22918463
-0.03315175 0.042593241 0.17882207
-0.033220798 0.040970664 0.18008685
-0.033104654 0.038456544 0.18204387
-0.032937307 0.034667179 0.18558031
-0.033206966 0.031157978 0.18822768
-0.033149686 0.028184922 0.19020303
-0.033178136 0.025215533 0.1919017
-0.033443078 0.02218326 0.19349188
-0.034497742 0.018993342 0.19456427
-0.034920625 0.01505597 0.19621626
-0.03518011 0.010465405 0.19742396
-0.035524145 0.0044506579 0.19830434
-0.035694458 0.00095912098 0.19991732
-0.035850916 -0.0019075412 0.20303933
-0.03764971 -0.0059738983 0.20853868
-0.039998055 -0.0091752782 0.21365216
-0.041644961 -0.011757761 0.21634123
-0.042136859 -0.014374903 0.21882726
-0.041918583 -0.017374493 0.22185022
-0.041605525 -0.020517703 0.22428951
-0.041533086 -0.023006203 0.22609995
-0.041704096 -0.025103455 0.22866067
-0.02879674 0.043385003 0.17958593
-0.028523203 0.041751679 0.18086405
-0.028561331 0.03925731 0.18302354
-0.029346822 0.034981322 0.18723093
-0.030176412 0.031299446 0.18982106
-0.030145057 0.028318325 0.19159216
-0.030057985 0.025566788 0.1932103
-0.029894901 0.022895489 0.19504847
-0.03014975 0.019833814 0.19746102
-0.031766325 0.016022798 0.19840635
-0.032774754 0.0098087415 0.19923708
-0.032921318 0.0050549461 0.2007724
-0.032720331 0.0020308585 0.20327792
-0.033263091 -0.001265952 0.20618974
-0.0344988 -0.0050190324 0.21080545
-0.036426064 -0.0084199151 0.21503511
-0.038412929 -0.011880552 0.21780503
-0.03974621 -0.015450898 0.22068177
-0.03862609 -0.0187704 0.22180742
-0.038017526 -0.020964297 0.22424804
-0.037768617 -0.023391154 0.22645076
-0.037139431 -0.025902335 0.23004594
-0.035710201 -0.027643446 0.23276752
-0.024891581 0.043643519 0.18096872
-0.024901221 0.042051744 0.18215157
-0.024745349 0.039365571 0.18391536
-0.025559004 0.03610985 0.18687196
-0.027183706 0.031773515 0.19027726
-0.027231844 0.028748598 0.19264202
-0.026972733 0.026169231 0.19438408
-0.026753174 0.023442315 0.19689937
-0.026370352 0.021039432 0.19932218
-0.027695058 0.017798489 0.2007387
-0.02857109 0.01237458 0.20205699
-0.028867591 0.0074388385 0.20322974
-0.029206816 0.0037373882 0.20536985
-0.029930266 0.00013064327 0.2086821
-0.031324275 -0.0035478275 0.21215768
-0.03269491 -0.0073106885 0.21621566
-0.034309931 -0.011687375 0.21947871
-0.035548206 -0.015800487 0.22227822
-0.034562834 -0.01854343 0.22294682
-0.033529591 -0.021074386 0.22597845
-0.032730281 -0.023625156 0.22820324
-0.032476816 -0.02595856 0.23049311
-0.031942125 -0.028610948 0.23209903
-0.021870309 0.044001535 0.18176389
-0.021659881 0.042336814 0.18282749
-0.021616679 0.039661482 0.18427677
-0.02160232 0.037128203 0.18609473
-0.023213627 0.0326235 0.19023694
-0.023861689 0.029602444 0.19329081
-0.023712821 0.027154207 0.1955643
-0.023262994 0.024653958 0.19828127
-0.023402829 0.021641877 0.20089357
-0.024636861 0.017995821 0.20217906
-0.025074508 0.013284355 0.20403264
-0.025077084 0.009279185 0.20542994
-0.025792943 0.0051846844 0.20745477
-0.026667923 0.0014380554 0.21062599
-0.028234649 -0.00232243 0.21388654
-0.029062981 -0.0058589354 0.21746755
-0.030013062 -0.01097031 0.22083966
-0.030927019 -0.015893001 0.22434334
-0.030797033 -0.018885395 0.22655031
-0.029738409 -0.021028686 0.2289883
-0.028873913 -0.022979425 0.22971214
-0.028611213 -0.025269052 0.23122126
-0.028511316 -0.028407851 0.23316152
-0.018953873 0.042243078 0.18375118
-0.018474562 0.039916232 0.18526933
-0.0185035 0.037142184 0.18668288
-0.019257518 0.033489939 0.19001524
-0.020273719 0.0303385 0.19359832
-0.020238888 0.027959548 0.19598073
-0.020090245 0.025523055 0.19909367
-0.020655492 0.021797512 0.20188828
-0.021569066 0.018030087 0.20375513
-0.021918083 0.014034653 0.20559597
-0.022090286 0.010340084 0.20720987
-0.022537185 0.0066394499 0.20960715
-0.023346571 0.0028084596 0.21238561
-0.024838699 -0.0016290136 0.2162908
-0.025328176 -0.0051796972 0.21950528
-0.025932143 -0.0097882356 0.22221464
-0.026887875 -0.014580743 0.22548552
-0.027111266 -0.017809076 0.2278395
-0.026201231 -0.020107053 0.22991966
-0.02505498 -0.022065053 0.23029085
-0.024927657 -0.024848845 0.23105139
-0.024861457 -0.02854328 0.23489279
-0.015608313 0.04028156 0.1859843
-0.015462902 0.037459724 0.18744789
-0.016008057 0.03393437 0.19006872
-0.016484555 0.030849138 0.19356157
-0.016503071 0.028478988 0.19629765
-0.016361918 0.026092321 0.20066835
-0.017555952 0.021846106 0.20412816
-0.017941462 0.018094914 0.20558383
-0.018535269 0.01462472 0.20666747
-0.018969189 0.011419578 0.20841132
-0.019057708 0.0077925543 0.21157803
-0.018726388 0.0050225151 0.21421269
-0.019797729 0.00060387788 0.21771105
-0.021821283 -0.00482659 0.22153188
-0.022821002 -0.0097540403 0.22466789
-0.022993635 -0.013431222 0.22645468
-0.023215599 -0.016757064 0.22811514
-0.022777919 -0.01924035 0.23020224
-0.021892568 -0.021515405 0.23057519
-0.021509413 -0.024579884 0.23219247
-0.020846704 -0.029119249 0.23809844
-0.012788157 0.037475634 0.18845986
-0.012638733 0.034728691 0.19048515
-0.012808654 0.031833317 0.19354232
-0.012629782 0.029361593 0.19646688
-0.01290895 0.026259517 0.20077425
-0.013870322 0.022409523 0.20491527
-0.014119323 0.019124376 0.20686053
-0.014527721 0.015692981 0.20837943
-0.015596601 0.011985959 0.21031196
-0.015282763 0.0086582927 0.21305998
-0.015233113 0.005787313 0.21547884
-0.014916811 0.0026930065 0.21841608
-0.018016748 -0.0040337662 0.22355463
-0.01920075 -0.0087289717 0.22600609
-0.01938962 -0.011928401 0.22716464
-0.018805211 -0.014709306 0.22823696
-0.018627757 -0.017774146 0.23005213
-0.018338403 -0.021026729 0.23113847
-0.017474413 -0.024895292 0.2348648
-0.016885517 -0.029258806 0.24052079
-0.010260855 0.034582809 0.19139546
-0.0094605032 0.03252814 0.19415864
-0.0090715019 0.030128332 0.19743536
-0.0091719711 0.026306516 0.20160466
-0.0099034691 0.023066688 0.20568188
-0.010264138 0.020057254 0.20826569
-0.010588984 0.016492834 0.21017335
-0.011712436 0.012778421 0.21183421
-0.011417591 0.0091924211 0.21378739
-0.011122135 0.0060166856 0.21679039
-0.010654579 0.0031366397 0.21965742
-0.011061732 -0.0010444314 0.2229659
-0.013880199 -0.0073108459 0.22665651
-0.013995384 -0.010470432 0.2275601
-0.013902503 -0.013729213 0.22939397
-0.014319461 -0.017489625 0.23173444
-0.014462932 -0.020951845 0.23323609
-0.013647815 -0.024768295 0.23734215
-0.013359602 -0.028547877 0.24216017
-0.0060984031 0.032599833 0.19664678
-0.0057954779 0.030097881 0.1997219
-0.005596613 0.025864827 0.2038676
-0.0061332206 0.022959275 0.20641969
-0.0064426269 0.020382261 0.20863821
-0.0069076405 0.01666371 0.21112296
-0.007529432 0.012863967 0.21266618
-0.0076616346 0.0095435828 0.21431348
-0.0072597037 0.0065563694 0.21722572
-0.007178307 0.0034413757 0.2200316
-0.0067535662 -0.00041215584 0.2228165
-0.0072914818 -0.0058762953 0.22595477
-0.0084014386 -0.010376585 0.22812603
-0.0095098829 -0.014084397 0.23021054
-0.010169567 -0.017645856 0.23248716
-0.010479401 -0.020732814 0.23493233
-0.010511861 -0.023700226 0.23721378
-0.0035825695 0.031948533 0.19894727
-0.0027699033 0.029301133 0.20096055
-0.0024016101 0.025672812 0.20405124
-0.002622342 0.022727679 0.2061673
-0.0028976055 0.020182056 0.20817327
-0.003648378 0.016619785 0.21125272
-0.0039506583 0.013068372 0.21319674
-0.003982929 0.0097349407 0.21495892
-0.0038589051 0.0069347476 0.21720131
-0.0035639557 0.0035797448 0.2195587
-0.0032884304 -0.00093842199 0.22324027
-0.0030564801 -0.005345434 0.22495505
-0.0045700311 -0.010341477 0.2279322
-0.0054121912 -0.014019322 0.22982962
-0.0066552279 -0.017414767 0.23205748
0.00023942646 0.027912645 0.20179328
0.0006570603 0.025293203 0.20393445
0.00034558319 0.022391163 0.20589325
0.00034786627 0.019600898 0.20790261
-0.00020171118 0.016299194 0.21030164
-0.00025156251 0.013092197 0.21259521
-0.00015678625 0.010280613 0.21491443
-0.00012483785 0.007227452 0.21695594
8.4556777e-05 0.0038433734 0.21861799
0.00022730591 -0.00051964604 0.22206722
0.00082393421 -0.0049626152 0.2241371
-0.00084391981 -0.0096412087 0.22720124
-0.0029477717 -0.013187219 0.22964357
0.0031710104 0.024574092 0.20436345
0.0034071668 0.022078054 0.20552513
0.0036186497 0.019313851 0.20731243
0.0033150597 0.016058769 0.20980768
0.003337021 0.012996626 0.21196823
0.0033887553 0.010366159 0.21401754
0.0029927262 0.0071535129 0.21686433
0.0027524424 0.0043012956 0.21851523
0.0025183945 -0.00018758979 0.22137061
0.0028360719 -0.0035483069 0.22339381
0.0050982889 0.021809675 0.20556776
0.0054837717 0.018754898 0.20758854
0.0057034665 0.016061299 0.20974654
0.0053920248 0.01281087 0.212198
0 0 0 1 0 0 0 1 0 0 0 1 0 0 0 0 0 354 1 0 0
