ply
format ascii 1.0
comment PCL generated
element vertex 354
property float x
property float y
property float z
element camera 1
property float view_px
property float view_py
property float view_pz
property float x_axisx
property float x_axisy
property float x_axisz
property float y_axisx
property float y_axisy
property float y_axisz
property float z_axisx
property float z_axisy
property float z_axisz
property float focal
property float scalex
property float scaley
property float centerx
property float centery
property int viewportx
property int viewporty
property float k1
property float k2
end_header
-0.058126654 0.025434008 0.19028077
-0.058880154 0.022547266 0.19237567
-0.059764102 0.019394334 0.19453874
-0.060252603 0.016283102 0.19668539
-0.059985921 0.013576151 0.19838193
-0.053974353 0.029935064 0.1860034
-0.054754097 0.028275471 0.18700507
-0.055209197 0.025685016 0.18839557
-0.055380471 0.023059966 0.1901069
-0.056394305 0.020095339 0.19284238
-0.0574084 0.016628509 0.19533664
-0.058222912 0.013154659 0.19770524
-0.058305122 0.010354444 0.19956647
-0.056984577 0.0068093585 0.20205757
-0.050385866 0.032353561 0.18333746
-0.050931979 0.03084754 0.18434893
-0.051288765 0.028600894 0.18538466
-0.051570114 0.026187422 0.18677115
-0.051753964 0.023473095 0.18922521
-0.052719012 0.020288251 0.19228077
-0.053317107 0.017130239 0.19412455
-0.05457646 0.014198742 0.19636767
-0.055244673 0.010564446 0.19947085
-0.053969443 0.0039673401 0.20310633
-0.052924234 -0.0021053252 0.20292118
-0.051962655 -0.0063207122 0.20367169
-0.048300494 0.03298207 0.18209505
-0.048240978 0.030923815 0.18341748
-0.048094053 0.028757896 0.18474784
-0.048241735 0.026350353 0.18668559
-0.048775282 0.02376793 0.18975565
-0.049234726 0.020569274 0.192362
-0.049501929 0.017632281 0.19402821
-0.050617982 0.01441964 0.19615498
-0.051391941 0.010269714 0.19926104
-0.049818512 0.0015814507 0.20004456
-0.049331494 -0.0042942227 0.20071721
-0.049346142 -0.0072311382 0.20359267
-0.05032393 -0.0093010943 0.20521805
-0.052108776 -0.010020359 0.20650208
-0.045817856 0.035422955 0.18097082
-0.04566906 0.033607684 0.18191658
-0.045439653 0.031399816 0.18342742
-0.045331847 0.029289717 0.18518628
-0.045486793 0.026926629 0.1870482
-0.046045993 0.024209209 0.18933722
-0.046414278 0.020904789 0.19230798
-0.04656205 0.017955331 0.19359268
-0.046978317 0.014668001 0.19558549
-0.046590615 0.0085831592 0.19816081
-0.046760473 0.0019468099 0.19814816
-0.046309095 -0.0045096278 0.19974026
-0.046504375 -0.0064790198 0.20380807
-0.047642905 -0.0081922682 0.20588472
-0.050457507 -0.010477891 0.20754585
-0.05294631 -0.012556435 0.21117544
-0.054350231 -0.013536648 0.21566425
-0.054899465 -0.014724886 0.2193909
-0.043737426 0.036580201 0.18059582
-0.043194044 0.034270987 0.18215388
-0.042882219 0.032130569 0.18371414
-0.042887613 0.03007267 0.18533345
-0.043332424 0.027731901 0.18703681
-0.043467958 0.024717374 0.1893118
-0.043470494 0.020988313 0.19164301
-0.04356616 0.017752815 0.19288479
-0.043852918 0.014468834 0.1948957
-0.04369897 0.0094537949 0.19688022
-0.043456681 0.0023843113 0.19687331
-0.04324631 -0.0028353024 0.19831826
-0.043213617 -0.0052538104 0.20286962
-0.043989602 -0.0078192996 0.205851
-0.047288354 -0.01076734 0.2087231
-0.050376069 -0.012145283 0.21260238
-0.051880844 -0.013416828 0.2166203
-0.053135421 -0.014856217 0.22016376
-0.052985147 -0.01650204 0.22476047
-0.05226694 -0.018286726 0.22826184
-0.041400053 0.039883785 0.17888221
-0.041280668 0.038020313 0.1803928
-0.04076983 0.035429139 0.1821238
-0.040348951 0.033251215 0.18376866
-0.040185526 0.031088401 0.1856809
-0.040473375 0.028376099 0.1875921
-0.040393021 0.025188213 0.18931779
-0.040335115 0.021116139 0.19121835
-0.040430292 0.017773803 0.19267114
-0.040425923 0.014547629 0.19426228
-0.040612284 0.0098218191 0.1962671
-0.040628813 0.0033621527 0.19675294
-0.039961409 -0.0015276553 0.19782482
-0.039937735 -0.0040914891 0.20104633
-0.040878959 -0.006910535 0.20643879
-0.044290166 -0.011041834 0.20968257
-0.047680609 -0.012090634 0.21349323
-0.048708927 -0.013360291 0.21744587
-0.049695041 -0.015296379 0.22110277
-0.049442496 -0.017486518 0.22481635
-0.049642459 -0.020012133 0.22774749
-0.049213283 -0.022064865 0.22986752
-0.037935682 0.041086979 0.17873287
-0.037850425 0.039482292 0.1801642
-0.037563302 0.036957119 0.18196082
-0.037451982 0.034275658 0.1839276
-0.036616005 0.031310569 0.18652678
-0.036567517 0.028117707 0.18877259
-0.036834821 0.02517763 0.19026096
-0.037097324 0.021589141 0.19182754
-0.037432738 0.018318405 0.19360262
-0.037619948 0.014703536 0.19532287
-0.037998401 0.010008723 0.19688198
-0.037977748 0.0040771267 0.19730066
-0.037941556 0.00031100606 0.1983168
-0.037540469 -0.002876438 0.20121756
-0.038626783 -0.0064339801 0.20715402
-0.041987281 -0.010933674 0.2116054
-0.043995518 -0.012345846 0.21424158
-0.045056108 -0.013812661 0.21819139
-0.045614991 -0.016182132 0.22165132
-0.045446895 -0.018950017 0.22467917
-0.045465365 -0.021607062 0.2268773
-0.045626625 -0.023862446 0.2292183
-0.033227745 0.042593114 0.17881373
-0.033293948 0.040975027 0.18008466
-0.033172954 0.038467124 0.18204778
-0.032978762 0.034654353 0.18560617
-0.033237975 0.031129751 0.18826464
-0.033167049 0.028165262 0.19024965
-0.033191446 0.025204074 0.1919651
-0.033448841 0.022189897 0.19360866
-0.034455769 0.019007873 0.19483973
-0.035017334 0.015096127 0.19660403
-0.035299737 0.010546778 0.1979887
-0.035611752 0.0044914037 0.19876947
-0.03577916 0.00097798149 0.20028639
-0.035964388 -0.0019066221 0.20336601
-0.037771672 -0.0059293923 0.20880559
-0.040048279 -0.009280324 0.21373069
-0.041732233 -0.011916598 0.2163346
-0.042226288 -0.014271857 0.21898042
-0.042007525 -0.017322835 0.22194161
-0.04168725 -0.020504093 0.22435004
-0.041618261 -0.023004429 0.22615851
-0.041791879 -0.025108317 0.22870724
-0.028834593 0.043387994 0.17955838
-0.028556682 0.041761331 0.18084557
-0.02859504 0.039277554 0.18301895
-0.029370209 0.034975681 0.18725869
-0.030190222 0.031269927 0.18984969
-0.030152841 0.028292328 0.19162394
-0.030068181 0.025544813 0.19326012
-0.029909797 0.022884304 0.19513132
-0.030170418 0.019830169 0.19765186
-0.03185321 0.016072724 0.19873153
-0.032893393 0.0098871505 0.19975401
-0.033043675 0.0050695795 0.20120178
-0.032874335 0.0020509851 0.20367439
-0.033473533 -0.0011403289 0.20662551
-0.034695338 -0.0048548537 0.21122135
-0.036546648 -0.0084330756 0.21528871
-0.038531862 -0.012030992 0.21790421
-0.039824449 -0.01543119 0.22079015
-0.038694568 -0.018779965 0.22186784
-0.038087673 -0.020983359 0.22430848
-0.03783834 -0.023413252 0.22651644
-0.037210993 -0.025930248 0.23010479
-0.035776116 -0.027684566 0.23281945
-0.024905615 0.043649923 0.18095091
-0.024917539 0.042062331 0.18214105
-0.024761723 0.039386488 0.18391968
-0.025578706 0.036133062 0.18689819
-0.027194647 0.031742234 0.19030347
-0.027240632 0.028708553 0.19266827
-0.026984071 0.026139772 0.19443038
-0.026776573 0.023426363 0.19698378
-0.026425574 0.021008944 0.19943915
-0.027846681 0.017731911 0.20086895
-0.028841462 0.01234985 0.20236509
-0.02915791 0.007477663 0.2036424
-0.029493496 0.003825068 0.20582059
-0.030221347 0.00033522237 0.20919362
-0.031584468 -0.0033319301 0.21263339
-0.032892831 -0.0072006295 0.21660797
-0.034391515 -0.011668422 0.21963121
-0.035616335 -0.0158347 0.2223427
-0.034624659 -0.018586779 0.22300154
-0.033585053 -0.021128761 0.2260375
-0.032793477 -0.023679614 0.22826102
-0.032540489 -0.026015623 0.23054682
-0.03199083 -0.028684609 0.23210026
-0.021878203 0.044006694 0.18175489
-0.021664927 0.042345487 0.18282303
-0.021623584 0.039676644 0.18428157
-0.02160763 0.037147522 0.18610781
-0.023229776 0.032610867 0.1902682
-0.023880087 0.029560121 0.19331124
-0.023734888 0.027121868 0.1955985
-0.023289818 0.02462657 0.19835337
-0.02345904 0.021588653 0.20098118
-0.024748974 0.01793151 0.20230667
-0.025216209 0.013267847 0.20425338
-0.025235889 0.0093176654 0.20569699
-0.025951831 0.0052603995 0.20774931
-0.026963148 0.0016537271 0.21111754
-0.028521771 -0.0020938434 0.21436775
-0.029277733 -0.0057192673 0.21786395
-0.030070577 -0.010980572 0.22094734
-0.030965144 -0.015967494 0.22441961
-0.030835608 -0.018972877 0.22662058
-0.029787997 -0.021125937 0.22904979
-0.028931251 -0.023071846 0.22978093
-0.028668368 -0.025344331 0.2312665
-0.028555019 -0.028483706 0.23317473
-0.018953688 0.042246979 0.18374746
-0.018474113 0.039921962 0.18526901
-0.018505227 0.037151571 0.18669315
-0.01927444 0.033496674 0.1900537
-0.020302683 0.030317741 0.19363649
-0.020259088 0.027937323 0.19602323
-0.020116361 0.025504816 0.19915169
-0.020716453 0.021718707 0.20195554
-0.021665614 0.017951306 0.20384502
-0.022025308 0.014000547 0.20575048
-0.022212902 0.010364219 0.20741872
-0.022665339 0.0067064092 0.20983937
-0.02347422 0.0029036731 0.21265432
-0.024960687 -0.0015479736 0.21651751
-0.025408339 -0.005157447 0.21964869
-0.025979172 -0.009830419 0.22227843
-0.026922999 -0.014664128 0.22556333
-0.027158443 -0.01790259 0.22792196
-0.02625135 -0.020206084 0.22999357
-0.025114423 -0.022153247 0.23036243
-0.024983967 -0.024916152 0.23109102
-0.024899134 -0.028616909 0.23489478
-0.015598944 0.040285315 0.18598253
-0.015460297 0.037465375 0.1874548
-0.016023016 0.033939678 0.19010258
-0.016515797 0.030859152 0.19361748
-0.016533244 0.028485801 0.19636543
-0.016399829 0.026090484 0.20075916
-0.017609863 0.021782091 0.20422895
-0.018001596 0.018030226 0.20567712
-0.018609727 0.014577359 0.20677048
-0.019051243 0.011429118 0.20856021
-0.019130761 0.007840883 0.21175081
-0.018776836 0.0050738784 0.21438083
-0.019848358 0.00064436701 0.21787763
-0.021880722 -0.0048352499 0.22163349
-0.022868786 -0.0098126708 0.22473106
-0.0230317 -0.013508937 0.22651014
-0.023262251 -0.01684914 0.22819771
-0.022840725 -0.019337755 0.23026918
-0.021958126 -0.021602662 0.23061541
-0.021566 -0.024646897 0.23219959
-0.020861585 -0.029181279 0.23807298
-0.012785498 0.037482362 0.18846218
-0.012648286 0.034738261 0.19050921
-0.012835466 0.031851046 0.19360195
-0.012658904 0.029389333 0.19654083
-0.01295022 0.026262928 0.20087211
-0.013910492 0.022385212 0.20502909
-0.014155786 0.01908965 0.20697883
-0.014558821 0.015660506 0.20848806
-0.015643427 0.011996672 0.21041532
-0.015326438 0.0086896755 0.21317577
-0.015261387 0.0058262562 0.21559772
-0.014920834 0.0027345479 0.21852554
-0.018068591 -0.0040486376 0.2236591
-0.019251961 -0.0087794419 0.22607905
-0.019436222 -0.011992263 0.22720748
-0.018840181 -0.01477848 0.22825207
-0.018658729 -0.017857432 0.23003276
-0.018387517 -0.021111738 0.23110104
-0.01750711 -0.024960186 0.2348267
-0.016875161 -0.029310418 0.24049693
-0.010278271 0.034585848 0.19142975
-0.0094841504 0.032534339 0.19421022
-0.0090915514 0.03014583 0.1974927
-0.0091909086 0.026290512 0.20166501
-0.009923894 0.023049349 0.20576273
-0.010274318 0.020040086 0.20834912
-0.010588141 0.016460536 0.21024357
-0.01173508 0.012778133 0.21188579
-0.011438967 0.0092100697 0.21386176
-0.011137213 0.0060449922 0.21687648
-0.010660068 0.003168893 0.2197473
-0.011076804 -0.0010252865 0.22305606
-0.013932458 -0.0073435972 0.22672622
-0.014042188 -0.010512291 0.22761492
-0.013937026 -0.013785208 0.22941573
-0.014354122 -0.017563554 0.23172219
-0.014500866 -0.021024991 0.23319782
-0.013664187 -0.024813419 0.23731707
-0.013347988 -0.028599683 0.24214366
-0.0061100353 0.032597598 0.19668147
-0.005805145 0.030088862 0.19975707
-0.0055909725 0.025828384 0.20390181
-0.0061301268 0.022936884 0.20647165
-0.006440944 0.020370187 0.20869678
-0.0069039892 0.016635947 0.21115871
-0.0075362641 0.01285162 0.21270213
-0.0076778391 0.0095521705 0.21439093
-0.0072738086 0.0065830727 0.21730852
-0.0071900547 0.0034682662 0.2201158
-0.0067583821 -0.00039350532 0.2228827
-0.0073143784 -0.0058874511 0.22600774
-0.0084344139 -0.010407036 0.22818331
-0.0095447022 -0.014131378 0.23025921
-0.010210207 -0.01770304 0.23250021
-0.0105154 -0.020791182 0.23491627
-0.010535467 -0.023739707 0.23718974
-0.0035878269 0.03193257 0.19897071
-0.0027697603 0.029273808 0.2009874
-0.0023964175 0.025648396 0.20408566
-0.0026133396 0.022713939 0.20621128
-0.0028876185 0.020176662 0.20822252
-0.0036430436 0.016604148 0.2113013
-0.0039527272 0.013061883 0.21323854
-0.0040014521 0.0097510936 0.21503641
-0.0038730949 0.0069581652 0.21727042
-0.0035734205 0.0035992088 0.21962129
-0.0032984293 -0.00093422073 0.22328547
-0.0030701391 -0.0053525558 0.22498976
-0.004604097 -0.010363432 0.22798875
-0.0054495828 -0.01405087 0.22987483
-0.0066908179 -0.017459249 0.23207985
0.0002486078 0.027889898 0.20182969
0.00066425756 0.025278462 0.20397814
0.0003558179 0.022384811 0.20594312
0.00035895506 0.019596538 0.2079539
-0.00019057264 0.016290272 0.21035263
-0.0002418825 0.013089308 0.21263796
-0.00015186408 0.010286876 0.21494357
-0.00012969946 0.0072357268 0.21698692
7.2528695e-05 0.0038486517 0.21865319
0.0002104231 -0.00052597339 0.22210377
0.0008091011 -0.0049804179 0.22416887
-0.00087574322 -0.0096586552 0.22724725
-0.0029924486 -0.013215407 0.22967905
0.0031775481 0.0245694 0.20441172
0.0034158223 0.022079961 0.20557997
0.003629494 0.019314425 0.20736314
0.0033317481 0.01604207 0.209839
0.0033501419 0.012981739 0.21198633
0.0033963663 0.010358529 0.21402961
0.0029986014 0.0071499539 0.21686935
0.0027494831 0.0043011908 0.2185234
0.0024978747 -0.00019754669 0.22139864
0.0028178631 -0.0035620115 0.22342019
0.005107468 0.021813748 0.20561899
0.0054950099 0.018743748 0.20762779
0.0057252999 0.016031193 0.20975903
0.0054055653 0.012790235 0.21220149
0 0 0 1 0 0 0 1 0 0 0 1 0 0 0 0 0 354 1 0 0
