ply
format ascii 1.0
comment PCL generated
element vertex 354
property float x
property float y
property float z
element camera 1
property float view_px
property float view_py
property float view_pz
property float x_axisx
property float x_axisy
property float x_axisz
property float y_axisx
property float y_axisy
property float y_axisz
property float z_axisx
property float z_axisy
property float z_axisz
property float focal
property float scalex
property float scaley
property float centerx
property float centery
property int viewportx
property int viewporty
property float k1
property float k2
end_header
-0.058144264 0.02537063 0.19104123
-0.05875089 0.022273371 0.19273958
-0.059648514 0.018834017 0.1940452
-0.060357608 0.015527793 0.19542702
-0.060267277 0.012829528 0.19698332
-0.054334044 0.029965892 0.18676056
-0.055038325 0.028344594 0.18791024
-0.05531222 0.025712101 0.18930474
-0.055194966 0.022871073 0.19070187
-0.056129664 0.019684182 0.19296753
-0.057306655 0.016073858 0.19482034
-0.058371399 0.012520938 0.19666083
-0.058433294 0.0094768777 0.19803578
-0.057344489 0.0061031808 0.20086792
-0.050858017 0.031975158 0.1835462
-0.0513798 0.030643065 0.18489684
-0.051689629 0.028610535 0.18624485
-0.051921979 0.026335638 0.18791565
-0.051566962 0.023345273 0.19001655
-0.05234563 0.019871404 0.19267836
-0.05302687 0.016762411 0.19443704
-0.054325197 0.013663444 0.1959655
-0.055437606 0.0099090002 0.1985569
-0.054295897 0.0036183728 0.20285963
-0.052784212 -0.0022584428 0.20329405
-0.051762328 -0.0063977307 0.20417802
-0.048779808 0.0323404 0.18214492
-0.048718031 0.030571744 0.18385461
-0.048561342 0.028689316 0.18558151
-0.048642933 0.02659129 0.18791486
-0.048742048 0.023675563 0.19075745
-0.048973147 0.020231225 0.1930916
-0.049250614 0.017420085 0.19483918
-0.050389841 0.01431078 0.19681798
-0.051570598 0.0099990666 0.19923754
-0.049555074 0.0014684129 0.20091918
-0.048926581 -0.0041814651 0.20159408
-0.049173139 -0.0071859746 0.20430599
-0.050234541 -0.0092222141 0.20559299
-0.052075166 -0.0099725081 0.20663193
-0.046318967 0.034604814 0.18063767
-0.046136089 0.032970324 0.18185827
-0.045941848 0.031049497 0.18378778
-0.045824405 0.029297598 0.18596579
-0.045904122 0.02721877 0.18821326
-0.046196904 0.024395447 0.19057681
-0.046293374 0.020798208 0.19337471
-0.046360515 0.017975571 0.19482879
-0.046759054 0.014896831 0.19709112
-0.046514589 0.0087592229 0.19949062
-0.046364274 0.0018863041 0.19944802
-0.045831986 -0.0043040453 0.20103472
-0.04641429 -0.0063242386 0.20488751
-0.047677875 -0.0080193412 0.20656578
-0.050477341 -0.010325289 0.20772406
-0.053037982 -0.012402295 0.21105215
-0.054555908 -0.013227955 0.21568544
-0.055139638 -0.014416471 0.2193929
-0.044267934 0.035856847 0.18016376
-0.043726608 0.033755623 0.18200561
-0.043421064 0.031879455 0.18399073
-0.043464381 0.030169889 0.18606333
-0.043867067 0.028108191 0.18817319
-0.043760035 0.025189642 0.19076078
-0.043353349 0.021207986 0.19303115
-0.043316241 0.017996611 0.19446014
-0.043461714 0.014846665 0.19694643
-0.043334577 0.0097817583 0.19885287
-0.042980652 0.0026350007 0.19883315
-0.042689793 -0.0025005757 0.20027757
-0.043134499 -0.0049661184 0.20452645
-0.044091184 -0.0074966117 0.2069667
-0.047374491 -0.010496497 0.20907119
-0.050505567 -0.01199801 0.2125376
-0.052084167 -0.013180875 0.21663767
-0.053381294 -0.014604177 0.22016008
-0.053311367 -0.016296797 0.22464731
-0.052713156 -0.018097434 0.22807913
-0.042116344 0.03939892 0.17833763
-0.041940697 0.037586551 0.17996658
-0.041382048 0.03511034 0.18188843
-0.040960208 0.03315961 0.18388285
-0.040845402 0.031422719 0.18637675
-0.041062653 0.028953439 0.18871503
-0.040808924 0.025861934 0.19079611
-0.040239513 0.021603333 0.19288696
-0.040096965 0.018170152 0.19440815
-0.03979389 0.014853621 0.19634946
-0.040061153 0.010176201 0.19863375
-0.040209658 0.0036883366 0.19900265
-0.039507959 -0.0010838044 0.20031671
-0.039781608 -0.00368293 0.2033691
-0.041130912 -0.0064904783 0.20800956
-0.044430152 -0.010686441 0.21017215
-0.04783811 -0.011938919 0.21348917
-0.048913032 -0.013211687 0.21745768
-0.049957048 -0.015153551 0.2210822
-0.049792271 -0.017388145 0.22474146
-0.050118022 -0.019880889 0.22769253
-0.04977433 -0.021904577 0.2298463
-0.038636148 0.040915053 0.17836188
-0.038564112 0.039412107 0.17986253
-0.038267303 0.037019212 0.18183665
-0.038154569 0.034512646 0.18411931
-0.037206002 0.031740587 0.18725263
-0.036970068 0.028565461 0.18962507
-0.037134923 0.025685102 0.19131586
-0.037139215 0.022070924 0.19326675
-0.037030961 0.018551609 0.19518472
-0.036960233 0.014922219 0.19730565
-0.037428916 0.010237476 0.19911735
-0.037571669 0.0042478 0.1993054
-0.037626367 0.00062932714 0.20066032
-0.037373137 -0.0025101863 0.20369279
-0.038725276 -0.0060868952 0.20866562
-0.042110726 -0.010661469 0.21207944
-0.044181786 -0.012177284 0.21433425
-0.045272335 -0.013774246 0.21819063
-0.045891609 -0.016171889 0.22165558
-0.045787469 -0.018915389 0.22477785
-0.045902446 -0.021544261 0.22702189
-0.046167322 -0.023720097 0.22942564
-0.033755437 0.042676616 0.17866431
-0.033833768 0.041111302 0.17999028
-0.033735499 0.0387058 0.18205808
-0.033412956 0.034903064 0.18588799
-0.033561327 0.03135718 0.1887074
-0.033349495 0.028385334 0.19072707
-0.033295214 0.025407206 0.19244458
-0.033401296 0.022408085 0.1942703
-0.033988364 0.019130409 0.19616032
-0.034343895 0.015351169 0.19847597
-0.034628157 0.010706555 0.19994336
-0.03509067 0.0045152819 0.20050679
-0.035373624 0.0011499386 0.20227996
-0.035694245 -0.0016490814 0.20549476
-0.037799187 -0.0058326805 0.20985363
-0.039793767 -0.0096251024 0.21363452
-0.041539509 -0.012406804 0.21591224
-0.042306613 -0.01461132 0.2187583
-0.04218737 -0.017493308 0.22200017
-0.041941524 -0.020606177 0.22465439
-0.041999463 -0.023036662 0.22664261
-0.042325381 -0.024974026 0.22928575
-0.029187933 0.043565765 0.17962942
-0.028883811 0.041940182 0.18096194
-0.028933819 0.039486811 0.18318275
-0.029617533 0.035079956 0.18744983
-0.030344652 0.031332847 0.19008714
-0.030249352 0.028374068 0.191851
-0.030142279 0.02561252 0.19352785
-0.029966826 0.022962384 0.19547984
-0.030125029 0.019816736 0.19841643
-0.031130003 0.016309161 0.2002392
-0.032091491 0.0099657243 0.20135674
-0.032454818 0.0049558682 0.20262292
-0.032548144 0.0020149099 0.2052269
-0.033607278 -0.00089372555 0.20816649
-0.034826711 -0.0047829193 0.21222195
-0.03633735 -0.0089163492 0.21546023
-0.038278911 -0.012843692 0.21746044
-0.03981147 -0.016206861 0.22048786
-0.038709745 -0.019318679 0.22203943
-0.038304787 -0.021303575 0.22485107
-0.038205754 -0.02355442 0.22731832
-0.037812494 -0.025775192 0.23113692
-0.036510013 -0.027373875 0.23405923
-0.025196707 0.043960631 0.18126965
-0.025204027 0.042364519 0.18247584
-0.02505119 0.039732434 0.18429589
-0.02583383 0.036398947 0.18720946
-0.027315415 0.031714551 0.19038428
-0.027328173 0.028641166 0.1927488
-0.027046522 0.026110813 0.19458579
-0.026861869 0.02342796 0.19728363
-0.026649466 0.020858062 0.1998076
-0.028140113 0.01733811 0.20138475
-0.029374653 0.012013055 0.20342974
-0.029474663 0.0072900848 0.20488645
-0.029936276 0.0038505483 0.20729922
-0.03075644 0.00071588776 0.21081966
-0.031938884 -0.0030898997 0.21390831
-0.032997463 -0.007411662 0.21735401
-0.034421168 -0.012382952 0.21984352
-0.035635348 -0.016712397 0.22230709
-0.034725603 -0.019236742 0.22348218
-0.033869568 -0.021530114 0.22699614
-0.033249855 -0.023905199 0.22939746
-0.033081777 -0.026127225 0.23179694
-0.032425806 -0.029005421 0.23305796
-0.022147367 0.044353578 0.18213946
-0.02190491 0.042676166 0.18318096
-0.021859724 0.039998565 0.18458778
-0.021802401 0.037399463 0.1863095
-0.023376301 0.032554306 0.19026981
-0.024031932 0.029421141 0.19325434
-0.023883801 0.027040755 0.19559814
-0.023430247 0.024543624 0.19853733
-0.023731558 0.021344416 0.20123668
-0.025310133 0.017567633 0.20274775
-0.025974486 0.013092119 0.20517839
-0.026083445 0.0094046257 0.20693256
-0.026767071 0.0056154686 0.20928065
-0.027641069 0.002248941 0.21281126
-0.029141529 -0.0016401126 0.21579154
-0.029741632 -0.0055794669 0.21898553
-0.030364167 -0.011330096 0.22174697
-0.031301852 -0.016587136 0.22548464
-0.031203892 -0.019486874 0.22790867
-0.030260436 -0.021583779 0.23051271
-0.029403379 -0.023505284 0.23134203
-0.029125534 -0.025757203 0.23258996
-0.028859364 -0.029030655 0.23408295
-0.01911669 0.042457461 0.18391153
-0.018598244 0.040040053 0.18527834
-0.018629868 0.037199169 0.18658932
-0.019397395 0.033419233 0.18998307
-0.020520601 0.030185029 0.19360936
-0.020416515 0.027850313 0.19603369
-0.020284841 0.025459066 0.19924943
-0.021111786 0.021417936 0.20229559
-0.022244189 0.017605355 0.20429473
-0.022679662 0.01383787 0.20648089
-0.022958286 0.010530542 0.20844701
-0.023479395 0.0071850657 0.21111733
-0.024307804 0.0036424887 0.21430977
-0.025813315 -0.00086538523 0.21812393
-0.026082123 -0.0048502246 0.22091694
-0.026524989 -0.0099595375 0.22328097
-0.027328253 -0.015135546 0.2268125
-0.027616732 -0.018368367 0.22939585
-0.026742775 -0.020623939 0.23162761
-0.025644336 -0.022470389 0.23214087
-0.025425581 -0.025131013 0.23254362
-0.02520941 -0.029112104 0.23585464
-0.015593835 0.040217932 0.18567167
-0.015488031 0.037337087 0.18705691
-0.016107546 0.033787664 0.18988724
-0.016739067 0.03082327 0.19365382
-0.016763113 0.028494297 0.19649753
-0.016765958 0.026178418 0.20122099
-0.01822493 0.021748858 0.2051743
-0.018585518 0.017925857 0.20647153
-0.019163877 0.014476687 0.20743188
-0.019648561 0.011649822 0.2094308
-0.019720018 0.0083149234 0.21276739
-0.019224837 0.0055140438 0.2152835
-0.020366225 0.001140987 0.21902423
-0.022526758 -0.004632832 0.22270389
-0.023358695 -0.010037979 0.22562191
-0.023425423 -0.013901704 0.22751226
-0.023701122 -0.017329205 0.22961645
-0.023410568 -0.019685501 0.23195997
-0.022564881 -0.021776414 0.2324288
-0.022085587 -0.024789583 0.23359646
-0.021001656 -0.029704424 0.23898157
-0.01274481 0.037219387 0.18778561
-0.012669398 0.0345519 0.19006692
-0.013057778 0.031915952 0.19369796
-0.012923572 0.02953982 0.19675636
-0.013398227 0.026381543 0.20135616
-0.014441411 0.022490324 0.20588444
-0.01466186 0.01913408 0.20792286
-0.015005957 0.015699407 0.20933123
-0.016100902 0.012292348 0.21114084
-0.015727973 0.0090044513 0.21382394
-0.015537286 0.0060781147 0.21607482
-0.014992034 0.0029026661 0.21882346
-0.018576628 -0.0039762249 0.22449006
-0.019711433 -0.0089744674 0.22690353
-0.0198777 -0.012280971 0.2280305
-0.019281263 -0.01508275 0.22922282
-0.019129723 -0.018100172 0.23114656
-0.018978689 -0.02123937 0.23236614
-0.017840881 -0.025230864 0.23579015
-0.016855802 -0.029670961 0.24139954
-0.010418141 0.034546722 0.19128014
-0.0097321123 0.032638289 0.19435667
-0.0093706641 0.030336699 0.19770578
-0.009501054 0.026283201 0.2018417
-0.010253641 0.023057798 0.20611982
-0.010513463 0.020036681 0.20876192
-0.010752953 0.016304508 0.21049142
-0.012058944 0.012951026 0.2122681
-0.011706298 0.0094331456 0.21422763
-0.011272971 0.0061423848 0.21701404
-0.010697489 0.0031404847 0.21971762
-0.011172663 -0.0011455807 0.22303502
-0.014394525 -0.0075010248 0.22737032
-0.014532425 -0.010668512 0.22853638
-0.014421188 -0.013932791 0.23051028
-0.014836303 -0.017742228 0.23279344
-0.014925547 -0.021267168 0.23413424
-0.013810922 -0.025107089 0.23809068
-0.013309097 -0.028905062 0.24302799
-0.0063707125 0.032743212 0.19683349
-0.0060385065 0.030177876 0.19987105
-0.0056660492 0.025654361 0.20381424
-0.006239119 0.022822158 0.20645228
-0.0065642851 0.020265147 0.20862617
-0.007039581 0.016157331 0.21051066
-0.0077257762 0.012589739 0.21232583
-0.0078907683 0.0096031036 0.21454585
-0.0074088825 0.0066928086 0.21741167
-0.0072685201 0.0034551886 0.22006689
-0.0068078381 -0.00054465258 0.22261894
-0.0075506121 -0.0061632255 0.22589412
-0.0088379709 -0.010575862 0.22889663
-0.0099975727 -0.014270298 0.23136581
-0.010628701 -0.017928423 0.23339765
-0.010772991 -0.021151578 0.23550828
-0.010671237 -0.024056347 0.23778655
-0.0038072292 0.032020457 0.19906732
-0.0028771681 0.029232685 0.20096503
-0.0024425099 0.025468994 0.20386457
-0.0026880919 0.022513222 0.205907
-0.0029905795 0.019941377 0.20779061
-0.0037669681 0.016175905 0.21069516
-0.0040924824 0.012693095 0.21261366
-0.0042245775 0.0097882645 0.21505834
-0.0040299576 0.0071153892 0.21734272
-0.0036598567 0.0036285443 0.2195365
-0.0033962752 -0.0011681833 0.22292408
-0.0032378312 -0.005660485 0.22456019
-0.0049630436 -0.010600809 0.2283134
-0.0058688917 -0.014238581 0.23057064
-0.0070577166 -0.017719723 0.23276918
0.00024304869 0.027735259 0.20163772
0.00061889191 0.025067961 0.2036344
0.00027800331 0.022131769 0.20549959
0.00024342783 0.019269772 0.20736971
-0.00028897874 0.015909614 0.2097297
-0.00034239731 0.012745961 0.21199813
-0.00025648664 0.010229905 0.21455465
-0.00026063193 0.0073602162 0.2168899
-4.9708538e-05 0.0039317766 0.21855569
4.8405516e-05 -0.00077845267 0.22172607
0.00062900962 -0.0053472901 0.22368534
-0.0011959311 -0.0099946093 0.22714868
-0.0034151094 -0.013464063 0.23004319
0.0031156347 0.024304703 0.20393583
0.0033101793 0.02178533 0.20500633
0.0034909677 0.018934486 0.20664041
0.0032534527 0.01564575 0.20912555
0.0032760291 0.012629232 0.21130621
0.0032890297 0.010135481 0.21350259
0.0029120175 0.0071650376 0.21657503
0.0026480327 0.0044478979 0.21839258
0.0023183627 -0.00041143197 0.22101425
0.0026447412 -0.003887336 0.22292174
0.005001436 0.021484427 0.2049477
0.005365497 0.018303582 0.2068311
0.0056719352 0.015584 0.20896916
0.0053230957 0.012408658 0.21144614
0 0 0 1 0 0 0 1 0 0 0 1 0 0 0 0 0 354 1 0 0
