ply
format ascii 1.0
comment PCL generated
element vertex 354
property float x
property float y
property float z
element camera 1
property float view_px
property float view_py
property float view_pz
property float x_axisx
property float x_axisy
property float x_axisz
property float y_axisx
property float y_axisy
property float y_axisz
property float z_axisx
property float z_axisy
property float z_axisz
property float focal
property float scalex
property float scaley
property float centerx
property float centery
property int viewportx
property int viewporty
property float k1
property float k2
end_header
-0.058726646 0.024860563 0.19105403
-0.059293181 0.022034416 0.19288084
-0.060160462 0.01906376 0.1946305
-0.060838204 0.016100479 0.19640927
-0.060719669 0.013450805 0.19800423
-0.055018891 0.029529745 0.18723285
-0.055662885 0.027837789 0.1881234
-0.055857584 0.025219759 0.18933326
-0.055692747 0.022614071 0.19082621
-0.056635544 0.01975251 0.19335164
-0.057795696 0.016511928 0.19563036
-0.058829512 0.013134763 0.19763611
-0.058871374 0.010133079 0.19897813
-0.057770204 0.0066625103 0.20156503
-0.051616747 0.032346424 0.18509321
-0.052070495 0.030686338 0.18594626
-0.052286398 0.028398575 0.18678693
-0.052439149 0.025874062 0.18798909
-0.052033029 0.023098985 0.19014156
-0.05284024 0.020022072 0.19315714
-0.053514633 0.017000744 0.19504939
-0.054790989 0.014161813 0.19683301
-0.055859238 0.010539856 0.19949861
-0.054746788 0.0040626172 0.20305939
-0.053320665 -0.0018592766 0.20316254
-0.052289397 -0.0059673274 0.20406601
-0.049528919 0.033203557 0.18411294
-0.049395137 0.031066462 0.18526742
-0.049153224 0.028837476 0.18648216
-0.049190816 0.02634453 0.1883429
-0.049179096 0.023462553 0.19096175
-0.049366813 0.020387944 0.19354229
-0.049651101 0.017661829 0.19541901
-0.05077707 0.014651492 0.19753017
-0.051928021 0.010585994 0.20017719
-0.050178636 0.0019070302 0.20058694
-0.049530018 -0.0038287099 0.20129505
-0.049692247 -0.0067529273 0.20411712
-0.050685938 -0.008746027 0.20551655
-0.052499723 -0.0095080817 0.20657048
-0.04712129 0.035687011 0.18313427
-0.046890087 0.033922724 0.1840217
-0.046637714 0.031690929 0.18548521
-0.046457842 0.029585943 0.18717884
-0.046454746 0.027145423 0.18898542
-0.046542168 0.024189515 0.19081517
-0.04658138 0.020854481 0.19358698
-0.046681784 0.018104093 0.19516872
-0.047037076 0.015161865 0.19763818
-0.046786387 0.0092038792 0.199983
-0.047065925 0.0024831467 0.19892308
-0.046451215 -0.0039549624 0.20055772
-0.046925258 -0.0059085554 0.20456646
-0.04815042 -0.0075087543 0.20641445
-0.050915848 -0.0097956676 0.2076911
-0.053513143 -0.011881978 0.21105437
-0.055076543 -0.012876598 0.21564013
-0.05568533 -0.014255205 0.21927209
-0.045072816 0.036857225 0.18264511
-0.044466164 0.034593608 0.18415795
-0.044105031 0.032481376 0.18577237
-0.044075988 0.030449232 0.18742654
-0.044373486 0.028092993 0.18909821
-0.044057403 0.024915975 0.19100082
-0.043588758 0.021021085 0.19294041
-0.04362021 0.017924929 0.19452083
-0.043763973 0.015052281 0.19725424
-0.043660503 0.010107356 0.19907057
-0.043637268 0.0030639782 0.19803217
-0.043364532 -0.0021774662 0.1995434
-0.043669369 -0.0046308716 0.20401359
-0.04457603 -0.0069853789 0.20673551
-0.047838397 -0.0098528592 0.20910169
-0.05102583 -0.01139109 0.21259119
-0.052637573 -0.012726308 0.21665473
-0.053945672 -0.014378179 0.22008474
-0.053744402 -0.016226031 0.22458583
-0.052886549 -0.01804431 0.22801442
-0.042902801 0.040126547 0.18061274
-0.042648423 0.038256105 0.18213512
-0.042054079 0.035723656 0.18386881
-0.041552093 0.033595521 0.18554941
-0.041291341 0.031525169 0.18752098
-0.041380264 0.028791038 0.18943971
-0.041015401 0.02549657 0.19091167
-0.040440168 0.021230616 0.19255634
-0.04025992 0.017992841 0.19426669
-0.039989389 0.014978392 0.19637147
-0.040474273 0.010341474 0.1983857
-0.040725298 0.0039317878 0.19825238
-0.040113691 -0.00083152612 0.19967982
-0.040364932 -0.0034376171 0.20273478
-0.041622888 -0.0060036294 0.20769024
-0.044915754 -0.0099238679 0.21027555
-0.048380874 -0.011220209 0.21360579
-0.049505007 -0.012578302 0.21758211
-0.050528239 -0.014764741 0.22109777
-0.05018466 -0.017158628 0.22456971
-0.050320588 -0.019800188 0.22738209
-0.049864039 -0.021956444 0.22938816
-0.039264593 0.041336972 0.17995383
-0.039105933 0.039718255 0.1813568
-0.038734466 0.037186101 0.18316536
-0.038514756 0.034531292 0.18521339
-0.037336081 0.031500094 0.18760957
-0.036990602 0.028210465 0.1896254
-0.037146751 0.025297906 0.19115239
-0.037198246 0.021765547 0.19307202
-0.037140049 0.018579701 0.19541726
-0.037296165 0.015038868 0.19760633
-0.037937332 0.010364341 0.19903025
-0.03811067 0.0044785803 0.19898529
-0.03821804 0.00084820128 0.20020571
-0.037992578 -0.0023311644 0.20316461
-0.039316669 -0.0054904288 0.2085292
-0.042713713 -0.0096840393 0.2123082
-0.044740301 -0.011236064 0.21459077
-0.045878209 -0.012862074 0.21847726
-0.046434615 -0.015596513 0.22162208
-0.046189215 -0.018714966 0.22421795
-0.046184182 -0.02146334 0.22632717
-0.046309453 -0.023785107 0.22862829
-0.034055118 0.042831037 0.17928092
-0.034090728 0.041228257 0.18058905
-0.033914577 0.03874258 0.18257426
-0.033380896 0.034716189 0.18604416
-0.033459913 0.031030672 0.1885934
-0.033227928 0.028061492 0.19051237
-0.033157028 0.025105245 0.19225506
-0.033314414 0.022205586 0.19425431
-0.034213688 0.019250771 0.19691837
-0.034860708 0.015463739 0.19909577
-0.035315376 0.010842912 0.20036215
-0.035754673 0.0047623808 0.20054878
-0.036068812 0.0013285928 0.20210041
-0.036378149 -0.001528593 0.20519353
-0.038430378 -0.0051447735 0.20993927
-0.040665627 -0.008273554 0.21413055
-0.042337399 -0.011094561 0.21637778
-0.042964663 -0.013440815 0.21915397
-0.042789619 -0.017065229 0.22143865
-0.042403765 -0.020403722 0.2237265
-0.042323172 -0.022898588 0.22562568
-0.042470597 -0.025026659 0.22814171
-0.029215429 0.043616779 0.17971838
-0.028860603 0.042021383 0.18104129
-0.028860461 0.039585825 0.18328297
-0.029469123 0.035005484 0.18750277
-0.030190922 0.031072024 0.18993284
-0.030045558 0.028077669 0.19163103
-0.029909214 0.025308661 0.19326375
-0.029685168 0.022654975 0.19522722
-0.030127013 0.019706432 0.19868302
-0.03187532 0.016394805 0.20131139
-0.03299927 0.010137906 0.20213483
-0.033230625 0.0051676161 0.20293657
-0.033220254 0.0021597517 0.2054079
-0.03409924 -0.00065835693 0.20822957
-0.035359818 -0.0041759214 0.21240301
-0.037115391 -0.0078152595 0.21581708
-0.039076462 -0.011611282 0.21774282
-0.040476274 -0.015274225 0.22044078
-0.03933328 -0.018765843 0.22118187
-0.038732633 -0.020928076 0.22376543
-0.038460221 -0.023342501 0.22606315
-0.037802003 -0.025900282 0.22962597
-0.03629167 -0.027766345 0.23225951
-0.025026724 0.043893311 0.18105029
-0.025041105 0.042324662 0.18227655
-0.024838513 0.039709993 0.18413112
-0.025627451 0.03644624 0.18721771
-0.027129786 0.031534765 0.19032152
-0.027094048 0.028408501 0.1925543
-0.026775688 0.02586928 0.19434303
-0.026543353 0.023149258 0.19694898
-0.026391765 0.020551497 0.19954199
-0.028404681 0.017183883 0.20184098
-0.029751899 0.012132171 0.20409742
-0.029873949 0.0075336145 0.20529066
-0.030285021 0.0040601101 0.20757023
-0.031071384 0.0010042846 0.21098247
-0.032346714 -0.0026723561 0.21401462
-0.033544894 -0.0067705754 0.21747163
-0.035064626 -0.011471009 0.2198628
-0.03620404 -0.015965234 0.2217968
-0.035212707 -0.018633123 0.22244391
-0.034155812 -0.021203212 0.22553416
-0.033344477 -0.023799136 0.22767377
-0.033009663 -0.026249405 0.22978905
-0.032263365 -0.02915035 0.23072623
-0.021890914 0.044211727 0.18179113
-0.021635247 0.042571574 0.18286721
-0.021590237 0.039930183 0.18436761
-0.021532103 0.037419841 0.18622485
-0.023185913 0.032626271 0.190354
-0.023802651 0.029341867 0.19318025
-0.023625797 0.026923344 0.19545901
-0.023133224 0.02437209 0.19831698
-0.023530087 0.021031888 0.20100196
-0.025326401 0.017307516 0.20280756
-0.026145145 0.013123306 0.20559193
-0.026270675 0.0096031697 0.20736776
-0.026981778 0.00580882 0.20956688
-0.027874757 0.0024368505 0.21298638
-0.029401932 -0.0014209899 0.21582322
-0.030017301 -0.0053699561 0.21882932
-0.030651584 -0.010942027 0.22122093
-0.03145149 -0.01613869 0.22423239
-0.031271111 -0.019267607 0.22624107
-0.03017916 -0.021632137 0.22837603
-0.029279204 -0.023657629 0.22881216
-0.028945265 -0.025902012 0.22993141
-0.028684709 -0.029089762 0.23152037
-0.01884079 0.042371992 0.1836725
-0.018326994 0.040034175 0.185188
-0.01837717 0.037276492 0.18666887
-0.019247876 0.033657279 0.19020553
-0.020368079 0.030393614 0.19376266
-0.020233963 0.027986068 0.19612646
-0.020080095 0.02550636 0.19924381
-0.020929996 0.021068456 0.2020721
-0.022249948 0.017319448 0.20429559
-0.022762885 0.01378423 0.20677605
-0.023079017 0.0106539 0.20885615
-0.023610638 0.0073163966 0.2114346
-0.024440395 0.0036893631 0.21448514
-0.025871255 -0.0009508896 0.21795596
-0.026148323 -0.0049403617 0.2204783
-0.026558703 -0.010006633 0.22243801
-0.02733114 -0.015011786 0.22538388
-0.027533513 -0.018342117 0.22747894
-0.026578631 -0.020806339 0.2292244
-0.025464278 -0.022712152 0.22930771
-0.025229773 -0.02534033 0.22970235
-0.025008993 -0.029157611 0.2332117
-0.015362103 0.040320974 0.18579873
-0.01528201 0.037518971 0.18734269
-0.015976457 0.034028832 0.19022505
-0.016648304 0.031168381 0.19396186
-0.016646724 0.028818555 0.19678444
-0.016628152 0.026367042 0.20138723
-0.018025143 0.021424748 0.20501445
-0.018476252 0.017675044 0.20645165
-0.019171806 0.014336491 0.20760407
-0.019688342 0.011676931 0.20975432
-0.019759212 0.00837739 0.21311149
-0.019239029 0.0055417102 0.21560371
-0.020306313 0.00094077905 0.21895877
-0.022526938 -0.0048380415 0.22217245
-0.023391096 -0.01017846 0.22474645
-0.023413612 -0.01394871 0.22612859
-0.023598559 -0.017359762 0.22761919
-0.023216818 -0.019940769 0.22934899
-0.022324571 -0.022134354 0.22931428
-0.021832014 -0.025028415 0.23066859
-0.020906251 -0.029512741 0.23632416
-0.012608022 0.03753702 0.18829885
-0.012541798 0.034848716 0.19054309
-0.012836087 0.032040346 0.19387397
-0.012697658 0.029694481 0.19694151
-0.013150281 0.026399883 0.20150606
-0.014251256 0.022289127 0.20591831
-0.014525794 0.018974811 0.20804995
-0.014918965 0.015610777 0.20957012
-0.01608393 0.012295014 0.21143261
-0.015741335 0.0090677757 0.21419707
-0.015565672 0.0061487863 0.2164665
-0.015028663 0.0029414727 0.21916744
-0.018599968 -0.0041783345 0.22405726
-0.019726092 -0.0091169141 0.22596581
-0.019826982 -0.012377662 0.22664262
-0.019082049 -0.01511035 0.22712691
-0.018816698 -0.018286562 0.2284546
-0.018632453 -0.021580948 0.22930717
-0.017703077 -0.025186643 0.23322569
-0.016755886 -0.029470719 0.23905233
-0.010148169 0.034564726 0.19146843
-0.0093724374 0.03251633 0.19435026
-0.0089825746 0.030198159 0.19766656
-0.0091453865 0.026133316 0.20198213
-0.010059348 0.022919195 0.20630439
-0.010409191 0.01994504 0.20902215
-0.010683658 0.016317906 0.21095075
-0.012020561 0.013015158 0.21264571
-0.011716247 0.0095093781 0.21467103
-0.011351506 0.0062902067 0.21756154
-0.010819395 0.0032341923 0.22019441
-0.011298987 -0.0011337767 0.22322181
-0.014356459 -0.0075096525 0.2264111
-0.014388116 -0.01068427 0.22689258
-0.014133901 -0.014003842 0.22817935
-0.014508039 -0.017932016 0.23013762
-0.014677211 -0.021367593 0.2314678
-0.013786903 -0.024742922 0.2360262
-0.01326166 -0.028660193 0.24089991
-0.0058917645 0.03243871 0.19666475
-0.0055869687 0.029915489 0.1998273
-0.0053748554 0.02562567 0.20435816
-0.0060680062 0.022813808 0.20696804
-0.0064646392 0.020260954 0.2091819
-0.006942471 0.016433284 0.21152724
-0.0076815342 0.012870554 0.21317093
-0.007918193 0.0097031305 0.21511608
-0.0074863574 0.0067635784 0.21794415
-0.0073937597 0.0034413235 0.2205144
-0.0069069513 -0.00037045052 0.22296894
-0.0075358818 -0.0057490505 0.2259872
-0.0086633107 -0.010379345 0.22752301
-0.009737323 -0.014274635 0.22912103
-0.010417492 -0.017945802 0.23105946
-0.010690133 -0.021017691 0.23334117
-0.010697771 -0.023657437 0.23587348
-0.0033125493 0.031686835 0.19895299
-0.002452387 0.02912748 0.20140044
-0.0021824127 0.025800722 0.20506309
-0.0024594367 0.022968626 0.20731582
-0.0028017387 0.020345105 0.20915437
-0.0036808841 0.016488366 0.21187203
-0.0040389299 0.012994606 0.21365529
-0.0042438381 0.0098469444 0.21567202
-0.0040998445 0.0071266023 0.2178635
-0.0037568433 0.0036198006 0.21994436
-0.003470717 -0.00079415669 0.22342616
-0.0032031666 -0.0050734291 0.22516905
-0.004820961 -0.010170975 0.22766899
-0.0056666289 -0.014027932 0.22885773
-0.0068773795 -0.017605366 0.23067574
0.00061403 0.028170975 0.20308019
0.00088422891 0.025796335 0.20557787
0.00055004563 0.022978123 0.20759986
0.00049336738 0.020026507 0.20932958
-0.0001116245 0.016403796 0.21123849
-0.0002252744 0.013145474 0.21332616
-0.00024879936 0.010435683 0.21555214
-0.00033489033 0.0074457568 0.21763286
-0.00013975291 0.0039912849 0.21908146
1.4058081e-05 -0.00028526751 0.22240165
0.00068465836 -0.0046320688 0.224526
-0.001075497 -0.0093246782 0.22734119
-0.0032515225 -0.013094488 0.22886096
0.003359938 0.025415484 0.2065087
0.0036368326 0.022992168 0.20773669
0.0038414786 0.020039499 0.20918192
0.0035219637 0.016286239 0.21094865
0.0034404765 0.013091211 0.21282041
0.0033573997 0.010455734 0.2148155
0.0028439581 0.0073445383 0.21762694
0.0025361255 0.00454946 0.21917064
0.0022897883 0.00011916735 0.2217977
0.0026630496 -0.0031776791 0.22381894
0.0053323968 0.022867998 0.20799091
0.0057226471 0.019371208 0.20937349
0.0059676617 0.016234843 0.21089862
0.0055027483 0.012893302 0.21307456
0 0 0 1 0 0 0 1 0 0 0 1 0 0 0 0 0 354 1 0 0
