ply
format ascii 1.0
comment PCL generated
element vertex 354
property float x
property float y
property float z
element camera 1
property float view_px
property float view_py
property float view_pz
property float x_axisx
property float x_axisy
property float x_axisz
property float y_axisx
property float y_axisy
property float y_axisz
property float z_axisx
property float z_axisy
property float z_axisz
property float focal
property float scalex
property float scaley
property float centerx
property float centery
property int viewportx
property int viewporty
property float k1
property float k2
end_header
-0.05822479 0.025141515 0.19085503
-0.058936153 0.022252234 0.1927312
-0.05990665 0.019088861 0.19445834
-0.060602162 0.015977917 0.19635655
-0.060490113 0.01334725 0.19809259
-0.054198276 0.029458957 0.1865302
-0.054953214 0.02789727 0.18762974
-0.055313047 0.02539123 0.18911262
-0.055339776 0.022801511 0.19072197
-0.056404814 0.019814158 0.19312645
-0.057626002 0.016388353 0.19539009
-0.058632974 0.012999783 0.19765006
-0.058609437 0.010066537 0.19959386
-0.05744062 0.0067616175 0.20248352
-0.050597474 0.031626761 0.18368241
-0.051148467 0.030205168 0.18483301
-0.051534995 0.028103769 0.18607949
-0.051779069 0.025829438 0.18768658
-0.05166661 0.023220697 0.19005865
-0.052619684 0.019990446 0.19284962
-0.053350661 0.016877314 0.19461568
-0.054630186 0.014038728 0.19707802
-0.055607475 0.010487895 0.20009859
-0.054367416 0.0042228028 0.20413007
-0.05299627 -0.001699484 0.20428213
-0.052046176 -0.0058023632 0.20513807
-0.048483599 0.032156449 0.18245357
-0.048449043 0.030225117 0.18391971
-0.048358813 0.028193641 0.18551019
-0.04849622 0.02600015 0.18772571
-0.048769254 0.023372192 0.19061388
-0.049154267 0.020245155 0.1931494
-0.049497969 0.01749235 0.19494058
-0.050655015 0.014639056 0.1977748
-0.051695649 0.010612226 0.20075677
-0.049857616 0.001972998 0.20165367
-0.049322847 -0.0037255224 0.20227602
-0.049484722 -0.0066333008 0.20508699
-0.050517689 -0.0085838558 0.20647179
-0.052353747 -0.0093057081 0.20752041
-0.04605297 0.034570716 0.18135644
-0.045898013 0.03279309 0.18233396
-0.045695618 0.030689184 0.18397614
-0.045625713 0.028753696 0.18590964
-0.045767024 0.026534617 0.18795648
-0.046147328 0.023817342 0.19012959
-0.046415143 0.020691525 0.19316365
-0.046559822 0.017950501 0.19477795
-0.046899326 0.015175732 0.19792488
-0.046541236 0.0091895843 0.20053053
-0.046830051 0.0024530322 0.19985349
-0.046272594 -0.0039317482 0.20141686
-0.04668209 -0.0058541344 0.20543854
-0.047940839 -0.0073940638 0.20731823
-0.050788146 -0.0096023148 0.20860979
-0.053416733 -0.011611274 0.21199332
-0.054985773 -0.012398148 0.21673347
-0.05558183 -0.013685299 0.22042939
-0.044063877 0.035789896 0.18096994
-0.043491427 0.033524428 0.18255149
-0.043203238 0.03144994 0.18423301
-0.043269675 0.029518217 0.18598445
-0.043698814 0.027332051 0.18785687
-0.04367137 0.024438154 0.19016165
-0.043458913 0.02082631 0.19256537
-0.043520458 0.01778781 0.19423841
-0.043620091 0.015024139 0.19756627
-0.043443877 0.01005705 0.19951557
-0.043459553 0.0030033062 0.19878092
-0.043191422 -0.0022222337 0.20027563
-0.043387394 -0.0046496578 0.2047611
-0.044335101 -0.0069373585 0.20756093
-0.047716439 -0.0096831275 0.21000399
-0.050918352 -0.011138715 0.21351258
-0.052541282 -0.012256902 0.21773675
-0.053834733 -0.013825388 0.2212375
-0.053577986 -0.015828628 0.22567646
-0.052710868 -0.017905226 0.22892483
-0.042012032 0.03936566 0.17923789
-0.041754477 0.037426695 0.18070935
-0.041164361 0.034808826 0.18243533
-0.040723167 0.032632787 0.18412296
-0.04058538 0.03057937 0.18608214
-0.040843915 0.028028244 0.18823223
-0.040676773 0.025027581 0.19014497
-0.040342379 0.02104542 0.19224826
-0.040222503 0.017917378 0.19421385
-0.039833527 0.014908682 0.19668709
-0.040245157 0.010288423 0.19885637
-0.040528506 0.0038556182 0.19882019
-0.039932109 -0.00091196533 0.20018534
-0.040081076 -0.0035082975 0.20329294
-0.041320268 -0.0060061775 0.20842978
-0.044795655 -0.0097761983 0.21116829
-0.048268665 -0.01098943 0.21450987
-0.049405649 -0.012133716 0.218647
-0.050406989 -0.01427282 0.22223788
-0.050023545 -0.016898474 0.22555096
-0.050156701 -0.019678188 0.2282269
-0.049703952 -0.021898517 0.23016135
-0.038524162 0.040807713 0.17899901
-0.03838516 0.039172325 0.18035577
-0.038023856 0.036573205 0.18208948
-0.037844829 0.033822533 0.18408212
-0.0369711 0.030939659 0.18686351
-0.036826544 0.02792158 0.18929045
-0.037056081 0.02511647 0.19097811
-0.037191998 0.021674406 0.19300917
-0.037075929 0.01850481 0.19543608
-0.037059873 0.014948628 0.19774891
-0.037659168 0.01029299 0.19938247
-0.037877999 0.0043845223 0.19937776
-0.037989754 0.00075715501 0.20057513
-0.037687149 -0.0024155637 0.20354812
-0.03913594 -0.0055009504 0.20917359
-0.04263996 -0.0095502967 0.21323267
-0.044630382 -0.011040555 0.21547663
-0.045785539 -0.012464412 0.21953358
-0.046307709 -0.015228393 0.22270627
-0.046041198 -0.018506343 0.2251554
-0.046035703 -0.021364076 0.22711881
-0.046143945 -0.023797819 0.22930501
-0.033607207 0.04256076 0.17890267
-0.033669017 0.040958546 0.18019399
-0.033524681 0.038477182 0.18214825
-0.033174966 0.034457374 0.18575457
-0.033399269 0.0308915 0.18856481
-0.033261951 0.028050913 0.1906939
-0.033273205 0.025183849 0.19258241
-0.033469096 0.022306349 0.19459257
-0.034095049 0.019093867 0.1968402
-0.034534156 0.015346208 0.19906603
-0.034961503 0.010778929 0.200479
-0.035484768 0.0046535092 0.20081222
-0.035785232 0.0012355632 0.20237117
-0.036077533 -0.0016065935 0.20548299
-0.038411032 -0.0051224073 0.21050532
-0.040646203 -0.0082405759 0.21504112
-0.04224902 -0.0110232 0.21734956
-0.04288834 -0.013203473 0.22033705
-0.042626858 -0.016749773 0.22254214
-0.042218082 -0.020306163 0.22455661
-0.042119268 -0.02294293 0.22627038
-0.042249724 -0.025165472 0.22868599
-0.028941067 0.043286692 0.17944008
-0.028633801 0.04170708 0.18077849
-0.028673002 0.039289575 0.18302856
-0.029434247 0.034856644 0.18745096
-0.03024737 0.031084746 0.19012019
-0.030184932 0.028165698 0.19196905
-0.030091513 0.02545636 0.19375055
-0.029933039 0.022855438 0.19579461
-0.030158456 0.019717796 0.19897604
-0.031468049 0.016297162 0.20111659
-0.032574736 0.010012259 0.20211986
-0.032975152 0.0050622923 0.20310752
-0.033036448 0.0021087225 0.20554949
-0.034027755 -0.00074071053 0.20838368
-0.035380743 -0.0041807028 0.21273579
-0.037065666 -0.0078287506 0.21641973
-0.038958311 -0.011640147 0.21851394
-0.04037153 -0.015124049 0.22151686
-0.039177991 -0.018709084 0.22203083
-0.038499322 -0.021037644 0.22438711
-0.03819757 -0.023533385 0.2265417
-0.037496932 -0.026197111 0.22999038
-0.03597834 -0.02810636 0.23256427
-0.02482434 0.04343681 0.18073305
-0.024858629 0.041884322 0.1819655
-0.024714125 0.039265361 0.18383579
-0.025568055 0.036089323 0.18695739
-0.027211342 0.031522267 0.19054095
-0.02723808 0.028471256 0.1929348
-0.026979325 0.025955109 0.19478728
-0.026782345 0.023264892 0.19750509
-0.026651438 0.02073184 0.20012487
-0.028450366 0.017263552 0.20206937
-0.029777514 0.012156529 0.20432718
-0.029885534 0.0075605935 0.20544799
-0.030261558 0.0040115644 0.2076007
-0.031002995 0.00086545426 0.21097998
-0.032288063 -0.0027444598 0.2141359
-0.033440538 -0.0068233917 0.21772502
-0.034918513 -0.011491657 0.22051038
-0.036011022 -0.01603948 0.22246855
-0.034977842 -0.018792477 0.22295006
-0.033832915 -0.021439303 0.22589611
-0.033089276 -0.023995956 0.22807565
-0.032811366 -0.026361976 0.23035648
-0.032223206 -0.029050838 0.231672
-0.0217514 0.043728929 0.18151723
-0.021539578 0.042106953 0.18262036
-0.02153842 0.03949498 0.18416451
-0.021528669 0.037043225 0.18607788
-0.023233943 0.032424081 0.19044881
-0.023878507 0.029233426 0.19346116
-0.023735642 0.026837047 0.19579817
-0.023261329 0.024320973 0.19869275
-0.023711018 0.021156199 0.20145676
-0.025496397 0.017541079 0.20316382
-0.026093079 0.013310537 0.20574525
-0.026098957 0.0096486798 0.20727617
-0.026712965 0.00561187 0.20917082
-0.027734999 0.0022180791 0.21284902
-0.029274095 -0.0015837876 0.21574061
-0.029851371 -0.0055138473 0.21875104
-0.030366654 -0.011089172 0.22124927
-0.031002363 -0.016422203 0.2241672
-0.030910097 -0.019490203 0.22629572
-0.029954094 -0.021642234 0.22866622
-0.02917582 -0.023527833 0.22955586
-0.028954199 -0.025621517 0.2310764
-0.028825587 -0.028697362 0.23296298
-0.018821029 0.041999545 0.18356965
-0.018367242 0.03973278 0.185158
-0.01842341 0.037033442 0.18670613
-0.019289695 0.03342735 0.19024959
-0.020346116 0.030070994 0.19379279
-0.02022339 0.027680945 0.19620197
-0.020085676 0.025237864 0.19939451
-0.021042136 0.021140778 0.20228352
-0.022310462 0.017457461 0.20440248
-0.022722119 0.013863381 0.20679031
-0.022914473 0.010598104 0.20871241
-0.023314554 0.0070578186 0.21107914
-0.024069374 0.0032191025 0.21387842
-0.025520444 -0.0014200197 0.21734689
-0.025769381 -0.00522544 0.22000073
-0.026145255 -0.010076937 0.2222093
-0.026961798 -0.015128286 0.22535831
-0.027285051 -0.01841197 0.22764769
-0.026445607 -0.020708865 0.22968224
-0.025371086 -0.022652786 0.23008873
-0.025267057 -0.025267147 0.23085062
-0.025122857 -0.028837673 0.23458198
-0.015457629 0.040141378 0.18592913
-0.015370587 0.037369676 0.18751059
-0.016040107 0.033890568 0.19032265
-0.016596148 0.030861678 0.19388375
-0.016582554 0.028452529 0.1966847
-0.016485836 0.026023732 0.20116059
-0.01786048 0.021349786 0.20462364
-0.018351853 0.017584983 0.20610012
-0.019089477 0.014278163 0.20737804
-0.019536501 0.01146339 0.20939191
-0.019465422 0.0080153905 0.21257466
-0.019001665 0.0052475627 0.2151279
-0.020056659 0.00069699925 0.21849468
-0.022110449 -0.005011416 0.22174789
-0.023034003 -0.010101501 0.22466782
-0.023145681 -0.013894191 0.22636274
-0.023426665 -0.017318156 0.22805953
-0.023093063 -0.019875182 0.22993737
-0.022207338 -0.022178845 0.23017785
-0.021820065 -0.024997402 0.23178612
-0.021019407 -0.029275063 0.23751286
-0.012720057 0.037428781 0.18855076
-0.012650573 0.034757476 0.19071525
-0.012917469 0.031928703 0.19393438
-0.012747373 0.029516611 0.1969243
-0.013096223 0.026327284 0.20134024
-0.014037582 0.022273025 0.20550297
-0.014286011 0.018874148 0.20742065
-0.014670323 0.015431674 0.20887919
-0.015873041 0.011951954 0.21083675
-0.015510787 0.0087405555 0.21361747
-0.01535005 0.0059023844 0.21605071
-0.014908322 0.0028194443 0.21891111
-0.01824175 -0.0042213947 0.22378339
-0.019441536 -0.0090411175 0.22613262
-0.019619308 -0.012304658 0.22717218
-0.018984906 -0.015113274 0.22820129
-0.018825114 -0.018285086 0.22976866
-0.018599961 -0.021537809 0.23057576
-0.017698105 -0.025206471 0.23430346
-0.0168768 -0.029429201 0.24008729
-0.010341721 0.034572706 0.19164626
-0.0095649408 0.032525372 0.19446461
-0.0091265729 0.030161019 0.19775207
-0.0092202555 0.026242441 0.20191543
-0.0099628307 0.022988258 0.20607965
-0.010268422 0.019937815 0.20862052
-0.010539532 0.016256716 0.21041815
-0.011837584 0.012715601 0.21206206
-0.011519799 0.0092324065 0.2141474
-0.011198645 0.0060965293 0.21720099
-0.010670734 0.0032544429 0.22008316
-0.011145627 -0.00099784369 0.22330992
-0.014134709 -0.0075370688 0.22692326
-0.0142167 -0.01074046 0.22785451
-0.01412103 -0.01407741 0.2295734
-0.014593695 -0.017933495 0.23166378
-0.014760063 -0.021335186 0.23291984
-0.013788026 -0.024937803 0.23692511
-0.013366342 -0.028725134 0.24180868
-0.0060902899 0.032486469 0.19679222
-0.0057666553 0.029951163 0.19983894
-0.0055198506 0.025655264 0.20395546
-0.0060779499 0.022810586 0.20661184
-0.0064130668 0.02026597 0.20886712
-0.0068842038 0.016468879 0.21123461
-0.0075777979 0.012751034 0.212796
-0.0077501973 0.0095379762 0.21468766
-0.0073338402 0.0066398396 0.21764217
-0.0072530019 0.003520712 0.22042528
-0.0068053142 -0.0003811543 0.22301535
-0.0074719838 -0.005946165 0.22606888
-0.0085990671 -0.010572909 0.22844629
-0.0097520053 -0.014361804 0.23057315
-0.010489335 -0.017931519 0.23261592
-0.010797617 -0.02095861 0.23480235
-0.010724975 -0.023808267 0.23691593
-0.003528537 0.031724364 0.19897039
-0.0027114684 0.02910006 0.20096375
-0.0023470616 0.025513511 0.20412546
-0.0025518094 0.022609638 0.20626886
-0.0028345357 0.020079616 0.20835312
-0.0036123039 0.016469736 0.21143334
-0.0039660041 0.012998632 0.21332678
-0.0041045705 0.0097687524 0.21530329
-0.0039479327 0.0069893328 0.21749282
-0.0036376538 0.0035736731 0.21978472
-0.0033815922 -0.00095375784 0.22321364
-0.0031816354 -0.005395676 0.22484894
-0.0048087435 -0.01047902 0.22817509
-0.0056760111 -0.01418964 0.2301714
-0.0069278856 -0.017599022 0.23232585
0.00033567424 0.0277497 0.20186827
0.00072851364 0.025175214 0.20407797
0.00042518097 0.02231127 0.20606264
0.00043829877 0.019530851 0.20813306
-0.0001285586 0.016185222 0.21051292
-0.00020302758 0.0130094 0.21272071
-0.00012076691 0.010284944 0.21492358
-0.00017140979 0.007212779 0.21698901
-1.9783332e-05 0.0037586242 0.21863411
8.441617e-05 -0.00060243474 0.22194199
0.00070084614 -0.0050950553 0.22397535
-0.0010730724 -0.0097098229 0.22727585
-0.003272722 -0.01333046 0.22987114
0.0032295785 0.024518391 0.20454022
0.0034877991 0.022056054 0.20576803
0.0037223233 0.019296896 0.20757116
0.0034428278 0.015911253 0.20994486
0.0034275115 0.012849759 0.21196604
0.0034384101 0.010279072 0.21396747
0.0030253294 0.0070971451 0.21676658
0.0027093168 0.0042504962 0.21837951
0.0023278235 -0.00030468244 0.22119881
0.0026735736 -0.0036582716 0.2232013
0.0051736617 0.02181321 0.2057898
0.0055832891 0.018669622 0.20781353
0.0058698966 0.015837302 0.2097974
0.0054804613 0.012603045 0.21213549
0 0 0 1 0 0 0 1 0 0 0 1 0 0 0 0 0 354 1 0 0
