ply
format ascii 1.0
comment PCL generated
element vertex 354
property float x
property float y
property float z
element camera 1
property float view_px
property float view_py
property float view_pz
property float x_axisx
property float x_axisy
property float x_axisz
property float y_axisx
property float y_axisy
property float y_axisz
property float z_axisx
property float z_axisy
property float z_axisz
property float focal
property float scalex
property float scaley
property float centerx
property float centery
property int viewportx
property int viewporty
property float k1
property float k2
end_header
-0.0584842 0.025119809 0.19203025
-0.059121713 0.022057455 0.19361721
-0.059952032 0.018640317 0.19462764
-0.060584269 0.015341645 0.19586195
-0.060556881 0.012705121 0.19745985
-0.054627538 0.029365893 0.18745144
-0.055338938 0.027892185 0.18867826
-0.055630967 0.025427707 0.19023298
-0.055543888 0.022789504 0.19174846
-0.056520186 0.019602953 0.19383661
-0.057616793 0.015944008 0.19545782
-0.058641449 0.012456739 0.19727252
-0.058692895 0.0095105711 0.1987426
-0.05771507 0.0062634991 0.20166512
-0.051066454 0.03115491 0.18418467
-0.051596168 0.029864667 0.18548842
-0.052021746 0.027919799 0.18694103
-0.052221145 0.025822666 0.18876104
-0.051876176 0.02335695 0.19125068
-0.052700333 0.019927638 0.1938519
-0.053384446 0.016695715 0.19534874
-0.05465265 0.013641418 0.19679649
-0.055762623 0.010014454 0.19955423
-0.05476328 0.0039376486 0.20348939
-0.053261302 -0.0018544113 0.20397693
-0.052216262 -0.0058271731 0.20520596
-0.048954476 0.03158626 0.18288913
-0.048906401 0.029757649 0.18445332
-0.048825908 0.027884465 0.18627745
-0.048946582 0.025959287 0.18877479
-0.049009345 0.023497965 0.19182701
-0.049229853 0.02025347 0.19427474
-0.04953241 0.017500727 0.19604349
-0.050697621 0.014357659 0.19792211
-0.051873099 0.010316852 0.20068148
-0.050111573 0.0018141652 0.2012662
-0.049475573 -0.0038664863 0.20225473
-0.049665496 -0.0065626162 0.20530629
-0.050753884 -0.0083914557 0.20694807
-0.052614011 -0.0090207253 0.20813289
-0.046526171 0.033955868 0.18179265
-0.046366099 0.032218449 0.18276395
-0.046165399 0.030171596 0.18447107
-0.046067625 0.028386967 0.18653542
-0.046145942 0.026330253 0.18878423
-0.046417158 0.023740644 0.19105355
-0.04648599 0.020717997 0.19416156
-0.046580538 0.01801783 0.1959058
-0.046875671 0.015097531 0.19848791
-0.046412725 0.0092195151 0.20109934
-0.046912171 0.0024761239 0.19976415
-0.046391446 -0.004004112 0.20145486
-0.046912387 -0.0057284627 0.20562613
-0.048217557 -0.0071262992 0.20766923
-0.051072367 -0.0091812871 0.20929529
-0.053641748 -0.010793296 0.21308003
-0.054949563 -0.011434301 0.21792077
-0.055367064 -0.012691426 0.22166674
-0.04450842 0.035116009 0.18133128
-0.043933373 0.032902732 0.18291034
-0.043631483 0.030893797 0.18461032
-0.043693285 0.029055089 0.18640441
-0.044050023 0.02698515 0.18846022
-0.043902237 0.024227887 0.19084436
-0.043560445 0.020743459 0.19325316
-0.04352954 0.017795695 0.19516267
-0.043548569 0.015030426 0.19822344
-0.043291405 0.010104528 0.20005512
-0.043485902 0.0030064245 0.19884402
-0.043328259 -0.0022643241 0.20026287
-0.043619357 -0.0045795119 0.20491062
-0.044642434 -0.0066650948 0.20787027
-0.047975708 -0.0091629224 0.21064231
-0.051052332 -0.010319318 0.21445636
-0.052444685 -0.011371075 0.2187681
-0.053577956 -0.012896435 0.22236955
-0.053079382 -0.015109794 0.22667991
-0.05206788 -0.017357616 0.22972149
-0.04238097 0.038557466 0.17938018
-0.042090137 0.036660794 0.18090324
-0.04152124 0.034114826 0.18265256
-0.04108553 0.031959821 0.1842954
-0.040917367 0.029932296 0.18611045
-0.04107232 0.027500113 0.1884032
-0.040870603 0.024658687 0.19045813
-0.040461667 0.020825917 0.19262436
-0.040175483 0.017851576 0.19481555
-0.039712287 0.014958107 0.19714627
-0.040128477 0.010228223 0.19906658
-0.040572215 0.0038029065 0.19896515
-0.040088117 -0.00094878272 0.20024088
-0.040283579 -0.0035405385 0.20338722
-0.041650012 -0.0057402002 0.20869452
-0.045027189 -0.009187704 0.21174447
-0.048349842 -0.010195083 0.21531609
-0.049263049 -0.011326402 0.21949664
-0.050108057 -0.013471439 0.22315595
-0.049571123 -0.016336057 0.2262564
-0.049596675 -0.019194443 0.22884852
-0.049071454 -0.021462111 0.23071215
-0.03884745 0.040058117 0.17893231
-0.038639698 0.038407128 0.18028146
-0.038232733 0.035782199 0.18201958
-0.038045604 0.033035763 0.1839879
-0.037118644 0.030240474 0.18657292
-0.036910072 0.027410788 0.18913811
-0.037144646 0.024753837 0.19099918
-0.037280269 0.021517778 0.19332625
-0.036963813 0.018573001 0.19600442
-0.036917299 0.014962251 0.1981409
-0.03751247 0.010186014 0.19952811
-0.03797695 0.0043178871 0.199624
-0.038176529 0.0007079558 0.20071031
-0.037898682 -0.0024997636 0.20361394
-0.039475173 -0.0051835109 0.20939568
-0.042867899 -0.0087785283 0.21382503
-0.04467342 -0.010250308 0.21615486
-0.045612801 -0.01171464 0.22020611
-0.046001695 -0.014570561 0.22335206
-0.045619715 -0.018043485 0.22564955
-0.045552883 -0.020977948 0.22748666
-0.045579962 -0.023474952 0.22955884
-0.033972118 0.042226467 0.17889616
-0.033985078 0.040599275 0.18018445
-0.033759877 0.038092971 0.18212767
-0.033238191 0.034008875 0.18560615
-0.03342421 0.030443871 0.18832624
-0.033268854 0.027708571 0.19058029
-0.03327715 0.024975898 0.1926641
-0.033516176 0.022288315 0.19496995
-0.033965014 0.019238666 0.19749363
-0.034376353 0.015311193 0.19943157
-0.034794666 0.010698347 0.2006647
-0.035636775 0.0045693093 0.20108789
-0.035990529 0.0011316927 0.20251738
-0.03628746 -0.0017455718 0.20548679
-0.038735732 -0.0047955438 0.21062188
-0.040754382 -0.0075145508 0.21557437
-0.042105403 -0.010339124 0.2180251
-0.042517815 -0.012655359 0.22076406
-0.042211521 -0.016260864 0.22295888
-0.041766949 -0.019995829 0.22467873
-0.041652862 -0.022730077 0.22622575
-0.041717499 -0.024996795 0.22857302
-0.029287528 0.043238807 0.17959096
-0.028952874 0.041690815 0.18096694
-0.028951544 0.039275624 0.18322945
-0.029521732 0.034668688 0.1874969
-0.030233385 0.030787837 0.19001135
-0.030149685 0.027898634 0.19190423
-0.030055499 0.025241571 0.19380181
-0.02990704 0.022727303 0.19600908
-0.030163256 0.019786697 0.19944695
-0.031329431 0.01619651 0.20157064
-0.032465834 0.0098102633 0.20233651
-0.033155188 0.0049387827 0.20332132
-0.033194393 0.0019880738 0.20549364
-0.034205563 -0.00079113495 0.20808856
-0.035505343 -0.0040193461 0.21243507
-0.036970541 -0.0075198603 0.2162765
-0.038668964 -0.011321529 0.2184906
-0.039717179 -0.015036574 0.22126906
-0.03874509 -0.018628426 0.22163703
-0.038042355 -0.021010982 0.2239483
-0.037702311 -0.023555461 0.22606029
-0.03690144 -0.026285237 0.22941202
-0.035311203 -0.028270656 0.2318553
-0.025078118 0.043388098 0.18078156
-0.025103241 0.041830935 0.18201947
-0.024911629 0.039187688 0.18384598
-0.02570169 0.036001559 0.18700926
-0.027183734 0.031262934 0.19049253
-0.02716912 0.028180644 0.19286478
-0.026901286 0.025709966 0.1947888
-0.026734741 0.023121772 0.19762588
-0.02681442 0.020706082 0.20044638
-0.028667349 0.017189411 0.20236875
-0.030014195 0.012026955 0.20444305
-0.030165069 0.0076882932 0.20556721
-0.030421462 0.0040050675 0.20740591
-0.031059979 0.00079293409 0.21049906
-0.032259367 -0.0027714248 0.21354379
-0.033174589 -0.0069075963 0.21696082
-0.034307711 -0.011717675 0.21933556
-0.035284624 -0.016339267 0.22123624
-0.034410879 -0.019043906 0.22188231
-0.033245932 -0.021690575 0.22485647
-0.032511078 -0.024257667 0.22708933
-0.032291383 -0.026581949 0.22942999
-0.031899016 -0.029057106 0.23087066
-0.021948079 0.043603402 0.18141431
-0.021702975 0.041971598 0.18250836
-0.021684414 0.039349712 0.18405671
-0.021646049 0.036913909 0.18599293
-0.023246685 0.032233696 0.19042027
-0.023774702 0.02890862 0.19332395
-0.023631841 0.026540743 0.19569315
-0.02316262 0.02410832 0.19870593
-0.023952724 0.021151125 0.20181596
-0.02599404 0.017403491 0.20346506
-0.026583197 0.01312059 0.20599644
-0.026585169 0.0096488483 0.20757324
-0.027126936 0.0056818924 0.20938426
-0.027717648 0.0020364763 0.21232472
-0.029104792 -0.0018227788 0.21486399
-0.029440388 -0.0059071076 0.21746092
-0.029643493 -0.011549747 0.21938823
-0.029912872 -0.016906308 0.22231588
-0.030141084 -0.019822806 0.2248183
-0.029516952 -0.021821564 0.22732486
-0.028884798 -0.023635216 0.22843631
-0.028767994 -0.025575882 0.23013921
-0.028754577 -0.028428493 0.23235139
-0.018973302 0.04185323 0.18341163
-0.018506771 0.039602175 0.18502814
-0.018538006 0.036940265 0.18665311
-0.019382229 0.033361439 0.19027998
-0.020286763 0.029788213 0.19367592
-0.020088783 0.027358461 0.19602798
-0.019954028 0.024955289 0.1993044
-0.021389363 0.021151083 0.2026827
-0.022823753 0.017353555 0.20466937
-0.023108128 0.013663065 0.20686422
-0.023299325 0.010526757 0.20883106
-0.023628304 0.0070584221 0.2111688
-0.024146786 0.0030676369 0.21362513
-0.025283964 -0.0017567535 0.21624151
-0.02526667 -0.0057067033 0.21833386
-0.025478709 -0.010464445 0.22037977
-0.026191467 -0.015354813 0.22396488
-0.026777713 -0.018523619 0.2264971
-0.026199209 -0.020726252 0.22868943
-0.025123494 -0.022695629 0.2291168
-0.025091229 -0.02524358 0.23000413
-0.025120232 -0.028484259 0.23409453
-0.015591749 0.040064212 0.18584499
-0.015504387 0.037328549 0.18750659
-0.016157987 0.033877268 0.19037433
-0.016603516 0.030749889 0.19385013
-0.016523458 0.02825311 0.19662175
-0.01647575 0.025858808 0.20119709
-0.018191149 0.02134921 0.20499711
-0.018665513 0.017497169 0.20624635
-0.01937519 0.014083906 0.20726518
-0.019772604 0.011261996 0.20921737
-0.019575436 0.0079217553 0.21241492
-0.018917991 0.0049960217 0.21468343
-0.019700184 0.00016941884 0.21735956
-0.021497732 -0.0054926584 0.2198644
-0.022401746 -0.010369899 0.22299737
-0.022539405 -0.014020595 0.22510254
-0.023050759 -0.017247049 0.2273958
-0.02293057 -0.019788414 0.2292148
-0.022029435 -0.02225877 0.22922526
-0.021712443 -0.024954321 0.23104919
-0.021154635 -0.028781228 0.23721503
-0.012876653 0.037440747 0.18860504
-0.012796253 0.034796055 0.19079047
-0.012979317 0.031955961 0.19401146
-0.012785545 0.029556524 0.1970194
-0.01321502 0.026381763 0.20151474
-0.014198349 0.02220914 0.20563944
-0.014385452 0.018702094 0.20741436
-0.014725268 0.01514269 0.20859019
-0.015923208 0.011691527 0.21039407
-0.015499607 0.0085664205 0.21321395
-0.015220318 0.0056703496 0.21553829
-0.014695029 0.0024910145 0.21824554
-0.017659275 -0.0045797299 0.22207887
-0.018837759 -0.0092461351 0.22454925
-0.019054465 -0.01244269 0.2257977
-0.018506683 -0.015202179 0.22711934
-0.018537279 -0.018320503 0.2288783
-0.018481845 -0.021554774 0.22981595
-0.017780345 -0.024961287 0.23383041
-0.017147774 -0.028852224 0.23983492
-0.010487273 0.034614187 0.19173321
-0.0096900351 0.032600671 0.19456716
-0.0092086205 0.030314116 0.19791844
-0.009356074 0.026397347 0.20213906
-0.010064797 0.022937868 0.20611198
-0.010272101 0.019746723 0.20847662
-0.010458596 0.015970165 0.2100727
-0.011806448 0.012533916 0.2115806
-0.011457046 0.0090646995 0.21370734
-0.011113448 0.0059571429 0.21676801
-0.01061801 0.0032162417 0.21975991
-0.011066833 -0.0009792432 0.2228485
-0.013659371 -0.0076861195 0.22569351
-0.013723235 -0.010897286 0.22673234
-0.013741754 -0.014192031 0.22870015
-0.014437256 -0.017964669 0.23095503
-0.014757306 -0.021222563 0.23239177
-0.013977299 -0.024569269 0.2366268
-0.013692823 -0.028139791 0.24166337
-0.0061899857 0.032637585 0.196933
-0.0059026033 0.030173594 0.20010422
-0.0056566717 0.025749652 0.20418547
-0.0061284523 0.022805635 0.20663741
-0.0064063556 0.020212971 0.20879398
-0.0068715471 0.016310319 0.2109703
-0.0075278585 0.012577031 0.21238533
-0.0076737227 0.0094188452 0.21437018
-0.0073035685 0.0066557713 0.21743362
-0.007294131 0.0036441854 0.22035563
-0.0068719503 -0.00024905967 0.22290781
-0.0075058765 -0.0059590852 0.22574398
-0.0083435243 -0.010716912 0.22792986
-0.009538291 -0.014462697 0.23014206
-0.010475157 -0.01794664 0.23223543
-0.010936471 -0.020873832 0.23447794
-0.010941599 -0.023519786 0.2366942
-0.0036678538 0.031956371 0.19919685
-0.0029310305 0.029379891 0.20132329
-0.0024815798 0.025617467 0.20428109
-0.0025494013 0.022608293 0.20622015
-0.0027544189 0.020114049 0.20827027
-0.0035850971 0.016403262 0.2112812
-0.0039310441 0.012889408 0.21299744
-0.0040913029 0.0097552873 0.2151017
-0.0039416999 0.0071039484 0.21744332
-0.0036618835 0.003780395 0.2199104
-0.0034586347 -0.00081528485 0.22312155
-0.0032453437 -0.0053199716 0.22466491
-0.0047475272 -0.010575133 0.22790937
-0.0055356999 -0.014286187 0.22995432
-0.0069038649 -0.017646851 0.23215544
0.00011631383 0.028023766 0.20214923
0.00062604231 0.02526127 0.2041149
0.00043079024 0.022314483 0.2059183
0.0005146779 0.019533819 0.20798586
-6.875558e-05 0.016164534 0.210353
-0.00015392902 0.01293558 0.21242803
-0.00010109225 0.010300986 0.21466674
-0.00017253128 0.0073327725 0.21694671
-2.5855097e-05 0.003978366 0.21883252
3.6985632e-05 -0.00044583832 0.2219175
0.00066628709 -0.005000798 0.2238946
-0.0010987569 -0.009681317 0.22712533
-0.0032328344 -0.013427335 0.22971846
0.0031762733 0.024574514 0.20441818
0.0034887611 0.022066129 0.20553502
0.0037752914 0.019265363 0.20732522
0.0035192559 0.015804308 0.20959699
0.0034861069 0.012734439 0.21156771
0.003473165 0.010214755 0.2136545
0.0030242649 0.0071454705 0.21660131
0.0026845273 0.0044179414 0.21846858
0.0022708743 -0.00014296772 0.22123781
0.0026203599 -0.0035102628 0.22318955
0.0051870104 0.021799948 0.20548871
0.0056398348 0.018571423 0.2074541
0.005949901 0.015625367 0.20926638
0.0055502071 0.01246349 0.21162994
0 0 0 1 0 0 0 1 0 0 0 1 0 0 0 0 0 354 1 0 0
