ply
format ascii 1.0
comment PCL generated
element vertex 354
property float x
property float y
property float z
element camera 1
property float view_px
property float view_py
property float view_pz
property float x_axisx
property float x_axisy
property float x_axisz
property float y_axisx
property float y_axisy
property float y_axisz
property float z_axisx
property float z_axisy
property float z_axisz
property float focal
property float scalex
property float scaley
property float centerx
property float centery
property int viewportx
property int viewporty
property float k1
property float k2
end_header
-0.058200657 0.025089439 0.19089696
-0.058922272 0.022218114 0.19273265
-0.059941892 0.019059522 0.19437733
-0.060707211 0.015938142 0.19622679
-0.060631331 0.013312622 0.19796418
-0.054148421 0.029346831 0.18659408
-0.054918207 0.027805153 0.18770011
-0.055278134 0.025325762 0.18920025
-0.055299211 0.02275924 0.19079129
-0.056396808 0.019779252 0.19311087
-0.05769635 0.016357139 0.19531944
-0.05875792 0.01297835 0.19755937
-0.058768589 0.010066649 0.19943272
-0.057621334 0.0067899143 0.20231967
-0.050507974 0.031472232 0.1837642
-0.051076926 0.030062936 0.18492566
-0.051486336 0.027981279 0.18620749
-0.051738761 0.025730794 0.18784906
-0.051607721 0.023153871 0.19017856
-0.052585799 0.019919386 0.19287477
-0.053363696 0.016812082 0.19460887
-0.054725431 0.013977272 0.19687398
-0.055773348 0.010482634 0.1999702
-0.054556195 0.0043072118 0.20390639
-0.053182624 -0.0015808444 0.20413308
-0.052210685 -0.0056243124 0.20514859
-0.048381671 0.031966917 0.18253727
-0.048369117 0.030063104 0.18403098
-0.048314113 0.028045276 0.18566401
-0.048463281 0.025880704 0.1879216
-0.048722897 0.023226935 0.19072138
-0.049128752 0.020132657 0.19321619
-0.049500953 0.017420178 0.19501558
-0.050702948 0.014514589 0.19752429
-0.051862173 0.010608495 0.20057471
-0.050129704 0.0020343026 0.20113502
-0.049525838 -0.00367555 0.20213081
-0.049642708 -0.006443806 0.2051066
-0.05063501 -0.0083503267 0.206653
-0.052463312 -0.0090751797 0.20773728
-0.045956384 0.034333739 0.18140173
-0.045808397 0.03257313 0.18240814
-0.045626052 0.030502914 0.18408255
-0.045588795 0.028596006 0.1860435
-0.045751944 0.026394444 0.18811169
-0.046133172 0.023670575 0.1902367
-0.04642107 0.020599073 0.19326662
-0.04656845 0.017906209 0.19494078
-0.046933297 0.01513286 0.19782238
-0.046680804 0.0092168627 0.20003924
-0.047120325 0.0025610689 0.19912468
-0.04647148 -0.0038872936 0.20117138
-0.046842068 -0.0056544053 0.20535478
-0.048090756 -0.0070917071 0.20741875
-0.05092651 -0.0092817182 0.20889224
-0.053614013 -0.011115923 0.21247318
-0.055179637 -0.012113867 0.21696083
-0.055810653 -0.013426602 0.22064383
-0.043998487 0.035548754 0.18099169
-0.043425579 0.033304472 0.1826067
-0.043162387 0.031250697 0.18432762
-0.043265834 0.029341925 0.18610039
-0.043713365 0.027188396 0.1879881
-0.043687928 0.024322415 0.19029847
-0.043461449 0.020756591 0.19273339
-0.04352206 0.017767018 0.19448495
-0.043634035 0.015050222 0.19761097
-0.043518852 0.010079672 0.19923171
-0.043686535 0.0030616431 0.19807431
-0.043422755 -0.0021823447 0.19981982
-0.043557405 -0.0045185583 0.20450614
-0.044499535 -0.0066061718 0.20760699
-0.047886513 -0.0092243087 0.21035203
-0.051128101 -0.010579256 0.21399616
-0.0527508 -0.011955267 0.21799599
-0.054075945 -0.01356131 0.22147678
-0.053812444 -0.015664015 0.22587655
-0.052900914 -0.017822929 0.22906181
-0.042037655 0.039158557 0.17919503
-0.041749109 0.037214361 0.18068258
-0.041137993 0.034606591 0.18245192
-0.040706646 0.03244165 0.18417485
-0.040602069 0.030408699 0.18614513
-0.040883344 0.02789521 0.18834551
-0.04072018 0.024959566 0.19031459
-0.040349893 0.021024473 0.1924897
-0.040197726 0.017963517 0.19459671
-0.039764792 0.014980507 0.19687505
-0.040290859 0.010305918 0.19869988
-0.04063924 0.0038705724 0.19822536
-0.040130615 -0.00090108177 0.19968493
-0.04026673 -0.0034845856 0.20285466
-0.041495383 -0.0056690485 0.2083952
-0.044990268 -0.0091946023 0.21157558
-0.048485141 -0.010379008 0.21499936
-0.049635097 -0.011798912 0.21895687
-0.050661966 -0.013995436 0.22253056
-0.050245129 -0.016745692 0.22571813
-0.050359692 -0.019605255 0.22831315
-0.049903791 -0.021877905 0.23019341
-0.038572453 0.040685736 0.17898746
-0.038423996 0.039043654 0.1803239
-0.038044956 0.036430277 0.18205211
-0.037858885 0.033672884 0.1840784
-0.037027583 0.030834293 0.18696706
-0.036886621 0.027878603 0.1894612
-0.037115198 0.025113778 0.19120339
-0.037234113 0.021722829 0.19334997
-0.037033848 0.018593039 0.19594987
-0.037029378 0.014977137 0.19805121
-0.03773449 0.010265063 0.19933882
-0.037974685 0.0043773516 0.19897416
-0.038146134 0.00074348517 0.20009567
-0.037867181 -0.0024633887 0.2030504
-0.039369036 -0.0051593934 0.20924953
-0.042897675 -0.0088163717 0.21373415
-0.044855457 -0.010339526 0.21600516
-0.046035599 -0.012076535 0.21992236
-0.046557307 -0.01495743 0.2230029
-0.046265483 -0.01839369 0.22524141
-0.046254192 -0.02131474 0.22713839
-0.046347834 -0.023811145 0.22928317
-0.033655055 0.042553317 0.17892292
-0.033718117 0.040951647 0.18021236
-0.033569507 0.038473625 0.18215516
-0.033213176 0.034408681 0.18580191
-0.033448737 0.03085532 0.18870164
-0.033307601 0.028064137 0.19088593
-0.03332448 0.02522946 0.19283043
-0.033507243 0.022390259 0.19492489
-0.034044731 0.019144583 0.19738562
-0.034575731 0.015312562 0.19950262
-0.035089619 0.010715747 0.20062861
-0.035629325 0.0046131569 0.20055486
-0.035963167 0.0011624976 0.20197979
-0.036279302 -0.0017171936 0.20507713
-0.038689286 -0.0047904323 0.21076897
-0.040942483 -0.0075828508 0.21571885
-0.042499416 -0.010416499 0.21798174
-0.043136649 -0.012881836 0.22079325
-0.042864993 -0.016588157 0.22269255
-0.042429369 -0.020262426 0.22458722
-0.042312331 -0.022943532 0.22627446
-0.042426284 -0.025215464 0.22864263
-0.028964348 0.043295611 0.17943874
-0.028646853 0.041725699 0.1807806
-0.028680561 0.039310716 0.1830342
-0.029458256 0.03483915 0.1875098
-0.030287564 0.031081339 0.19024767
-0.030224377 0.028193345 0.19213419
-0.030127963 0.025504876 0.19396645
-0.029969938 0.022930937 0.19605137
-0.030158704 0.019740466 0.19934972
-0.031617947 0.016186219 0.20175281
-0.032770444 0.0098755118 0.20232551
-0.033170473 0.0049682455 0.20299371
-0.033195458 0.0020068337 0.20540507
-0.034178179 -0.00080263097 0.20835052
-0.03560007 -0.0040007038 0.21303271
-0.03732422 -0.0074047744 0.21696748
-0.039186634 -0.011224068 0.21900502
-0.04061044 -0.015005338 0.22181758
-0.039387528 -0.01865536 0.2221352
-0.038669262 -0.021033403 0.22443853
-0.038343411 -0.02356112 0.22655162
-0.037614278 -0.026292315 0.22993919
-0.036070421 -0.028254479 0.23246141
-0.02481002 0.043430809 0.18072043
-0.024844717 0.041880783 0.18194972
-0.024698438 0.039262258 0.18382721
-0.0255596 0.03608733 0.18695508
-0.027240606 0.031512033 0.19064996
-0.02726532 0.028479762 0.19307576
-0.027010959 0.025985178 0.19495516
-0.026807742 0.02330851 0.19772357
-0.026698796 0.020761346 0.20035046
-0.028677162 0.017188307 0.20258851
-0.03008437 0.012247643 0.20500687
-0.030064348 0.0076785246 0.20576105
-0.030365268 0.0040395143 0.20772755
-0.031097895 0.00084151124 0.21106593
-0.032450099 -0.002686328 0.21430264
-0.033646852 -0.0066413945 0.21804944
-0.035125386 -0.011419904 0.22087178
-0.036211416 -0.016050806 0.22265235
-0.03515223 -0.01878354 0.22304095
-0.033957209 -0.021474723 0.22591418
-0.033217505 -0.024045749 0.22805336
-0.032924209 -0.026433624 0.23031159
-0.032323752 -0.029121352 0.2315616
-0.021732666 0.043717351 0.18151228
-0.021522505 0.042100739 0.18261093
-0.021526059 0.039494742 0.18415804
-0.021513844 0.037052486 0.18607603
-0.023240926 0.032402623 0.19050966
-0.023897542 0.029207597 0.19355984
-0.023757745 0.026832998 0.19592069
-0.023272578 0.024328524 0.19884996
-0.023753906 0.021154566 0.20161465
-0.025615601 0.01754366 0.20333242
-0.026220454 0.013372209 0.20601101
-0.026212566 0.009743291 0.20754264
-0.026804399 0.0056788544 0.20939177
-0.027832542 0.0021754147 0.21297948
-0.029393259 -0.0016257726 0.21582498
-0.029977981 -0.0055203815 0.21885315
-0.030466868 -0.011085704 0.22141528
-0.031100869 -0.01647817 0.22418155
-0.03099783 -0.019570462 0.22624713
-0.030031754 -0.021727042 0.22857615
-0.029268537 -0.023610886 0.22949447
-0.029048581 -0.025662163 0.23104391
-0.028921554 -0.02872234 0.23293227
-0.018805461 0.041996703 0.18357429
-0.018354934 0.039736561 0.18516254
-0.018412167 0.037044592 0.18672289
-0.019287091 0.033420563 0.19028398
-0.020361023 0.030039208 0.19384393
-0.020229142 0.027666075 0.19628763
-0.020093534 0.025243538 0.19951388
-0.021091281 0.021108072 0.20239104
-0.022404205 0.017431093 0.20450369
-0.022833791 0.013889923 0.20698871
-0.023026912 0.010688131 0.20897189
-0.023428645 0.0071636299 0.21133979
-0.024186896 0.0033016647 0.21412523
-0.025615929 -0.001426 0.21750468
-0.025818866 -0.0052448595 0.22007717
-0.02615363 -0.010106281 0.22221671
-0.026994735 -0.015219799 0.2252886
-0.027350647 -0.01851517 0.22754581
-0.026518285 -0.020812299 0.22956119
-0.025460107 -0.022768652 0.22999476
-0.0253597 -0.025345987 0.23080434
-0.025202652 -0.028856801 0.23451617
-0.015442217 0.040160492 0.18595703
-0.015357423 0.037388373 0.18754272
-0.016038191 0.033894602 0.19036637
-0.016609903 0.030875655 0.19393338
-0.016591849 0.02847489 0.1967632
-0.016492559 0.026047114 0.20125203
-0.017872011 0.021311285 0.20467941
-0.018392336 0.017541021 0.20616288
-0.019165413 0.014262448 0.2074969
-0.019630024 0.011502236 0.20958026
-0.019534737 0.0080882376 0.21278243
-0.019065855 0.0053260238 0.21533212
-0.020105366 0.0007261557 0.2186521
-0.022122195 -0.0050458671 0.22179283
-0.023039611 -0.010146299 0.22467002
-0.023171628 -0.013982448 0.22631297
-0.023486197 -0.017438401 0.22795042
-0.023166712 -0.020017121 0.22978775
-0.022275932 -0.02231835 0.23005983
-0.021897424 -0.025067609 0.23170522
-0.021090157 -0.029237958 0.23737389
-0.012713721 0.037454855 0.18858759
-0.012645652 0.03478007 0.19076093
-0.012927566 0.031961426 0.19400385
-0.012761322 0.029566165 0.19700556
-0.013104008 0.026369981 0.20143744
-0.014019686 0.022286322 0.20557706
-0.014283375 0.018867882 0.2074666
-0.014675047 0.015414024 0.20892283
-0.015916759 0.011951569 0.21093221
-0.01555284 0.0087713748 0.21373828
-0.015380939 0.0059420541 0.21618906
-0.014931459 0.0028575871 0.21903132
-0.018240701 -0.0042572008 0.22383338
-0.019457573 -0.0090953717 0.22617966
-0.019650673 -0.012380873 0.22719766
-0.019020712 -0.015204529 0.22823466
-0.018867113 -0.018399864 0.22973527
-0.018643441 -0.021630991 0.23047011
-0.0177476 -0.025245992 0.23419723
-0.016897041 -0.029407721 0.24003872
-0.01034769 0.034584403 0.19168407
-0.0095692035 0.03253923 0.19451052
-0.0091220411 0.030177843 0.19780175
-0.0092015872 0.026257802 0.20196679
-0.0099361688 0.022997512 0.20614028
-0.010243322 0.019941749 0.20865297
-0.010529819 0.016245501 0.21043302
-0.011863087 0.012711623 0.21211845
-0.011544243 0.0092497682 0.21423633
-0.0112262 0.0061126454 0.21731462
-0.010682783 0.0032700701 0.22019124
-0.011165501 -0.00099671364 0.2233917
-0.014169181 -0.0075844279 0.227043
-0.014252303 -0.010797158 0.2280037
-0.014171302 -0.014154536 0.22970395
-0.014651257 -0.018030565 0.23171376
-0.014819119 -0.021415848 0.23288013
-0.013810628 -0.024954192 0.23683335
-0.013386569 -0.02870205 0.24176453
-0.0060681496 0.032468017 0.19679852
-0.0057322509 0.029929936 0.1998371
-0.0054768492 0.025645511 0.2039544
-0.0060421289 0.022795824 0.20663171
-0.0063910587 0.02024433 0.20888916
-0.0068759867 0.01645435 0.21125714
-0.007596266 0.012739809 0.21284293
-0.0077725882 0.009541071 0.21477701
-0.0073508816 0.0066431668 0.21775426
-0.0072715967 0.0035208361 0.22052
-0.0068275128 -0.00038412394 0.22306858
-0.0075171087 -0.0059359646 0.22612314
-0.0086401766 -0.010600684 0.22858368
-0.0098042181 -0.014418274 0.23071621
-0.010546544 -0.01798719 0.23269589
-0.010850724 -0.020991495 0.2347966
-0.010756674 -0.023816116 0.2368485
-0.0034899611 0.031677015 0.19894284
-0.0026654373 0.029078132 0.20092463
-0.0023090946 0.025508 0.20412061
-0.0025224888 0.022601193 0.20626402
-0.0028160315 0.02004513 0.20835832
-0.0035984116 0.016437178 0.211445
-0.0039753239 0.01299183 0.2133552
-0.0041310568 0.0097658923 0.21537232
-0.0039660977 0.0069784778 0.21755828
-0.0036577776 0.0035436891 0.21983023
-0.0034101764 -0.00094415661 0.22321111
-0.0032118054 -0.005375396 0.22484
-0.0048561897 -0.010482061 0.22827168
-0.0057281512 -0.014219905 0.23029397
-0.0069763651 -0.017628554 0.23242906
0.00038948376 0.027732022 0.20185234
0.00076679717 0.025166938 0.20408548
0.00044965782 0.022293398 0.20606476
0.00046031084 0.019487882 0.20813131
-0.00011629913 0.016133558 0.21051149
-0.00020135447 0.012982411 0.21273442
-0.00011178611 0.010282967 0.21493247
-0.00017801733 0.007194716 0.21699969
-4.4658049e-05 0.0037135095 0.21862882
4.9538521e-05 -0.00059901562 0.22191495
0.00067433127 -0.0050846483 0.22395459
-0.0011193604 -0.0096817613 0.22732669
-0.003334471 -0.013347557 0.22995959
0.0032578327 0.024508415 0.20454982
0.0035141977 0.022032568 0.20577899
0.0037453182 0.019250436 0.20756657
0.003465534 0.015851634 0.20994808
0.0034434993 0.012808263 0.21196677
0.0034494274 0.010267067 0.21397534
0.0030362653 0.0070896125 0.2167646
0.0027039633 0.0042293267 0.21835285
0.002283283 -0.00030841739 0.22116335
0.0026364333 -0.0036463786 0.2231773
0.0051936847 0.021788949 0.20578918
0.0056035845 0.018608583 0.20781396
0.0059017609 0.015771197 0.20981108
0.0054907515 0.012539032 0.21214327
0 0 0 1 0 0 0 1 0 0 0 1 0 0 0 0 0 354 1 0 0
