ply
format ascii 1.0
comment PCL generated
element vertex 354
property float x
property float y
property float z
element camera 1
property float view_px
property float view_py
property float view_pz
property float x_axisx
property float x_axisy
property float x_axisz
property float y_axisx
property float y_axisy
property float y_axisz
property float z_axisx
property float z_axisy
property float z_axisz
property float focal
property float scalex
property float scaley
property float centerx
property float centery
property int viewportx
property int viewporty
property float k1
property float k2
end_header
-0.058194961 0.025061339 0.19091631
-0.058920298 0.022197584 0.19273008
-0.059961159 0.019039651 0.19433226
-0.060758218 0.015913147 0.19615515
-0.06069858 0.013289501 0.19789161
-0.054129969 0.02929355 0.18663011
-0.054907974 0.027760033 0.18773724
-0.055267628 0.025292227 0.18924229
-0.055285357 0.022735005 0.19082142
-0.056396116 0.019757601 0.19309846
-0.057731017 0.016336815 0.19527811
-0.058817815 0.012961757 0.19750531
-0.058815122 0.010035858 0.19932652
-0.057681065 0.0067847846 0.20225763
-0.050468095 0.031400457 0.18381354
-0.051046535 0.029997882 0.18497948
-0.051466342 0.027924532 0.18627597
-0.051724244 0.025684197 0.18793103
-0.051584911 0.023118487 0.19023317
-0.0525725 0.019879026 0.19288127
-0.053371392 0.016775031 0.19460133
-0.054741908 0.013951073 0.19674972
-0.055830989 0.01045961 0.19989486
-0.054611463 0.0043366393 0.20387261
-0.053223617 -0.0015343667 0.20415774
-0.052242972 -0.0055555971 0.20523171
-0.048336625 0.031877831 0.18258685
-0.048334189 0.029989092 0.18409429
-0.048296582 0.027978756 0.18574564
-0.048450973 0.025825281 0.18802044
-0.048705358 0.023154531 0.19077301
-0.049121175 0.020069158 0.19324063
-0.049504206 0.017374469 0.19504398
-0.050706185 0.01450099 0.19744602
-0.05192684 0.010606195 0.20051096
-0.050213255 0.0020737958 0.20101944
-0.049580015 -0.0036525975 0.20215033
-0.049673945 -0.0063768527 0.20518284
-0.050647356 -0.0082780067 0.20679811
-0.052473813 -0.0090117436 0.20789669
-0.045914769 0.034218889 0.18142636
-0.045768909 0.032469973 0.18245092
-0.04559622 0.030420184 0.18414116
-0.045575064 0.028526591 0.18611459
-0.045747742 0.026330775 0.18818934
-0.046131615 0.023599515 0.19028959
-0.046428915 0.020543443 0.19330736
-0.046575774 0.017869823 0.19500576
-0.046942122 0.015162614 0.19787313
-0.046731692 0.0092489058 0.19986829
-0.047228415 0.0026422974 0.19890781
-0.046535134 -0.0038649088 0.20112482
-0.046872947 -0.0055893091 0.20537688
-0.048113998 -0.0069989325 0.20753041
-0.050948977 -0.0091962805 0.209079
-0.053660788 -0.010990321 0.21272516
-0.05527309 -0.011993645 0.21704713
-0.055923153 -0.013319434 0.22072209
-0.043971512 0.035431229 0.18100195
-0.043398608 0.033202432 0.18263921
-0.043148026 0.031163622 0.1843811
-0.043269824 0.029266682 0.18616305
-0.043724578 0.027126124 0.18805315
-0.043699466 0.024265487 0.19036169
-0.043468416 0.020713773 0.1928058
-0.043527484 0.017743422 0.19458786
-0.043637458 0.015104314 0.19777775
-0.04354183 0.010112046 0.19917466
-0.043769564 0.0031277912 0.19784127
-0.043510258 -0.0021534592 0.19966803
-0.043595534 -0.0044829249 0.2044345
-0.044526942 -0.0065072835 0.20768447
-0.047925226 -0.0090953605 0.21056972
-0.051186353 -0.010435807 0.21426201
-0.052852433 -0.011826967 0.21809861
-0.054195341 -0.013451586 0.22156788
-0.05393305 -0.015599253 0.22594778
-0.053000923 -0.017790547 0.22910699
-0.042052753 0.03904463 0.17916173
-0.041751634 0.037104782 0.18066455
-0.0411309 0.034511309 0.18246426
-0.040705882 0.032360569 0.18420963
-0.040618129 0.030341523 0.18618533
-0.040907267 0.027839847 0.18840154
-0.040743195 0.024927678 0.19038944
-0.040358637 0.021007756 0.19259639
-0.040191885 0.017976416 0.19476829
-0.039730575 0.015036385 0.19715801
-0.040302087 0.010344975 0.19878808
-0.040661775 0.0039147609 0.19801496
-0.040205073 -0.00089176552 0.19948603
-0.040320847 -0.0034941714 0.20267309
-0.041523013 -0.0055752499 0.20842664
-0.045041535 -0.0090257982 0.21182153
-0.048550617 -0.010220778 0.21527724
-0.049747288 -0.011654929 0.2190855
-0.050789751 -0.013879132 0.22264989
-0.050358016 -0.016683999 0.22577818
-0.050463933 -0.019576136 0.22833967
-0.050007042 -0.021869805 0.23019889
-0.0386011 0.040615916 0.17897238
-0.038448438 0.038974307 0.1803036
-0.038062315 0.036360923 0.18203805
-0.037875291 0.033611845 0.18408917
-0.037063472 0.030798491 0.18702525
-0.036920421 0.027865797 0.18954356
-0.037146054 0.025116084 0.19130678
-0.037257187 0.021744542 0.19350426
-0.037026182 0.01863504 0.19619046
-0.036984455 0.014974236 0.19832538
-0.037755121 0.010260301 0.19946548
-0.037995439 0.0043936237 0.19883135
-0.038194437 0.00073621556 0.19988942
-0.037915725 -0.0025124417 0.20281611
-0.039434869 -0.005094856 0.20931484
-0.04298329 -0.0086199837 0.21403679
-0.044929244 -0.010157156 0.21630526
-0.046159282 -0.011906973 0.22009203
-0.046682689 -0.014842651 0.2231275
-0.046378545 -0.018348407 0.22526823
-0.046363924 -0.021295309 0.22714034
-0.046451632 -0.023818024 0.2292708
-0.033684835 0.042548861 0.17892195
-0.03374885 0.040947597 0.18021132
-0.033598177 0.03847244 0.18215139
-0.033242006 0.034396168 0.18582883
-0.033480778 0.0308514 0.18877313
-0.033337381 0.028082605 0.19098195
-0.03335543 0.025261879 0.19295198
-0.033530749 0.02243959 0.19508214
-0.034032557 0.019175207 0.19763598
-0.034528553 0.015244474 0.1997758
-0.035107784 0.010654035 0.20077963
-0.035672765 0.0045848847 0.20045498
-0.036012497 0.0011080554 0.20179082
-0.036333438 -0.0018187753 0.20486836
-0.038784157 -0.0047361883 0.21090665
-0.041057196 -0.0074661756 0.21613906
-0.04259951 -0.010284414 0.21843578
-0.043260291 -0.012745118 0.22099596
-0.042983864 -0.016523834 0.2227475
-0.042534236 -0.020248082 0.22459884
-0.042408876 -0.0229473 0.22627987
-0.042517126 -0.025239319 0.22862893
-0.028987678 0.043312505 0.17943271
-0.028662983 0.041746844 0.18077435
-0.028691819 0.039330781 0.1830271
-0.029479299 0.034843359 0.18753624
-0.030316804 0.031094668 0.19031388
-0.030251643 0.028222008 0.19221765
-0.030151494 0.025542904 0.19407424
-0.029991258 0.022981299 0.1961771
-0.030158989 0.019765548 0.19952406
-0.031556018 0.016049257 0.20197569
-0.032795075 0.0097521311 0.20243169
-0.033223595 0.0048851781 0.2029274
-0.033213433 0.0019066049 0.20528364
-0.034188814 -0.00091014191 0.20825982
-0.035646439 -0.0040159142 0.21311878
-0.037414867 -0.0073445668 0.2172841
-0.039281975 -0.011146029 0.21944813
-0.040730529 -0.014964764 0.22194241
-0.039491296 -0.018638946 0.2221836
-0.038753234 -0.021036651 0.22447258
-0.038418282 -0.023576409 0.22657019
-0.03767981 -0.02633547 0.2299331
-0.036127631 -0.028319759 0.23243488
-0.024816003 0.04345068 0.18071826
-0.024848823 0.041900039 0.18194319
-0.024699602 0.039279744 0.18382151
-0.025562525 0.03610111 0.18694898
-0.027263694 0.031523086 0.19070502
-0.027284713 0.028500115 0.19314671
-0.027030887 0.026014306 0.19503827
-0.026819667 0.023342239 0.19783084
-0.026712315 0.020792387 0.20045985
-0.02869476 0.017128028 0.202713
-0.030128893 0.012226051 0.20513284
-0.030059287 0.0076630702 0.20578289
-0.030334324 0.0039932784 0.20768033
-0.03106506 0.00074555766 0.21099344
-0.032454055 -0.0027496645 0.21429083
-0.033695202 -0.0066473074 0.21817577
-0.035227563 -0.011403507 0.22102438
-0.036313117 -0.016069319 0.222734
-0.035239048 -0.018785093 0.22309688
-0.034021284 -0.02149242 0.2259452
-0.03328542 -0.02406857 0.22806735
-0.032987364 -0.026465852 0.230315
-0.032382987 -0.029152757 0.23153298
-0.021737529 0.043739915 0.1815204
-0.02152705 0.042124048 0.18261413
-0.021530144 0.039518476 0.18415807
-0.021514894 0.03707609 0.18607396
-0.023248445 0.032403585 0.19053482
-0.02391023 0.029207619 0.19360653
-0.023769859 0.026842237 0.19597846
-0.023274593 0.024341892 0.19892219
-0.02376223 0.021170711 0.20168816
-0.02565157 0.01756889 0.20340596
-0.026257474 0.013411743 0.20611635
-0.026245326 0.0097903991 0.20764661
-0.026832631 0.0057148361 0.20948435
-0.02780758 0.0020870781 0.21292639
-0.029378127 -0.0017199721 0.21576223
-0.02998592 -0.0055770585 0.21883217
-0.030512083 -0.011089789 0.221496
-0.031150293 -0.016506279 0.22421218
-0.031046372 -0.019606641 0.22625349
-0.030078234 -0.021763498 0.22856589
-0.0293235 -0.023649735 0.22949764
-0.029102605 -0.025682351 0.23106061
-0.028975477 -0.02873609 0.23294592
-0.018810311 0.042021703 0.18358539
-0.018358838 0.039760184 0.18516846
-0.01841474 0.037066806 0.18672797
-0.019286828 0.03342231 0.19028862
-0.020367563 0.030028071 0.19385718
-0.020231264 0.027663203 0.19631836
-0.020092636 0.025251128 0.19956093
-0.021099005 0.021108469 0.20243621
-0.022428544 0.017439043 0.20454565
-0.022868425 0.013914853 0.20707096
-0.023066351 0.010738084 0.2090849
-0.02347753 0.0072252695 0.21146336
-0.024244871 0.003358569 0.21424872
-0.025659177 -0.0014228638 0.217583
-0.025837777 -0.0052515888 0.22011994
-0.026153399 -0.010117333 0.22224103
-0.027009755 -0.015264692 0.22528464
-0.027387667 -0.018563801 0.22752981
-0.026564403 -0.020860588 0.22953962
-0.025513018 -0.022822136 0.22998996
-0.025411956 -0.025381399 0.23082121
-0.025250666 -0.028862597 0.23451638
-0.015445386 0.04018892 0.18597345
-0.015358738 0.037411477 0.18755306
-0.016038384 0.033899799 0.19037236
-0.016612981 0.030878514 0.19393741
-0.016591275 0.028482346 0.19678162
-0.016485123 0.02605217 0.20127492
-0.017860372 0.021297464 0.20468728
-0.018396307 0.017529912 0.20618099
-0.019188395 0.014266909 0.20754656
-0.019669116 0.011531151 0.20967282
-0.019567775 0.0081365081 0.21289298
-0.019098995 0.0053754668 0.21544085
-0.020129679 0.00074590248 0.2187341
-0.022123517 -0.0050601955 0.22182958
-0.023039581 -0.010165432 0.22469632
-0.02318437 -0.014028474 0.22631977
-0.023518717 -0.017501714 0.22793172
-0.023212316 -0.02008546 0.22975732
-0.02231949 -0.022377141 0.23005161
-0.021945355 -0.025094958 0.23171183
-0.021132628 -0.029218052 0.23734929
-0.01271836 0.037479032 0.18859728
-0.01264429 0.034791883 0.19076751
-0.012926308 0.031971946 0.1940189
-0.012761747 0.029586669 0.19702786
-0.013097106 0.026387105 0.20147112
-0.013997803 0.02229194 0.20559646
-0.01427136 0.018868519 0.20747302
-0.014671109 0.015411947 0.20893712
-0.015935909 0.011957855 0.21098381
-0.015572583 0.0087931873 0.21380597
-0.015397483 0.0059672748 0.2162652
-0.014946509 0.0028780433 0.21909367
-0.018236749 -0.0042730193 0.22387587
-0.019463681 -0.0091215549 0.22622873
-0.019666981 -0.012421084 0.22723933
-0.019042091 -0.01525643 0.22828105
-0.018892936 -0.018459631 0.22975165
-0.018674579 -0.021671398 0.23046023
-0.01777987 -0.025262041 0.23418561
-0.016912933 -0.029394621 0.24005403
-0.010345723 0.03458859 0.1916866
-0.0095641064 0.032547139 0.19452077
-0.0091156596 0.03019315 0.19782002
-0.0091853645 0.026273353 0.2019957
-0.009915092 0.023005608 0.20616955
-0.010225293 0.019949233 0.20866561
-0.010524588 0.016248774 0.21044134
-0.01187275 0.012708566 0.21214627
-0.011555824 0.0092579601 0.21428289
-0.011240193 0.0061176722 0.21737473
-0.01068855 0.0032679376 0.22024342
-0.011173424 -0.0010055094 0.22343394
-0.014185618 -0.0076106838 0.22712517
-0.014271869 -0.01082987 0.2281023
-0.014197748 -0.014199389 0.2297917
-0.014680034 -0.018084258 0.23176154
-0.014850423 -0.02146128 0.23288441
-0.013823051 -0.024966788 0.23681496
-0.013399273 -0.028689506 0.2417752
-0.0060546203 0.032470152 0.19679953
-0.0057126083 0.029935444 0.19984125
-0.0054492992 0.025656749 0.20396996
-0.0060188044 0.02280106 0.2066548
-0.0063756029 0.020242037 0.20890911
-0.0068691149 0.016451769 0.2112712
-0.0076019671 0.01273042 0.21286435
-0.0077808499 0.0095385024 0.21482119
-0.007356762 0.0066380645 0.21781419
-0.0072789504 0.0035113581 0.22056861
-0.0068365512 -0.00039501477 0.22309753
-0.0075352336 -0.0059371232 0.22615653
-0.0086598014 -0.010620886 0.22866529
-0.0098301359 -0.014455163 0.23080143
-0.010571579 -0.018025193 0.23274831
-0.010871886 -0.021019852 0.23480354
-0.010770042 -0.023830717 0.23683032
-0.003469619 0.03167155 0.1989354
-0.0026383111 0.029085228 0.20091708
-0.0022822611 0.025522172 0.20413572
-0.0025006046 0.022611946 0.20628086
-0.0028010705 0.020036543 0.2083727
-0.0035885856 0.016425038 0.21145529
-0.0039778035 0.012986799 0.21337177
-0.0041405759 0.0097605009 0.2154092
-0.0039723255 0.0069687199 0.21759938
-0.0036649331 0.0035234594 0.21986046
-0.0034208514 -0.00094625034 0.22321609
-0.0032219044 -0.0053715799 0.22484036
-0.004876317 -0.010490254 0.2283259
-0.0057526673 -0.014246056 0.2303599
-0.0069979304 -0.0176562 0.23248336
0.00042391181 0.02773886 0.2018595
0.00079367921 0.025178384 0.20410638
0.00046807472 0.022296518 0.20608287
0.0004756072 0.019470831 0.20813878
-0.0001082791 0.016109891 0.21051577
-0.00019997109 0.012970918 0.21275033
-0.00010610635 0.010281444 0.21495123
-0.00017808082 0.0071854782 0.21702139
-5.2358653e-05 0.0036909403 0.21864134
3.6908688e-05 -0.00060067512 0.22191028
0.0006659819 -0.0050842548 0.22395
-0.0011388906 -0.0096756415 0.22735585
-0.0033617786 -0.013367342 0.23000468
0.0032799358 0.024515459 0.2045722
0.0035337035 0.022029469 0.20579915
0.0037597714 0.019227602 0.2075717
0.0034774914 0.015822906 0.20995674
0.0034525383 0.012789844 0.21198025
0.0034560594 0.010263429 0.21399641
0.0030431203 0.0070881979 0.21678196
0.0027051775 0.0042199912 0.21835877
0.002267054 -0.00031100275 0.22115535
0.0026231823 -0.0036445607 0.22317325
0.0052094092 0.021783715 0.20580287
0.0056156749 0.018577239 0.2078201
0.0059174979 0.015740102 0.2098286
0.0054959431 0.012510416 0.21216221
0 0 0 1 0 0 0 1 0 0 0 1 0 0 0 0 0 354 1 0 0
