ply
format ascii 1.0
comment PCL generated
element vertex 354
property float x
property float y
property float z
element camera 1
property float view_px
property float view_py
property float view_pz
property float x_axisx
property float x_axisy
property float x_axisz
property float y_axisx
property float y_axisy
property float y_axisz
property float z_axisx
property float z_axisy
property float z_axisz
property float focal
property float scalex
property float scaley
property float centerx
property float centery
property int viewportx
property int viewporty
property float k1
property float k2
end_header
-0.055685751 0.030631687 0.18661098
-0.056883454 0.027661342 0.18854617
-0.058127739 0.024271872 0.19112423
-0.058876798 0.020714516 0.19326797
-0.05899775 0.017266167 0.19475387
-0.051320318 0.035305284 0.18302073
-0.052145854 0.033498053 0.18377404
-0.052662198 0.030705729 0.1849516
-0.053085342 0.027747767 0.18637492
-0.054121736 0.024674131 0.18912902
-0.055520218 0.021191007 0.19228788
-0.056296937 0.017633706 0.19410901
-0.056474235 0.014936377 0.19565417
-0.05622774 0.011547339 0.1979706
-0.047763575 0.03790785 0.18069008
-0.048444647 0.036031894 0.18133484
-0.048892535 0.033440515 0.18220557
-0.049311433 0.030752152 0.18378632
-0.049742617 0.02781307 0.1858986
-0.050766625 0.024833251 0.18915647
-0.051397577 0.021799134 0.19145301
-0.052577224 0.019132156 0.193939
-0.053294163 0.015397116 0.19638166
-0.053322133 0.010227543 0.20038675
-0.05295733 0.005077675 0.20191924
-0.0528404 0.0015150094 0.20285825
-0.045422383 0.038655806 0.1796791
-0.045644991 0.036132887 0.1806639
-0.045784794 0.033433232 0.18195464
-0.046216194 0.030715466 0.18401046
-0.046744071 0.028065985 0.18624108
-0.047640331 0.025139816 0.18942191
-0.048021801 0.022150736 0.19137357
-0.048798352 0.019608269 0.19422945
-0.049846757 0.015532718 0.19745603
-0.049545653 0.009220873 0.20041455
-0.049659915 0.0042232312 0.20154932
-0.049809657 0.00088146876 0.20376529
-0.050087813 -0.0016781021 0.20650788
-0.051280137 -0.0030804873 0.20907155
-0.04227221 0.041030291 0.17884755
-0.042623207 0.039032374 0.1798797
-0.042797673 0.036476787 0.18125962
-0.042923044 0.033782355 0.18301456
-0.043350104 0.031111019 0.18509676
-0.043894392 0.028197708 0.18696083
-0.044687375 0.025357295 0.18964238
-0.044995584 0.022427987 0.19116655
-0.045387778 0.019737868 0.19386804
-0.045945946 0.01504021 0.19740133
-0.046344396 0.0093789799 0.19930997
-0.046576981 0.0041343495 0.20067224
-0.046731927 0.0014252 0.20402887
-0.047193427 -0.00055297761 0.20722003
-0.048605114 -0.0027627011 0.21042685
-0.049929142 -0.0051570339 0.21472199
-0.050971966 -0.0087538622 0.21802953
-0.050613839 -0.011158049 0.22073518
-0.039729748 0.041807763 0.17883937
-0.039862134 0.039253879 0.18036035
-0.039916869 0.036659855 0.18184495
-0.040154468 0.034148596 0.18375231
-0.040654797 0.031420752 0.18573387
-0.040989157 0.028443359 0.18780318
-0.041643858 0.025318531 0.18987662
-0.041872051 0.022236651 0.19108461
-0.042337149 0.019696698 0.19356272
-0.042685263 0.015623568 0.19656371
-0.043195423 0.0097178249 0.19841591
-0.043256991 0.0048507391 0.19919638
-0.043129511 0.0016681824 0.20247462
-0.043367893 -0.00037758306 0.20642923
-0.045172267 -0.0023739194 0.21144673
-0.046754856 -0.0047227698 0.2160771
-0.047712404 -0.0086326953 0.21860062
-0.048192404 -0.011504158 0.2212213
-0.04833509 -0.014910975 0.22374968
-0.048103873 -0.01799053 0.2257233
-0.03652123 0.043859877 0.17785795
-0.036762379 0.042156145 0.17937334
-0.036989149 0.03960871 0.18092899
-0.03706735 0.037076693 0.18230817
-0.03720361 0.034483023 0.18450794
-0.037693929 0.031765606 0.18655626
-0.037920911 0.028742135 0.1881223
-0.038488649 0.025445411 0.19029379
-0.038936313 0.022430807 0.19169535
-0.039064202 0.019703578 0.19413407
-0.039606031 0.015743662 0.19687286
-0.040238291 0.010337261 0.19834343
-0.040088154 0.005631038 0.19793215
-0.039609082 0.0018507728 0.19990198
-0.039962802 -0.0002202209 0.20625243
-0.041809428 -0.0019943537 0.21255501
-0.043343049 -0.004390405 0.21690075
-0.044143297 -0.0085045258 0.21892419
-0.044408552 -0.011902163 0.22097422
-0.044561144 -0.01537906 0.22241376
-0.044864785 -0.018669074 0.22429134
-0.044589926 -0.021400919 0.22625966
-0.03371378 0.04408678 0.17846018
-0.033819601 0.042425793 0.17989165
-0.033951744 0.039891999 0.18151632
-0.034135249 0.037370656 0.18290606
-0.034052767 0.034582429 0.18496771
-0.03450219 0.031721767 0.18729433
-0.034989908 0.028806996 0.18925232
-0.03549115 0.025838664 0.19125243
-0.035987083 0.022818882 0.19302157
-0.036273897 0.019843208 0.19588052
-0.036855962 0.015686924 0.19799301
-0.037143774 0.010797711 0.19889046
-0.03705544 0.0065291151 0.19889128
-0.036710177 0.002236516 0.19963609
-0.037179772 0.00013776498 0.2071453
-0.03887444 -0.0015139651 0.21394578
-0.039574385 -0.0044316067 0.217535
-0.040446118 -0.0086817034 0.21875633
-0.040495533 -0.012266303 0.22008978
-0.04074572 -0.015772311 0.22192179
-0.040733684 -0.018921757 0.22332345
-0.041001126 -0.022085022 0.22537252
-0.030441049 0.044294555 0.17947416
-0.030673981 0.042557545 0.18043175
-0.030794257 0.039949998 0.18221477
-0.030955438 0.037424721 0.18466204
-0.031199997 0.034686361 0.18643302
-0.03142656 0.031772163 0.18879968
-0.031765278 0.028903581 0.19087124
-0.03228464 0.025940448 0.19258119
-0.032933719 0.02313075 0.1940399
-0.033385672 0.020001259 0.1971852
-0.033980463 0.01585882 0.19904388
-0.034248911 0.011070724 0.20010923
-0.034166072 0.0068631 0.20062579
-0.033933431 0.0030006343 0.20168187
-0.03494386 0.0015051184 0.20949374
-0.035983235 -0.00098751101 0.2151943
-0.036303435 -0.0044011022 0.21716473
-0.03711861 -0.008971558 0.21868941
-0.03712678 -0.01250413 0.22019678
-0.037282642 -0.015791818 0.2220508
-0.037241761 -0.019048057 0.22288904
-0.037470777 -0.022265302 0.22502349
-0.027410978 0.044410571 0.17988332
-0.027404737 0.042588737 0.18100378
-0.027559869 0.039982028 0.18301576
-0.027828753 0.037498333 0.18613099
-0.028272104 0.034858219 0.18825172
-0.028500505 0.032022409 0.19020049
-0.028565753 0.029084541 0.1915741
-0.028763609 0.026318498 0.19337741
-0.029182333 0.023441197 0.19558898
-0.030163016 0.020431221 0.19867741
-0.031158084 0.015399872 0.20084767
-0.031186093 0.011157553 0.20218946
-0.030809984 0.0075727953 0.20364197
-0.030674679 0.0043722359 0.20686769
-0.031396158 0.0021486811 0.21115918
-0.032249529 -0.00085652311 0.21474271
-0.032640103 -0.0044750301 0.21687163
-0.033788148 -0.0089227427 0.21920301
-0.033818532 -0.012328534 0.2208939
-0.033921454 -0.015571041 0.22301549
-0.033863518 -0.018975938 0.22431925
-0.033827219 -0.022594674 0.22726822
-0.033334967 -0.025295908 0.23004998
-0.024028031 0.044379473 0.18060836
-0.024176789 0.042754438 0.18175676
-0.024121901 0.040130679 0.1833676
-0.024573777 0.037647087 0.18624161
-0.02513458 0.035129376 0.18880418
-0.025388701 0.032293241 0.1910917
-0.025495203 0.029393641 0.19253697
-0.025641384 0.026417883 0.19476573
-0.025789062 0.023646813 0.19729264
-0.026931021 0.020572225 0.20041981
-0.0272837 0.016036684 0.20318557
-0.027231378 0.012231538 0.20466812
-0.027225869 0.0085328761 0.20671013
-0.027382862 0.0052805622 0.20930091
-0.028094387 0.0025742415 0.21225299
-0.028772846 -0.00065972999 0.21564837
-0.029615814 -0.0051545668 0.21724935
-0.029931096 -0.0085812295 0.22058327
-0.030047368 -0.011979774 0.22216901
-0.030161763 -0.015455069 0.22509731
-0.029799696 -0.019136215 0.22719145
-0.029824721 -0.022801349 0.22930671
-0.029858934 -0.026579998 0.23133716
-0.020907117 0.044717908 0.1810426
-0.020952569 0.04301912 0.18219255
-0.021021586 0.040319428 0.18361649
-0.02114707 0.037859619 0.18557902
-0.021803528 0.035281762 0.18908307
-0.022048097 0.032661326 0.19178598
-0.022248954 0.029822202 0.19374752
-0.02226972 0.026988028 0.19608088
-0.022801001 0.023951406 0.19900879
-0.023382314 0.020121494 0.20172691
-0.023408713 0.016123163 0.2037155
-0.023339055 0.012419194 0.20567137
-0.023785032 0.0087058898 0.20776735
-0.024031429 0.0058607697 0.21105777
-0.024819775 0.0029552954 0.21406665
-0.02532102 -0.00033559912 0.21664162
-0.026158977 -0.0046910625 0.21860777
-0.026117353 -0.0083147353 0.22204901
-0.026162978 -0.011901713 0.22298199
-0.026034331 -0.015609454 0.22627753
-0.02593134 -0.019450568 0.22876124
-0.026072422 -0.023265356 0.23033701
-0.026291369 -0.027079551 0.23246582
-0.01827096 0.042956229 0.18310846
-0.018005287 0.040703773 0.18461303
-0.018057369 0.037944056 0.18593201
-0.018437661 0.035277437 0.18917738
-0.018850746 0.032689471 0.1921095
-0.019024428 0.030019419 0.19420876
-0.019273477 0.027354274 0.19707593
-0.01987561 0.023940057 0.20036869
-0.02025502 0.020131839 0.2030676
-0.020268735 0.016389808 0.20519133
-0.020065909 0.013011727 0.20709369
-0.020474751 0.0093385 0.20981342
-0.020957781 0.0058796015 0.21194363
-0.021841267 0.0025821396 0.21553452
-0.022257926 -0.00094360061 0.21802728
-0.022732269 -0.0044480399 0.22045396
-0.022544162 -0.0078796968 0.22406554
-0.022345889 -0.011737784 0.22469525
-0.022420457 -0.015649462 0.227053
-0.021979043 -0.019559186 0.22930798
-0.022163244 -0.023271736 0.22960854
-0.022538377 -0.027413053 0.23401378
-0.015159378 0.040822688 0.18537609
-0.015151966 0.038151268 0.18698417
-0.01523653 0.035361275 0.18929297
-0.015389443 0.032676779 0.19225428
-0.015607248 0.030040678 0.19468845
-0.015872158 0.027343167 0.19862224
-0.016680472 0.023708109 0.2027294
-0.016798224 0.020249683 0.20484184
-0.016889449 0.016907668 0.2063777
-0.016778523 0.013413113 0.20811507
-0.017176462 0.0098393867 0.21140003
-0.017235521 0.0068610809 0.21388984
-0.017814424 0.0031414267 0.21674524
-0.018806012 -0.00063568295 0.21964784
-0.019370969 -0.0041722506 0.22283636
-0.019188322 -0.0076142889 0.2258167
-0.018728679 -0.011628736 0.22650009
-0.018607132 -0.015803544 0.22866297
-0.01827695 -0.019697981 0.22930522
-0.018332828 -0.023506995 0.23101777
-0.018778365 -0.02788021 0.23728569
-0.012541423 0.038088161 0.18834442
-0.012074494 0.035638213 0.19019319
-0.01215754 0.032896452 0.1930515
-0.012274474 0.03015339 0.1958458
-0.012586253 0.027194178 0.19932775
-0.013143986 0.023753481 0.20363036
-0.013121638 0.020615987 0.20607069
-0.013267459 0.01728031 0.20797984
-0.01362351 0.013824469 0.2100502
-0.013677066 0.010453298 0.2131173
-0.01394594 0.0072249519 0.21528445
-0.013939923 0.0038139152 0.21775159
-0.015044008 -0.00024032281 0.22087643
-0.015706986 -0.0036719374 0.2243696
-0.015642712 -0.0073424228 0.22684392
-0.015069697 -0.011561638 0.2284319
-0.014781508 -0.015646942 0.23024702
-0.014670555 -0.019742547 0.23085833
-0.014629429 -0.023841424 0.23433289
-0.015068071 -0.028224241 0.24049446
-0.0097881015 0.035237677 0.1911007
-0.0090304725 0.032996967 0.19380698
-0.0089407694 0.030195037 0.19683664
-0.0090982551 0.027066778 0.19962257
-0.0095120436 0.024018712 0.20348059
-0.0094942087 0.020920001 0.2066981
-0.0094884429 0.017670702 0.20920315
-0.01010389 0.014364435 0.2117898
-0.010111872 0.010880118 0.2139945
-0.010180214 0.007590373 0.21668652
-0.010084658 0.004209144 0.21926807
-0.01048269 0.00030780275 0.22178234
-0.011597097 -0.0036340519 0.22511452
-0.011147379 -0.0073802019 0.22735946
-0.010903036 -0.011442365 0.22944157
-0.010888243 -0.015573305 0.2312852
-0.010843311 -0.01966262 0.23277548
-0.010914221 -0.02402498 0.23673771
-0.011486328 -0.027499519 0.24110286
-0.0057201376 0.032478515 0.19633208
-0.0056894547 0.030087361 0.19845276
-0.0057815141 0.026903473 0.20127048
-0.0060237003 0.024004431 0.20420235
-0.0061027729 0.021204391 0.20703596
-0.0060476032 0.017824208 0.21008375
-0.0062888339 0.014452265 0.2125396
-0.006283822 0.011258204 0.21464774
-0.0062990249 0.0077559636 0.21703796
-0.0065617394 0.0041341865 0.21980952
-0.006666143 0.0002729799 0.22205514
-0.0068152379 -0.0039362567 0.22465225
-0.0068097743 -0.0077059711 0.22742197
-0.0069920952 -0.011695346 0.22949718
-0.0068785828 -0.015627939 0.23106787
-0.0070087002 -0.019627905 0.23375843
-0.0074488414 -0.023324819 0.23640126
-0.0031370276 0.031878822 0.19797264
-0.0026139438 0.029936163 0.19903909
-0.0025336049 0.026875636 0.2012925
-0.0026311264 0.023907853 0.20388347
-0.002602509 0.021206629 0.2068052
-0.0027687601 0.018090436 0.21012415
-0.0027435238 0.014601526 0.21300386
-0.002680216 0.011177535 0.21504685
-0.0026924426 0.0077327671 0.21731643
-0.0029185219 0.0040908847 0.21931614
-0.0030745242 -1.9236564e-05 0.22252336
-0.0030179471 -0.003831194 0.22409777
-0.00306194 -0.0078069596 0.22682016
-0.0031434032 -0.011430327 0.22842877
-0.0037110085 -0.015085814 0.23007876
0.00010600351 0.029431168 0.19996405
0.00068082497 0.027146833 0.20176128
0.00051574403 0.023996048 0.20384938
0.00078998244 0.021386201 0.20640875
0.00084033608 0.01822464 0.20923175
0.00099654624 0.014773909 0.21171194
0.00087878708 0.011278233 0.21445279
0.00084294367 0.0078508984 0.21695217
0.00089465146 0.0041916044 0.21806465
0.00061459368 0.00027187276 0.22133854
0.00092090038 -0.0036269131 0.22334662
0.00025389783 -0.0073498753 0.22593482
-0.00064266432 -0.010551951 0.22854319
0.0036196669 0.027069652 0.20246957
0.0039599244 0.024377665 0.20351429
0.0042810743 0.021518957 0.20584872
0.004435109 0.018261135 0.20863506
0.0045306808 0.01478622 0.21103616
0.0043124943 0.011491694 0.21326917
0.0038450216 0.0078327116 0.21651548
0.0034501611 0.004566303 0.21783775
0.0031693613 0.00048715767 0.22041211
0.0031888634 -0.0026181382 0.22267334
0.005815391 0.024442546 0.20393668
0.006570742 0.021416519 0.20609556
0.0066872318 0.018371115 0.20847386
0.0065868599 0.014589029 0.21133086
0 0 0 1 0 0 0 1 0 0 0 1 0 0 0 0 0 354 1 0 0
