ply
format ascii 1.0
comment PCL generated
element vertex 354
property float x
property float y
property float z
element camera 1
property float view_px
property float view_py
property float view_pz
property float x_axisx
property float x_axisy
property float x_axisz
property float y_axisx
property float y_axisy
property float y_axisz
property float z_axisx
property float z_axisy
property float z_axisz
property float focal
property float scalex
property float scaley
property float centerx
property float centery
property int viewportx
property int viewporty
property float k1
property float k2
end_header
-0.057842147 0.02480313 0.19092445
-0.058586746 0.021899175 0.19239058
-0.059774347 0.018741827 0.19368117
-0.060773391 0.015665388 0.19545491
-0.06082987 0.013098336 0.19725163
-0.053857464 0.029166734 0.18700877
-0.054590512 0.0275975 0.18801084
-0.054915626 0.025039501 0.18928666
-0.054908425 0.022385459 0.1904957
-0.056105457 0.019357119 0.19244227
-0.057653505 0.016036535 0.19464287
-0.058914445 0.012770951 0.19694997
-0.059045166 0.009906685 0.1986749
-0.058006085 0.0066882474 0.20165555
-0.050325692 0.031485558 0.18432932
-0.050853398 0.029959282 0.18536627
-0.051244605 0.027780341 0.18652277
-0.051403794 0.025404301 0.18799613
-0.05117587 0.022629391 0.18981372
-0.052227534 0.01934799 0.19217055
-0.053162366 0.016326232 0.19395025
-0.054783307 0.013675207 0.19599362
-0.056070294 0.010336885 0.19931254
-0.054960936 0.0042827576 0.20334367
-0.053512968 -0.0015686073 0.20377347
-0.052495293 -0.0055473666 0.20498477
-0.048238538 0.032088716 0.18316057
-0.048180737 0.030054336 0.1844541
-0.048098043 0.027858125 0.18591933
-0.048169468 0.025503183 0.18800597
-0.048340775 0.022579413 0.19022825
-0.0487963 0.019508213 0.19251457
-0.049296144 0.016935483 0.19442067
-0.050672896 0.014114161 0.19659972
-0.052178435 0.010498016 0.19994891
-0.05051899 0.0020154968 0.20041606
-0.049797859 -0.0036933492 0.20188124
-0.04991157 -0.0063451971 0.20499539
-0.050854873 -0.0082166679 0.20667511
-0.052663464 -0.0089480886 0.20779786
-0.045915335 0.034486055 0.18224387
-0.045750603 0.032685854 0.18307804
-0.045508564 0.0304874 0.18453866
-0.045418441 0.028401561 0.18629603
-0.045530807 0.02601843 0.18810575
-0.045837641 0.023118116 0.18982126
-0.04617941 0.020104146 0.19271867
-0.046371087 0.017542724 0.19455397
-0.046921238 0.014889739 0.19722919
-0.046933129 0.0091582043 0.19937977
-0.047447208 0.0026113738 0.1982595
-0.046710469 -0.003881773 0.20090188
-0.04713184 -0.0055432012 0.20520258
-0.048364591 -0.0068933759 0.20738299
-0.051141016 -0.0090660946 0.20900793
-0.053852633 -0.01070702 0.2127863
-0.055365358 -0.011294972 0.21769165
-0.055861473 -0.01248881 0.22151363
-0.044061661 0.035710216 0.18187508
-0.043437719 0.03341255 0.18331154
-0.043120399 0.03124618 0.18481968
-0.043171942 0.029201278 0.18634526
-0.043573819 0.026863843 0.18800545
-0.043471768 0.023875345 0.19001359
-0.043196272 0.020405751 0.19247665
-0.043270003 0.017493865 0.19440991
-0.043598451 0.014930613 0.19751066
-0.043645836 0.0099968333 0.19912642
-0.043888696 0.0030842654 0.197493
-0.043654483 -0.0021632698 0.19946846
-0.043857448 -0.0044597588 0.20429921
-0.044808976 -0.006384776 0.20756082
-0.048120085 -0.0088744666 0.21050365
-0.051358506 -0.010120519 0.21428271
-0.052893065 -0.011149619 0.21864606
-0.054078367 -0.012635238 0.22229764
-0.05352544 -0.014763178 0.22674738
-0.052476685 -0.017129498 0.22972284
-0.042348623 0.039366856 0.18008943
-0.041963805 0.037404601 0.1815512
-0.041277438 0.0347609 0.18320961
-0.040784046 0.032524895 0.18474016
-0.040621452 0.030381182 0.18638481
-0.040831279 0.027659744 0.18835539
-0.040578701 0.024632346 0.19017224
-0.040092174 0.020832825 0.19254914
-0.039914094 0.01784963 0.19484396
-0.039675832 0.014962799 0.19730982
-0.040355671 0.010279663 0.19904435
-0.04071907 0.00384562 0.1980592
-0.040317509 -0.0009087756 0.19943236
-0.040539112 -0.0035057419 0.20261566
-0.0418447 -0.0054459558 0.20834075
-0.0452362 -0.0087308874 0.21175088
-0.04870946 -0.0098944586 0.215252
-0.049733259 -0.011014254 0.21949422
-0.050587334 -0.013113672 0.22323126
-0.050023962 -0.016054291 0.22627249
-0.050083335 -0.01904241 0.22874869
-0.049599852 -0.021401729 0.23052379
-0.038889017 0.040861979 0.17971158
-0.038723063 0.039224554 0.1810246
-0.038308341 0.036622703 0.18273252
-0.038061734 0.033861689 0.18468845
-0.037118614 0.030835431 0.18724275
-0.036889661 0.027705388 0.18954831
-0.03705601 0.024883887 0.19120041
-0.037086204 0.021541271 0.19349939
-0.036746107 0.018502241 0.19638051
-0.036974277 0.014934824 0.19863252
-0.037855618 0.010206484 0.1998613
-0.038053531 0.0043344167 0.19905871
-0.038290575 0.00070723065 0.19996612
-0.038107578 -0.0025462697 0.20284933
-0.039681278 -0.0048728967 0.20938912
-0.043154314 -0.0082025807 0.21397074
-0.045071948 -0.0098203998 0.21621883
-0.04608706 -0.011327468 0.22031945
-0.046479855 -0.014256415 0.22342297
-0.046168111 -0.01795717 0.22542985
-0.046149801 -0.02095641 0.22720753
-0.046205953 -0.023483422 0.2292764
-0.033841539 0.042483885 0.17934795
-0.033909701 0.040901702 0.18064617
-0.033762135 0.038448289 0.18258035
-0.03332499 0.034316108 0.18605545
-0.033502944 0.030690268 0.18884075
-0.033295348 0.027838252 0.19093759
-0.033258162 0.024949351 0.19281188
-0.03335559 0.022046516 0.19489704
-0.033823818 0.019009488 0.19798128
-0.034621846 0.015207799 0.20022738
-0.035267282 0.010621944 0.20125742
-0.035772912 0.0045435107 0.20073332
-0.036148068 0.0010688148 0.20196016
-0.036540799 -0.0018421632 0.2050108
-0.038973615 -0.0044714785 0.21112858
-0.04117972 -0.0070806942 0.21619473
-0.04270133 -0.010122822 0.21819331
-0.043175448 -0.012490708 0.22077917
-0.042876635 -0.016313249 0.22256759
-0.042410746 -0.020100284 0.22428434
-0.042291533 -0.02279079 0.22596924
-0.042376205 -0.025025804 0.22837374
-0.02893897 0.042824488 0.17941043
-0.028621759 0.0412452 0.1807508
-0.028653678 0.038821951 0.18297738
-0.029449828 0.034482405 0.18747972
-0.030272322 0.030783173 0.19024342
-0.030194249 0.027873917 0.19210397
-0.030071625 0.025167247 0.19395955
-0.029900264 0.022594701 0.19612829
-0.03012681 0.019536745 0.19994505
-0.031737059 0.016073238 0.20260642
-0.033000838 0.0097293947 0.20295586
-0.033366766 0.0048799259 0.20327906
-0.03333097 0.0019524968 0.20559658
-0.034268595 -0.00083538587 0.20853972
-0.035740383 -0.0038749131 0.21341096
-0.037551347 -0.007125638 0.21746592
-0.039381851 -0.01112399 0.2191132
-0.040617105 -0.015126212 0.22119457
-0.039325956 -0.018868057 0.22130986
-0.038585644 -0.021155462 0.22383049
-0.038269047 -0.023574023 0.22608039
-0.037531555 -0.026198423 0.22957563
-0.035978187 -0.028146733 0.23212713
-0.024605392 0.042582568 0.18024094
-0.024654534 0.041041918 0.18147953
-0.024495274 0.038389158 0.18327925
-0.025402198 0.035343841 0.18646739
-0.02719526 0.031081434 0.19049941
-0.027199587 0.028044358 0.19296664
-0.026930463 0.025567997 0.19491096
-0.02672803 0.022938622 0.19782695
-0.026734941 0.020447388 0.20080598
-0.028798725 0.01720448 0.20339878
-0.030275546 0.012522564 0.20608217
-0.030130083 0.0079206815 0.20641939
-0.030387631 0.0041771545 0.20816717
-0.031106021 0.00084111432 0.21137083
-0.032542247 -0.0026924177 0.21458636
-0.033852596 -0.0065855617 0.2184273
-0.035198648 -0.01147018 0.2206153
-0.036062922 -0.016438212 0.22155811
-0.034961272 -0.019193647 0.22198901
-0.033770341 -0.021751292 0.22508572
-0.033129469 -0.024183972 0.2274022
-0.032869976 -0.026451439 0.2298965
-0.03232792 -0.029129783 0.23121275
-0.021406716 0.042620182 0.18071067
-0.021180652 0.040998694 0.18179913
-0.021184882 0.038396664 0.18333472
-0.021152925 0.035983272 0.18523431
-0.023078315 0.031660501 0.19002393
-0.023784325 0.0286489 0.19333281
-0.02365014 0.026346857 0.19580041
-0.023140483 0.023886314 0.19891527
-0.023772579 0.020774316 0.20201588
-0.025951643 0.01746078 0.20438096
-0.026652727 0.013741239 0.20756879
-0.02665212 0.010245625 0.20900954
-0.027164256 0.0060305074 0.21045439
-0.027880119 0.0022033793 0.21340075
-0.02948701 -0.0016975307 0.21609484
-0.030159475 -0.005564976 0.21914186
-0.030614413 -0.011154531 0.22139609
-0.03084497 -0.016671998 0.22339498
-0.030745495 -0.019854547 0.22534864
-0.029927287 -0.022004215 0.22773531
-0.029195294 -0.023744013 0.22894748
-0.029086892 -0.025636937 0.23069811
-0.029028066 -0.028598659 0.23275332
-0.018413877 0.040825211 0.1826268
-0.017968044 0.03862074 0.18424906
-0.018028138 0.036014322 0.18593955
-0.019030346 0.032568909 0.18972261
-0.020229788 0.029405095 0.19355638
-0.020094445 0.027169585 0.19617376
-0.019959947 0.024819396 0.19952148
-0.021120364 0.020664107 0.20268363
-0.022665137 0.017313359 0.20536794
-0.023168268 0.014114584 0.20828624
-0.023386423 0.011110939 0.21032278
-0.023686193 0.0074969037 0.21237963
-0.024379104 0.0034232773 0.21492204
-0.025893005 -0.0014160982 0.21804234
-0.026087604 -0.0052925753 0.22042684
-0.026420636 -0.010094534 0.22249044
-0.027015558 -0.01520422 0.22519691
-0.027264776 -0.018655846 0.22703223
-0.026463982 -0.020974569 0.22899728
-0.02542297 -0.022902124 0.22951193
-0.025394084 -0.025407869 0.2304959
-0.025313595 -0.028808024 0.23431914
-0.015048122 0.039151881 0.18512495
-0.01500843 0.036486618 0.1869155
-0.01579541 0.03312758 0.18994659
-0.016465675 0.030336536 0.19369568
-0.016515302 0.028134601 0.19677195
-0.016395215 0.025948333 0.201322
-0.017768906 0.021095278 0.20488155
-0.018457789 0.017446259 0.20674066
-0.019389261 0.014367994 0.20847978
-0.019884342 0.011825345 0.210632
-0.019646568 0.008248793 0.21352907
-0.019105056 0.0053915218 0.21593232
-0.02021298 0.00076453213 0.21924227
-0.022359403 -0.0051170718 0.22206303
-0.023290727 -0.010122282 0.22494736
-0.023336705 -0.013884098 0.22649103
-0.023504708 -0.017395789 0.22781634
-0.02314363 -0.020094831 0.22934985
-0.022221517 -0.022528702 0.2295431
-0.021910051 -0.025188008 0.23133221
-0.021208854 -0.029343344 0.23722418
-0.012417808 0.036716931 0.18818331
-0.012438326 0.034216512 0.19055608
-0.012787648 0.031612705 0.19403289
-0.012668782 0.029459178 0.19725208
-0.012993411 0.026548598 0.20179102
-0.013886762 0.022399507 0.20590134
-0.01419461 0.018978182 0.20788966
-0.014646911 0.015605058 0.20954698
-0.01602922 0.012156094 0.21165444
-0.015588949 0.008817588 0.214228
-0.015353587 0.0059203235 0.21659225
-0.014850174 0.0027923519 0.21940111
-0.018386818 -0.0043506674 0.22402494
-0.019627294 -0.0091145914 0.22638507
-0.019813905 -0.012358881 0.2273889
-0.019126197 -0.015211269 0.22832794
-0.018986292 -0.018476726 0.22970073
-0.018680215 -0.021762313 0.23020248
-0.017858541 -0.025336893 0.23390339
-0.017072629 -0.02961015 0.23970801
-0.010197342 0.034206994 0.19175729
-0.0094540333 0.032353915 0.19474921
-0.0090239523 0.03021186 0.19822241
-0.0090366062 0.026663033 0.20262508
-0.009877977 0.023385465 0.2067325
-0.010230065 0.020270068 0.20923777
-0.010505898 0.016549509 0.21109369
-0.011883503 0.01283782 0.21268128
-0.0115379 0.0092684915 0.21463983
-0.011160596 0.0059632575 0.21749559
-0.01063153 0.0031785618 0.22042859
-0.011181174 -0.0010620811 0.22371803
-0.014182894 -0.0078016245 0.22710922
-0.014233931 -0.01100115 0.22806135
-0.014215357 -0.014364126 0.22975481
-0.014835891 -0.018209742 0.23179632
-0.015034311 -0.021498701 0.23296407
-0.014005015 -0.025103031 0.23672357
-0.013590919 -0.028991904 0.24150999
-0.0059673833 0.032498963 0.19715588
-0.0056063198 0.030206237 0.20041405
-0.0052788849 0.026282959 0.20493551
-0.0059561222 0.023371322 0.20752294
-0.0063747526 0.020708393 0.2096986
-0.0068781022 0.01670704 0.21189302
-0.0075892559 0.012806194 0.21320917
-0.00775945 0.0094819926 0.21502885
-0.0073200292 0.0065444135 0.21799296
-0.0072850673 0.0035180266 0.22090876
-0.0068674325 -0.00046651202 0.22357513
-0.0075950553 -0.0062485561 0.22647248
-0.0086096041 -0.011008773 0.22867711
-0.0098479325 -0.014711376 0.23087479
-0.010746707 -0.018171757 0.23292029
-0.011142704 -0.021075442 0.23505597
-0.011019067 -0.023907539 0.23695761
-0.0033790406 0.031904012 0.19942974
-0.0024619156 0.029547345 0.20169294
-0.0020787555 0.026141869 0.20519857
-0.0023274929 0.023228189 0.20733753
-0.002690725 0.020518191 0.20932421
-0.003588134 0.016678963 0.21214697
-0.003978848 0.01308669 0.21377572
-0.0041373973 0.0097405482 0.21568438
-0.0039653298 0.0069388058 0.21790789
-0.0036781125 0.0035764137 0.22037451
-0.0034641167 -0.00103006 0.22375447
-0.0032728594 -0.0055954717 0.22531788
-0.0049030487 -0.01091474 0.22852398
-0.005790404 -0.014571308 0.23058927
-0.0071265665 -0.017835243 0.23281893
0.00066693302 0.028273165 0.20284598
0.0010167122 0.025765331 0.20521988
0.00068274915 0.022911102 0.20722973
0.00062135217 0.019998439 0.20921654
-5.9592134e-05 0.016451223 0.21132068
-0.00021308845 0.013079914 0.21322258
-0.00014735771 0.010278258 0.21529853
-0.00023927436 0.0071720332 0.21741514
-8.5427462e-05 0.0037310508 0.21923512
1.5696887e-06 -0.0006868022 0.22254607
0.00063877273 -0.0052675176 0.22452632
-0.0011811203 -0.010018282 0.22773337
-0.0034232165 -0.013727416 0.23029448
0.0035179455 0.02508436 0.20576362
0.0037547424 0.022657411 0.20704222
0.003940945 0.019825915 0.20877652
0.0035644013 0.016192248 0.21080798
0.003473626 0.012938451 0.21251266
0.00341961 0.010261057 0.2143703
0.0029648407 0.0070233974 0.21714021
0.0026134588 0.0042258226 0.2188517
0.0022185973 -0.00038297343 0.22183774
0.0025841016 -0.0037683267 0.22381563
0.0054331459 0.022421729 0.20708407
0.0057618651 0.019143157 0.20901082
0.0060112909 0.016105445 0.2106681
0.0055378778 0.012705302 0.2126576
0 0 0 1 0 0 0 1 0 0 0 1 0 0 0 0 0 354 1 0 0
