ply
format ascii 1.0
comment PCL generated
element vertex 354
property float x
property float y
property float z
element camera 1
property float view_px
property float view_py
property float view_pz
property float x_axisx
property float x_axisy
property float x_axisz
property float y_axisx
property float y_axisy
property float y_axisz
property float z_axisx
property float z_axisy
property float z_axisz
property float focal
property float scalex
property float scaley
property float centerx
property float centery
property int viewportx
property int viewporty
property float k1
property float k2
end_header
-0.058095232 0.024667554 0.19073637
-0.058820345 0.021733163 0.19227958
-0.059936415 0.018543115 0.19366805
-0.060834713 0.015502581 0.1956699
-0.060807757 0.01298248 0.19760078
-0.053964101 0.029037829 0.18678515
-0.054793563 0.02746723 0.18781872
-0.055145603 0.024948593 0.18919599
-0.055127066 0.022292621 0.19051793
-0.056289915 0.01919212 0.19240089
-0.057761736 0.015835594 0.19465643
-0.058907997 0.012641191 0.19722137
-0.058934756 0.0098549668 0.19915189
-0.057744931 0.0067406818 0.2022303
-0.050160985 0.03120097 0.18411519
-0.050805826 0.029758247 0.1852295
-0.051285047 0.02764741 0.18650435
-0.051573005 0.025336292 0.18807808
-0.051365498 0.022584269 0.18996276
-0.052408721 0.019174002 0.19215745
-0.053304538 0.016080655 0.1938283
-0.054848909 0.013460683 0.1959891
-0.055943005 0.010283956 0.19966899
-0.054647312 0.0043739048 0.20372444
-0.053289566 -0.001474934 0.20393193
-0.052303564 -0.0054737232 0.20501202
-0.047996357 0.031552944 0.18279763
-0.048072278 0.02969191 0.18435548
-0.048126273 0.027628098 0.18598671
-0.048303101 0.025415935 0.18821582
-0.048467372 0.022321977 0.19033989
-0.048950132 0.019165853 0.19251996
-0.049419351 0.016579617 0.19434834
-0.050776064 0.013752265 0.19646284
-0.052042153 0.010365939 0.200119
-0.050448053 0.002239699 0.20050229
-0.049753413 -0.0036298598 0.20175788
-0.049755655 -0.0063148183 0.20485313
-0.05062905 -0.0081936317 0.20650861
-0.052436665 -0.0089736907 0.20755869
-0.045558851 0.033670373 0.18131034
-0.045449648 0.031939503 0.18246806
-0.045338832 0.029962528 0.18428001
-0.0454106 0.028117534 0.18629545
-0.045654457 0.025881084 0.18835227
-0.045973111 0.02290152 0.1900783
-0.046349954 0.019701516 0.1927879
-0.046504214 0.017152272 0.19459392
-0.047035594 0.014487671 0.19703121
-0.046967998 0.0089743314 0.19873638
-0.047749132 0.0030338564 0.19789155
-0.046816427 -0.00384807 0.20046516
-0.046977211 -0.005565383 0.20488735
-0.048131756 -0.0069071418 0.20720926
-0.050944425 -0.0091437437 0.20874856
-0.053771615 -0.011002256 0.21220163
-0.055555865 -0.011922817 0.21678182
-0.056305498 -0.013380872 0.22036025
-0.043721151 0.034846794 0.18076046
-0.043122571 0.032617029 0.18249477
-0.042944901 0.030611508 0.18441269
-0.043180816 0.028778318 0.18632336
-0.043722361 0.026711324 0.18824247
-0.043706171 0.023812316 0.19048461
-0.043386333 0.020111123 0.19278185
-0.043455876 0.017201351 0.19463892
-0.043745898 0.014641939 0.19750208
-0.043776374 0.0097425971 0.19835611
-0.044204421 0.0033527226 0.19649307
-0.043912321 -0.0021319059 0.19868372
-0.043793838 -0.0045386711 0.20368938
-0.044576462 -0.0064321775 0.20728156
-0.047984622 -0.0089813955 0.21034032
-0.051386379 -0.010425601 0.21384875
-0.053168811 -0.011756774 0.21790846
-0.054603551 -0.013530051 0.22124526
-0.054468751 -0.015956067 0.22537732
-0.053651083 -0.018363899 0.22831815
-0.042106532 0.038690235 0.17885748
-0.041685782 0.036635436 0.18029109
-0.040961668 0.033965051 0.18215486
-0.040552046 0.031790521 0.18406127
-0.040602744 0.029869841 0.18626477
-0.041032415 0.027508667 0.18870729
-0.040893402 0.024718817 0.19086893
-0.040343847 0.020765683 0.19315431
-0.040160351 0.017861202 0.19569397
-0.039930839 0.01507243 0.19832297
-0.040621586 0.010228695 0.19909087
-0.04083658 0.003915533 0.19698825
-0.040560115 -0.00097460527 0.19857727
-0.040634971 -0.0036444331 0.20174971
-0.041605562 -0.0055541703 0.20792775
-0.045156363 -0.0088414047 0.21169761
-0.048808299 -0.010170171 0.21497212
-0.050095305 -0.011568041 0.21899153
-0.051224701 -0.013978462 0.22239526
-0.050893575 -0.017033784 0.22519159
-0.051077798 -0.020106016 0.22755513
-0.050668359 -0.02251141 0.22931042
-0.038814638 0.040638544 0.1791082
-0.038600668 0.03887175 0.18021366
-0.038093761 0.036075156 0.18169796
-0.037837423 0.033162687 0.18374905
-0.037200965 0.030484032 0.18736818
-0.037085973 0.02768559 0.19011834
-0.037314914 0.02501327 0.1920211
-0.037392888 0.021709897 0.19448584
-0.036977425 0.018580701 0.19758835
-0.037171565 0.01490141 0.19961113
-0.038204983 0.010096452 0.20021106
-0.038346808 0.0042833653 0.19841881
-0.038548652 0.00056319288 0.19908091
-0.038225383 -0.0028040553 0.20186569
-0.039594311 -0.0051546996 0.20910919
-0.043192219 -0.0084740529 0.21412194
-0.045238458 -0.01003832 0.21615651
-0.046532549 -0.01179085 0.22010857
-0.047138438 -0.014953484 0.22290008
-0.046895217 -0.018666983 0.22469781
-0.04691482 -0.021744108 0.22644371
-0.047030926 -0.024401108 0.22849876
-0.034045462 0.042906288 0.17960419
-0.03407228 0.041212831 0.18074144
-0.033865038 0.038599245 0.18241797
-0.033370011 0.034149874 0.18598416
-0.033590451 0.030572759 0.18921517
-0.033395931 0.027882854 0.1915312
-0.033425502 0.02510133 0.19355151
-0.033555176 0.022282897 0.19583817
-0.033914208 0.018912263 0.19902155
-0.03470885 0.014988887 0.20108405
-0.035516541 0.010337495 0.20164067
-0.036140192 0.0043103634 0.20017718
-0.036386933 0.00074996799 0.20104714
-0.036555745 -0.0023185196 0.20403057
-0.038982354 -0.0047614407 0.21113788
-0.041351423 -0.0075226203 0.21672963
-0.042989835 -0.010363877 0.21891771
-0.043597933 -0.012709315 0.22136255
-0.043398421 -0.016651087 0.22254491
-0.042987697 -0.02052263 0.22422932
-0.042858548 -0.023307687 0.22586949
-0.042987712 -0.025714083 0.22811161
-0.029257784 0.043451879 0.17991801
-0.028894803 0.041783802 0.18112615
-0.028841382 0.03918701 0.18318056
-0.029527185 0.034488764 0.18765402
-0.03036131 0.030820448 0.19064167
-0.030268669 0.027993018 0.19259307
-0.030131299 0.025296016 0.19449839
-0.02993509 0.022751838 0.1965557
-0.029989013 0.019325169 0.20020054
-0.031556178 0.015603423 0.202986
-0.033090796 0.0092310896 0.20290665
-0.033523403 0.0043763989 0.20254396
-0.033142958 0.0013177843 0.20464571
-0.034077637 -0.0013455664 0.20801914
-0.03579855 -0.0040512187 0.21362726
-0.037733968 -0.00738648 0.21804565
-0.039693411 -0.011371589 0.22022548
-0.041096151 -0.015109067 0.2224458
-0.039894637 -0.0186991 0.22235836
-0.039169718 -0.021164889 0.22446664
-0.038801629 -0.023793265 0.22645755
-0.038075827 -0.026668796 0.22974363
-0.036524422 -0.028677607 0.23225537
-0.024941554 0.043246403 0.18084258
-0.024948243 0.04162411 0.18196426
-0.024747901 0.038880836 0.18369253
-0.025560776 0.035659224 0.18675397
-0.027275955 0.031195438 0.19088648
-0.02724454 0.028156931 0.19333532
-0.026952695 0.025669053 0.195205
-0.026665311 0.022944031 0.19797379
-0.026556771 0.020375751 0.20056048
-0.028535532 0.0169448 0.20298399
-0.029963296 0.012085559 0.20518956
-0.029608956 0.0071971426 0.20537499
-0.029951667 0.0035919752 0.207358
-0.030961478 0.000497423 0.21102078
-0.032570172 -0.002834016 0.21467806
-0.033995394 -0.0066216318 0.21890779
-0.035512339 -0.01158869 0.22171949
-0.036740795 -0.016261959 0.22336391
-0.035713952 -0.018747972 0.22355744
-0.034451902 -0.021527596 0.22622435
-0.033710349 -0.024138024 0.22823358
-0.033383824 -0.026553089 0.23043299
-0.032673024 -0.029225541 0.23166564
-0.02181682 0.043421432 0.18151999
-0.021596445 0.041783005 0.18254095
-0.021585086 0.039154552 0.18403469
-0.021540388 0.036751404 0.18598005
-0.023213523 0.031982034 0.19042619
-0.023834245 0.028743269 0.19353658
-0.023638796 0.026374236 0.19590279
-0.023041163 0.023819432 0.19879971
-0.023595285 0.020729471 0.20164058
-0.025747996 0.017335648 0.20358513
-0.026397539 0.013367509 0.20658757
-0.026303548 0.0097287735 0.20800245
-0.026843833 0.0055544535 0.20973085
-0.027794573 0.0019539592 0.21306705
-0.029506758 -0.0017974505 0.21616203
-0.030215874 -0.0055406769 0.21945482
-0.030796381 -0.011238096 0.22197445
-0.031695906 -0.016608495 0.224534
-0.031505328 -0.01968825 0.2264946
-0.030399306 -0.021768419 0.22874042
-0.02965557 -0.023660347 0.22975345
-0.029430699 -0.025578009 0.23140381
-0.029278835 -0.028619576 0.23323399
-0.018884385 0.041729718 0.18355659
-0.018434441 0.039520729 0.18516462
-0.018479856 0.036876414 0.18678528
-0.01924688 0.033053059 0.19008988
-0.020247325 0.029510519 0.19349611
-0.020046027 0.027176153 0.19603965
-0.019844642 0.024744699 0.19932429
-0.020973157 0.020655427 0.20234576
-0.022502795 0.017224299 0.20469931
-0.023008937 0.013856098 0.20746583
-0.023119422 0.010687842 0.20943731
-0.023497144 0.0071265246 0.21171467
-0.024387728 0.0033435703 0.21468784
-0.025894104 -0.0014776138 0.21811488
-0.025998292 -0.0053761029 0.22048506
-0.026336204 -0.010398817 0.22227985
-0.027360501 -0.015540536 0.22501825
-0.027707474 -0.018686339 0.22736064
-0.026807705 -0.020900402 0.2294704
-0.02581761 -0.022892814 0.23013566
-0.025743872 -0.025355896 0.23111194
-0.025489751 -0.028769689 0.23481123
-0.015569384 0.0401222 0.18616125
-0.015446446 0.037356071 0.18775238
-0.016031574 0.033652246 0.19030418
-0.016494248 0.030502044 0.19350713
-0.016405825 0.028136771 0.19643413
-0.016288811 0.025707303 0.20103845
-0.017711755 0.02095584 0.20466526
-0.018358983 0.017292874 0.20632905
-0.019268714 0.014145432 0.20782536
-0.019718321 0.011375648 0.20983618
-0.019559825 0.0079796091 0.21300302
-0.019212615 0.0055013546 0.21586128
-0.020270905 0.00093541923 0.219322
-0.022155851 -0.0053642159 0.22192651
-0.023164051 -0.010565965 0.22455366
-0.023437928 -0.01439802 0.22598445
-0.023773024 -0.017731199 0.22744377
-0.023437461 -0.020246292 0.22947696
-0.022602011 -0.022489758 0.23013006
-0.022235792 -0.025022181 0.23185508
-0.02125573 -0.028911421 0.23723371
-0.012827701 0.037494846 0.18886523
-0.012657605 0.034670044 0.19078441
-0.012835851 0.031693503 0.19369683
-0.012638267 0.02935721 0.19672106
-0.012950293 0.026193043 0.20131949
-0.013833228 0.022135925 0.20562834
-0.014106502 0.018671066 0.20750727
-0.01451092 0.015165593 0.20891997
-0.015893633 0.01168042 0.21083283
-0.015568073 0.0086130174 0.21372433
-0.015411608 0.0059477226 0.21641289
-0.014971646 0.0029607113 0.21932924
-0.018172335 -0.0046836892 0.22380206
-0.019582357 -0.0095636919 0.22616403
-0.019888088 -0.01281482 0.2271623
-0.019267438 -0.015518271 0.22827412
-0.019020116 -0.018732324 0.22956762
-0.018791309 -0.021831963 0.23018576
-0.017840946 -0.02527249 0.23393057
-0.016720213 -0.0293197 0.23984915
-0.010319084 0.034339521 0.19146736
-0.0094756139 0.032259863 0.19416469
-0.0089578684 0.029937025 0.19746996
-0.0089685833 0.026149353 0.20187336
-0.0097627826 0.023007683 0.20628251
-0.010052081 0.019919718 0.2087447
-0.010349297 0.016109193 0.21041338
-0.011830735 0.012480204 0.21188898
-0.011525534 0.0091145877 0.21415073
-0.011240328 0.0059692007 0.21732032
-0.010626663 0.0030336778 0.22003159
-0.011128481 -0.0014020242 0.2229201
-0.014350164 -0.0079990234 0.22706269
-0.014482653 -0.01106027 0.22830048
-0.014384741 -0.014362465 0.22997141
-0.014723813 -0.018344838 0.23163645
-0.014846762 -0.021745929 0.23244601
-0.013634934 -0.025156396 0.23619212
-0.013081905 -0.028728118 0.24136084
-0.0058799423 0.032159004 0.19632865
-0.0054628639 0.029672811 0.1994009
-0.005215494 0.025756557 0.20394634
-0.0058635781 0.022978537 0.20687884
-0.006258613 0.020362848 0.20911822
-0.0068566161 0.016450757 0.21125568
-0.007659032 0.012619171 0.21262725
-0.0078141587 0.0093890531 0.2145694
-0.0073626074 0.0064462381 0.2175964
-0.0072287545 0.0032009233 0.22014743
-0.0068351105 -0.00079393294 0.22222698
-0.0076659019 -0.0062714666 0.22509445
-0.0088053485 -0.010757713 0.22837573
-0.009874668 -0.014596903 0.23072113
-0.010490729 -0.018251196 0.2324505
-0.010696583 -0.021279788 0.2342312
-0.010518276 -0.024106938 0.23606466
-0.003220961 0.031343099 0.19839716
-0.0023145447 0.028906809 0.20049492
-0.0020640641 0.025708066 0.20420507
-0.0023695193 0.022872129 0.20650318
-0.0027468149 0.020095775 0.2084751
-0.0035680858 0.016346162 0.2113429
-0.0040132189 0.012846756 0.21301885
-0.0041759475 0.0095067071 0.21489587
-0.0039889826 0.0066996086 0.21706665
-0.0036702533 0.003136453 0.21910018
-0.003473154 -0.0012876739 0.22204345
-0.0032969902 -0.0056859977 0.22347791
-0.0049719061 -0.010703647 0.22751285
-0.0057731816 -0.01443482 0.22987543
-0.006892676 -0.017894536 0.23200667
0.00076093076 0.027767902 0.20177744
0.0010078625 0.025410878 0.20430793
0.00059005775 0.022507021 0.20628905
0.00051337155 0.019451676 0.20808861
-0.00011387531 0.015981542 0.21031174
-0.00024048684 0.012884963 0.21249191
-0.00012589603 0.010191926 0.21449213
-0.00022228657 0.0069465232 0.21631834
-0.0001391556 0.0032976065 0.21762298
-6.6245957e-05 -0.00091762812 0.22060321
0.00058708037 -0.0053754309 0.22251654
-0.0012310306 -0.0099201528 0.22614987
-0.0034125466 -0.013606491 0.22921233
0.0034385305 0.024768809 0.20484555
0.0036347953 0.022202095 0.20599693
0.0037947812 0.0191887 0.20745674
0.0035152831 0.015804045 0.20995007
0.0034782917 0.012845721 0.21193168
0.003441795 0.010322871 0.21380039
0.0030182907 0.006989012 0.21627158
0.0026556032 0.0039480259 0.21743587
0.0021259573 -0.00062288804 0.21981369
0.0025218895 -0.0039308039 0.22175114
0.0052959649 0.021936936 0.20596489
0.0056582117 0.018554965 0.207801
0.0059959837 0.01586871 0.21010236
0.005496907 0.01255334 0.21225661
0 0 0 1 0 0 0 1 0 0 0 1 0 0 0 0 0 354 1 0 0
