ply
format ascii 1.0
comment PCL generated
element vertex 354
property float x
property float y
property float z
element camera 1
property float view_px
property float view_py
property float view_pz
property float x_axisx
property float x_axisy
property float x_axisz
property float y_axisx
property float y_axisy
property float y_axisz
property float z_axisx
property float z_axisy
property float z_axisz
property float focal
property float scalex
property float scaley
property float centerx
property float centery
property int viewportx
property int viewporty
property float k1
property float k2
end_header
-0.058104731 0.024684282 0.19091339
-0.058826718 0.021939756 0.19280533
-0.059968103 0.018831998 0.19431689
-0.06096033 0.015625866 0.19590834
-0.06100858 0.012966707 0.19755974
-0.053914081 0.028778851 0.18670198
-0.054763302 0.027265392 0.18776932
-0.055135328 0.024867922 0.18933389
-0.05513224 0.022400793 0.1910198
-0.056289334 0.019508079 0.19328079
-0.057827659 0.016079385 0.1952623
-0.059078738 0.0126707 0.19728877
-0.059196237 0.0097495448 0.19890244
-0.058160882 0.0065218313 0.201773
-0.050052661 0.03103341 0.18432917
-0.050698344 0.029563325 0.18536532
-0.051179405 0.027447272 0.18659642
-0.051503867 0.025196021 0.18824522
-0.051363047 0.022644047 0.19047798
-0.052388627 0.01935254 0.19293965
-0.053301774 0.016283458 0.19460221
-0.054930374 0.013596877 0.19644289
-0.056248259 0.010207896 0.19958912
-0.055098206 0.004267545 0.20340434
-0.053513028 -0.0014498263 0.20390664
-0.052417353 -0.0053134924 0.20528916
-0.047873922 0.031567298 0.18325897
-0.047927789 0.02963303 0.1846738
-0.047988348 0.027542347 0.18628125
-0.048208378 0.025326353 0.18852271
-0.048476726 0.022356993 0.19082789
-0.048974607 0.019238215 0.19308795
-0.049420241 0.016643507 0.19490804
-0.050781302 0.013740373 0.19695438
-0.052311536 0.010295807 0.20026653
-0.050575037 0.0022124317 0.20058385
-0.049740717 -0.0035494023 0.20210476
-0.04982093 -0.0060348045 0.20537427
-0.050664473 -0.0078249322 0.20715125
-0.052461244 -0.0086517623 0.20815201
-0.04551094 0.03379992 0.18214796
-0.045356248 0.032094412 0.18318982
-0.045241382 0.030064732 0.18480805
-0.045303531 0.028116798 0.18667422
-0.045541499 0.025805537 0.18861493
-0.045945417 0.022872966 0.1904005
-0.046411794 0.019829163 0.19328833
-0.046556506 0.017239675 0.19513625
-0.047080413 0.014512281 0.19762756
-0.046977036 0.0090675941 0.19960515
-0.047619414 0.0030677707 0.19837911
-0.046725158 -0.003717619 0.20103659
-0.047089756 -0.0051867217 0.20552526
-0.048302144 -0.006368333 0.20791076
-0.051051978 -0.0086192926 0.20947735
-0.054062523 -0.01035927 0.21291924
-0.056050725 -0.011212073 0.21745622
-0.056960694 -0.012694394 0.22099793
-0.043635797 0.034943756 0.18163757
-0.043066826 0.032805007 0.18335517
-0.042886611 0.030790124 0.18508606
-0.04311122 0.0288481 0.18672298
-0.043589208 0.02665069 0.18844467
-0.043583311 0.023675513 0.1905968
-0.043439005 0.020239741 0.19322616
-0.043519929 0.017376604 0.19522537
-0.043802582 0.014774899 0.1983076
-0.043802958 0.0099068275 0.19951846
-0.044009853 0.0034634257 0.19731289
-0.04376528 -0.0019966529 0.19942591
-0.043889068 -0.0041741966 0.20446166
-0.044801842 -0.0057319906 0.20817111
-0.04823219 -0.0081462851 0.21126287
-0.051810354 -0.0096043153 0.21467568
-0.053760841 -0.010894339 0.2187463
-0.055339493 -0.012738731 0.22202589
-0.055179719 -0.015140374 0.2262902
-0.054022431 -0.01737622 0.22940977
-0.041916601 0.038300794 0.17931488
-0.04156569 0.036463808 0.18099616
-0.040905252 0.034053098 0.18303384
-0.040528856 0.032010376 0.18484254
-0.040514875 0.029978126 0.18661694
-0.040836263 0.027375698 0.18870141
-0.040674955 0.024548359 0.19072779
-0.040351652 0.020882076 0.19346564
-0.040213261 0.018088924 0.19618917
-0.039863002 0.015339605 0.19900174
-0.040507495 0.010463459 0.20000748
-0.040773124 0.004070288 0.19781351
-0.040451415 -0.00080577651 0.19946942
-0.040660106 -0.0033636242 0.20267765
-0.041929293 -0.0047322419 0.20894624
-0.045525841 -0.0077266479 0.21280523
-0.049323253 -0.0091753574 0.21594433
-0.050816774 -0.010474246 0.22009829
-0.052075177 -0.012963755 0.22351478
-0.051483218 -0.016061757 0.22618629
-0.051472604 -0.019132994 0.22853176
-0.050991006 -0.021557096 0.23025677
-0.038495839 0.03989822 0.17892225
-0.038330492 0.038307894 0.18031342
-0.037930466 0.035784364 0.18221804
-0.037773754 0.033217948 0.18448697
-0.037110087 0.03056746 0.18743362
-0.036977027 0.027751742 0.19003439
-0.037221827 0.025141766 0.19200519
-0.037431072 0.022058142 0.19482376
-0.037007127 0.018931847 0.19799362
-0.037025686 0.01525564 0.20012003
-0.037972081 0.010366119 0.20086282
-0.038281575 0.0044309585 0.19910535
-0.038510136 0.00075983442 0.19994237
-0.038280774 -0.0025223305 0.20285127
-0.039968126 -0.0042288206 0.21021739
-0.043786723 -0.0070306188 0.21537684
-0.045869086 -0.0087355319 0.21741247
-0.047403172 -0.010355707 0.22164302
-0.047935151 -0.013751809 0.22417691
-0.047451526 -0.01777414 0.22538531
-0.047397759 -0.020871812 0.22713937
-0.0474471 -0.023548255 0.22921652
-0.033704426 0.042056542 0.17848067
-0.033743523 0.040533401 0.1798777
-0.033565793 0.038176201 0.18195648
-0.033285432 0.03431109 0.18598893
-0.033582348 0.030913083 0.18919747
-0.033427261 0.028313236 0.19160849
-0.033496689 0.025663558 0.19386648
-0.033665821 0.02307306 0.19636804
-0.033889845 0.019415077 0.19934197
-0.034513164 0.015408021 0.20145203
-0.035160199 0.010750186 0.20206812
-0.036070194 0.0045081894 0.20083091
-0.036388766 0.00098370586 0.20187421
-0.036660761 -0.0019711596 0.20501424
-0.039339811 -0.0038109345 0.21220198
-0.042182889 -0.005924663 0.21844684
-0.043903213 -0.0089039439 0.22041547
-0.044558179 -0.011334585 0.22284305
-0.044167686 -0.015812235 0.22303765
-0.043573182 -0.019826651 0.22461675
-0.04338612 -0.022590401 0.22636309
-0.043467674 -0.025020579 0.22859979
-0.029118048 0.043222133 0.17896137
-0.028725198 0.041804358 0.18040726
-0.02871998 0.03956135 0.18283831
-0.02955896 0.03508893 0.18768686
-0.03041051 0.031314474 0.19067401
-0.030325402 0.028544338 0.19270599
-0.030222474 0.02595932 0.19474645
-0.030037476 0.023493694 0.19699571
-0.030048283 0.020055413 0.20057866
-0.031351015 0.016199192 0.20321622
-0.032723032 0.0096186846 0.20320517
-0.033499643 0.0046251728 0.20318191
-0.0332627 0.001658412 0.20535725
-0.03430536 -0.00080070621 0.20865764
-0.036044404 -0.0032618502 0.21442515
-0.038354412 -0.0061730337 0.21956496
-0.040629685 -0.010165538 0.22156081
-0.041943952 -0.014279695 0.22300546
-0.040496048 -0.018123526 0.22255507
-0.039635044 -0.020627478 0.22484189
-0.039272957 -0.023257814 0.22685806
-0.038516458 -0.026257014 0.23003934
-0.036941968 -0.028460484 0.23236915
-0.02484569 0.043728292 0.18044467
-0.024854448 0.042248227 0.18173139
-0.024677886 0.039761052 0.18378191
-0.025533587 0.036628425 0.18700308
-0.027317038 0.031714618 0.19092102
-0.027308274 0.028710838 0.19343843
-0.0270485 0.026277633 0.19537726
-0.026737632 0.023627194 0.19829546
-0.026664972 0.021147296 0.20098753
-0.028581114 0.017657584 0.20328392
-0.030083682 0.012580932 0.20542264
-0.029920718 0.0076030884 0.20580113
-0.030232256 0.0040073199 0.20782638
-0.031223124 0.0010815657 0.21155135
-0.032746978 -0.0022009737 0.21524562
-0.034241337 -0.0058518928 0.21985069
-0.036326438 -0.010708047 0.22285451
-0.037365735 -0.015687449 0.22368413
-0.036117874 -0.018340278 0.22375008
-0.034785479 -0.021225361 0.22638795
-0.034102179 -0.023881406 0.22834961
-0.033810832 -0.026406994 0.23042803
-0.033208288 -0.029204547 0.2312167
-0.021718293 0.044161934 0.18137111
-0.021499522 0.04259637 0.18250212
-0.021503089 0.040045887 0.18411465
-0.0214631 0.037638351 0.18605241
-0.02321049 0.032564122 0.19047496
-0.023857327 0.029192308 0.1935486
-0.023683997 0.026849184 0.19595334
-0.023060599 0.024362998 0.19893353
-0.023670861 0.021396371 0.20189944
-0.025920359 0.01795263 0.20382486
-0.026620384 0.013780182 0.20670976
-0.026625277 0.010139262 0.20824561
-0.027162962 0.0060175774 0.21015209
-0.028028917 0.0024950968 0.21353586
-0.029614324 -0.0013089447 0.21653597
-0.0302299 -0.0051449328 0.21976979
-0.031021139 -0.010703065 0.22255282
-0.031827059 -0.016363638 0.22483382
-0.03170149 -0.019593254 0.22655375
-0.030720422 -0.021879101 0.22862236
-0.03002809 -0.023850422 0.22947161
-0.029815625 -0.025858432 0.23099677
-0.029711818 -0.028943239 0.23275672
-0.018729517 0.042459458 0.1834649
-0.018264227 0.040170379 0.18501158
-0.018343458 0.037444364 0.18656255
-0.019215189 0.03361249 0.19004691
-0.020291351 0.029877573 0.19343102
-0.02007309 0.027459037 0.19592026
-0.019832062 0.025106991 0.19924107
-0.020979222 0.021155341 0.20235413
-0.022614896 0.017606853 0.20466135
-0.023155106 0.014114 0.20737918
-0.023403771 0.01105111 0.20959218
-0.023870671 0.0076479907 0.21216603
-0.02461045 0.0037974105 0.21503127
-0.025871713 -0.001234138 0.21822248
-0.025885439 -0.0051639439 0.22046851
-0.026158763 -0.010098062 0.2224154
-0.02733284 -0.015411492 0.22549035
-0.027931571 -0.018786399 0.22765028
-0.027180919 -0.021179806 0.22947517
-0.026200827 -0.023219451 0.22988613
-0.026098888 -0.025706837 0.23074566
-0.025927858 -0.029080229 0.23419251
-0.015273461 0.040434144 0.18569191
-0.01522442 0.037615445 0.18722266
-0.015945638 0.034034435 0.19004139
-0.016545149 0.030859822 0.19346958
-0.016436638 0.028329344 0.19626471
-0.016202219 0.025712539 0.20063719
-0.017581174 0.021046409 0.20413212
-0.018335758 0.017385663 0.20589234
-0.01935133 0.014217747 0.20751725
-0.019936873 0.011627818 0.20992982
-0.019844335 0.0084969476 0.21342336
-0.019307306 0.0055842288 0.21582298
-0.020132964 0.00060344202 0.21877043
-0.021989848 -0.0051657525 0.22197895
-0.023013406 -0.010312505 0.22482879
-0.023403751 -0.014338541 0.22645521
-0.023998991 -0.01790732 0.2280096
-0.023801245 -0.020609641 0.22963953
-0.022929143 -0.022875318 0.22994651
-0.022582563 -0.025453161 0.23161489
-0.021717986 -0.029437969 0.23700695
-0.012566519 0.03755847 0.18810323
-0.012504025 0.034822807 0.19030991
-0.012870819 0.032017183 0.19366415
-0.012707242 0.02962042 0.19666356
-0.01291 0.026166026 0.20099999
-0.013684435 0.022047758 0.2050043
-0.014052602 0.018732391 0.2069699
-0.014607123 0.015353142 0.20870082
-0.016086143 0.012010053 0.21115354
-0.01576017 0.0090615423 0.21423353
-0.015545685 0.0061321924 0.21660745
-0.015031157 0.0028429329 0.2191364
-0.018040936 -0.0045381384 0.22396418
-0.019493928 -0.0093673384 0.22651149
-0.019901711 -0.012756669 0.22752324
-0.019491987 -0.015620436 0.22873498
-0.019449243 -0.01887871 0.2300507
-0.019220201 -0.022028802 0.23047113
-0.018301953 -0.025573835 0.2340814
-0.017358027 -0.029556056 0.24014339
-0.010267851 0.034579027 0.19122072
-0.0095125139 0.032580134 0.19416626
-0.0090794526 0.03027831 0.19751459
-0.0089741517 0.026173066 0.20160677
-0.0096553871 0.022803959 0.20574081
-0.010003169 0.019855058 0.2082345
-0.010458671 0.016352192 0.21033731
-0.011999048 0.012902332 0.21246538
-0.011705795 0.0095067471 0.2147045
-0.011427701 0.0063055055 0.21780114
-0.010819772 0.003357006 0.22057022
-0.011248477 -0.0010394435 0.22362031
-0.014403163 -0.0078514889 0.22768307
-0.014696481 -0.011078646 0.22890976
-0.014829396 -0.014461227 0.23070543
-0.015373388 -0.018396161 0.23241982
-0.01553009 -0.021761594 0.23319435
-0.014353457 -0.025060629 0.23693119
-0.013883239 -0.028772956 0.24196485
-0.005977395 0.03247061 0.19638032
-0.005538587 0.029883599 0.19936132
-0.0051032305 0.025559058 0.20354012
-0.0057712854 0.022698821 0.20636213
-0.0062040105 0.020133965 0.20866857
-0.0067829215 0.016699588 0.21149848
-0.0077022784 0.013036351 0.21338968
-0.0079066847 0.0097724218 0.21531472
-0.0074779443 0.006760845 0.21827839
-0.0074103717 0.0035758214 0.22089733
-0.006929935 -0.00037401126 0.22318007
-0.0076884842 -0.0059277476 0.2261689
-0.0091262963 -0.010755623 0.22932702
-0.01052277 -0.014668608 0.23165388
-0.011276177 -0.018247824 0.23337235
-0.011539218 -0.021164743 0.23511119
-0.011341892 -0.02385442 0.23703498
-0.0032950465 0.031542394 0.19837514
-0.0022849247 0.028880468 0.20023541
-0.0018995152 0.025457865 0.20378192
-0.0022233245 0.022623308 0.20613776
-0.0026085714 0.019946339 0.20828906
-0.0034762134 0.016528381 0.21159653
-0.0040185838 0.013297258 0.21384223
-0.0042624138 0.0099550253 0.21585803
-0.0040799752 0.0070859999 0.21795101
-0.0037638217 0.0035544196 0.22006473
-0.0035080276 -0.00087994069 0.22308856
-0.0033085707 -0.0053131981 0.22452627
-0.0052491953 -0.010574966 0.22853963
-0.0063900026 -0.014427071 0.23089869
-0.0076879067 -0.017859653 0.23298284
0.00091770553 0.027445057 0.20133838
0.001177805 0.025085246 0.20390208
0.00072711118 0.022236682 0.20603025
0.00066438958 0.019270772 0.20804073
-1.0193152e-05 0.015974836 0.21054289
-0.00016370972 0.013133688 0.2131003
-5.0751529e-05 0.010550559 0.21529479
-0.00018551754 0.0073884157 0.21731059
-0.00010808773 0.0037816174 0.21877235
-6.298456e-05 -0.00049891672 0.22169608
0.00059430074 -0.0050426507 0.22356422
-0.0013776273 -0.0097012147 0.2271608
-0.0039310791 -0.013528794 0.23027207
0.0036148713 0.02441412 0.20448227
0.0038169485 0.02188299 0.20580499
0.0039557829 0.018929768 0.20747656
0.0036295259 0.015603035 0.21003382
0.0035803246 0.012851479 0.21228519
0.0035540382 0.010537773 0.21440956
0.0031175597 0.0074023861 0.21715412
0.002734168 0.0044549224 0.21855906
0.0021528583 -0.00021824308 0.22094269
0.0025261932 -0.0035797164 0.22282822
0.005465053 0.02160804 0.20579815
0.0058055897 0.018215075 0.20775898
0.0061240788 0.015558613 0.21004997
0.0055986946 0.012530265 0.21256098
0 0 0 1 0 0 0 1 0 0 0 1 0 0 0 0 0 354 1 0 0
