ply
format ascii 1.0
comment PCL generated
element vertex 354
property float x
property float y
property float z
element camera 1
property float view_px
property float view_py
property float view_pz
property float x_axisx
property float x_axisy
property float x_axisz
property float y_axisx
property float y_axisy
property float y_axisz
property float z_axisx
property float z_axisy
property float z_axisz
property float focal
property float scalex
property float scaley
property float centerx
property float centery
property int viewportx
property int viewporty
property float k1
property float k2
end_header
-0.058245998 0.024928983 0.19102168
-0.05896534 0.022107195 0.19278175
-0.060045846 0.018971616 0.1942635
-0.060924292 0.015839241 0.1959753
-0.060908433 0.013214462 0.19768175
-0.054175425 0.029080544 0.18679367
-0.054967258 0.027571101 0.1878968
-0.055310078 0.025142342 0.18940793
-0.055302255 0.022631593 0.19096047
-0.056428049 0.019688921 0.1931407
-0.057848632 0.016284637 0.19522081
-0.059006259 0.01291152 0.19735806
-0.059333317 0.0099441102 0.19879547
-0.058254365 0.0066903355 0.20163329
-0.050468978 0.031159665 0.18405178
-0.051064778 0.029778095 0.18522401
-0.051495947 0.027722782 0.18654288
-0.051760118 0.02550398 0.18821672
-0.051578358 0.02299303 0.19044155
-0.052566208 0.019771729 0.19299556
-0.053410199 0.016684614 0.19469094
-0.055107079 0.013842064 0.1964355
-0.056383912 0.010409913 0.19946678
-0.055158038 0.0043539195 0.20318328
-0.053590424 -0.0014201512 0.20363829
-0.052503407 -0.0053140898 0.20499206
-0.048328981 0.031617131 0.18285148
-0.048340484 0.029777193 0.18438819
-0.048340324 0.027795626 0.18607639
-0.048495434 0.025654914 0.18837993
-0.048720744 0.022962635 0.19101833
-0.04914441 0.01991302 0.19342135
-0.049533572 0.017263284 0.19524285
-0.050916374 0.014185114 0.19734761
-0.052394331 0.010549927 0.20024888
-0.05065969 0.0022179161 0.20020877
-0.049841367 -0.0035511213 0.20179176
-0.049909297 -0.0060723438 0.20504461
-0.050785102 -0.007908022 0.20683876
-0.052592743 -0.0087159639 0.20789678
-0.045928143 0.033901788 0.18163393
-0.045775898 0.032209542 0.18271615
-0.045621928 0.030237285 0.18444012
-0.04563855 0.028374856 0.18643917
-0.045816716 0.026178978 0.18850544
-0.046199754 0.023422131 0.19053246
-0.046494745 0.020407567 0.19351023
-0.046624683 0.017771948 0.19526599
-0.047084365 0.014874092 0.19787952
-0.046962153 0.0092035104 0.19931366
-0.047664214 0.0030365638 0.19794421
-0.046803016 -0.0037184961 0.20070226
-0.047157437 -0.0052384748 0.2051737
-0.048374392 -0.0064935242 0.20755611
-0.05115553 -0.0087558376 0.20919813
-0.054094773 -0.010451433 0.21282044
-0.055575375 -0.011647885 0.21721721
-0.05628711 -0.013006083 0.22086804
-0.044022683 0.035108943 0.18116154
-0.043448884 0.032962065 0.18288656
-0.043229766 0.030998737 0.18468782
-0.043398056 0.029137336 0.18647787
-0.04384578 0.027006367 0.18833736
-0.043787979 0.024115087 0.19058925
-0.04353619 0.020598095 0.19304068
-0.043575723 0.0176745 0.1949008
-0.043775268 0.01495766 0.19813843
-0.043761525 0.010016804 0.19905959
-0.044039957 0.0034280848 0.1969142
-0.043812711 -0.0019948513 0.19906466
-0.043935891 -0.0042038965 0.20409296
-0.04485324 -0.0059027998 0.20775369
-0.048265468 -0.0083928173 0.21089007
-0.051744908 -0.009776176 0.214481
-0.053180519 -0.01145545 0.21831737
-0.054583263 -0.013127933 0.22175486
-0.054323599 -0.015371908 0.22609833
-0.053304613 -0.017602332 0.22922243
-0.042199157 0.038635686 0.17910853
-0.041876469 0.036756415 0.1807062
-0.041236673 0.03427488 0.18264577
-0.040836282 0.032227423 0.18447781
-0.040786728 0.030274613 0.1864503
-0.041055426 0.027756432 0.18864162
-0.040848121 0.024850504 0.19059195
-0.040423758 0.020942556 0.19285613
-0.040202424 0.018001629 0.19520779
-0.039876487 0.015332111 0.19851176
-0.040469665 0.010485481 0.19941799
-0.040789194 0.004053867 0.19742922
-0.040467132 -0.00080856582 0.19905138
-0.040681448 -0.0033641956 0.20227875
-0.041941557 -0.0049288147 0.20848595
-0.045494884 -0.0080788378 0.21233235
-0.049192835 -0.009437493 0.21563525
-0.050110545 -0.011233549 0.21938638
-0.051209643 -0.013530388 0.22293167
-0.050716918 -0.016457837 0.22590919
-0.050782684 -0.019405819 0.22841422
-0.050318308 -0.021736668 0.23024164
-0.038778976 0.040333297 0.17893559
-0.038614888 0.038718067 0.18028775
-0.038221996 0.036153443 0.18210626
-0.038048189 0.033516169 0.18428694
-0.03726349 0.030809384 0.18727836
-0.037073273 0.027892809 0.18978754
-0.037265178 0.025155891 0.19156419
-0.037340093 0.021812571 0.19386716
-0.037058447 0.018798565 0.19683281
-0.037083916 0.015271242 0.19970851
-0.03795201 0.010371881 0.20030165
-0.038290709 0.004437414 0.19872753
-0.038502965 0.00076493196 0.19953449
-0.038273234 -0.0025111758 0.20243697
-0.03989936 -0.0044748639 0.20969656
-0.043648679 -0.0074873483 0.21481286
-0.045665316 -0.0091393748 0.2169303
-0.046563689 -0.011401973 0.22052956
-0.047093656 -0.014492179 0.22343223
-0.046739046 -0.01817908 0.22530049
-0.046705332 -0.021172812 0.22714522
-0.046773743 -0.023746124 0.22927018
-0.033823453 0.042518862 0.178874
-0.033894755 0.040920742 0.18017344
-0.033738397 0.038463462 0.18212882
-0.033403479 0.034431972 0.18594366
-0.033643894 0.030943124 0.18901078
-0.033494733 0.028236698 0.19127868
-0.033501219 0.025450945 0.19332169
-0.033645265 0.022677146 0.19553185
-0.03405397 0.019353097 0.19829698
-0.034627136 0.015468287 0.20109947
-0.035176959 0.010783684 0.2015809
-0.03607396 0.0045319539 0.20044701
-0.03637575 0.0010102312 0.201479
-0.036631349 -0.0019459168 0.20460103
-0.039247032 -0.0041367258 0.21162598
-0.041884247 -0.0065349648 0.21761593
-0.043550927 -0.00943432 0.21974592
-0.043677632 -0.012349998 0.22147901
-0.043379176 -0.016350275 0.22278908
-0.042866543 -0.020194205 0.22459811
-0.042715851 -0.022923959 0.22631019
-0.042813241 -0.025245281 0.22863661
-0.029111201 0.043437742 0.17939645
-0.028750006 0.041890208 0.1807342
-0.02875453 0.039467908 0.18297733
-0.029598832 0.034952465 0.18761478
-0.030480543 0.031250961 0.19054225
-0.030403694 0.028431436 0.1925011
-0.030282723 0.025784662 0.19443797
-0.030103177 0.023255307 0.19659716
-0.030176939 0.019962234 0.2000255
-0.031476986 0.016245678 0.2030216
-0.032746051 0.0096810991 0.20275627
-0.033453073 0.0046448559 0.20280759
-0.033128921 0.0016705318 0.20500068
-0.034180168 -0.00083344086 0.20832066
-0.035957817 -0.0035608266 0.21391611
-0.038094517 -0.0067883064 0.21862152
-0.040268246 -0.010755049 0.22071531
-0.041141499 -0.014884624 0.22210558
-0.039822165 -0.0186354 0.22222279
-0.039008919 -0.02106595 0.22456664
-0.038662318 -0.023611374 0.2266656
-0.037914891 -0.026419196 0.22999437
-0.036353312 -0.02845824 0.2324582
-0.024879165 0.043639384 0.18072577
-0.024897914 0.042082585 0.18192789
-0.024731833 0.039454106 0.18379635
-0.025600979 0.036252074 0.18691827
-0.027401419 0.031680867 0.1909067
-0.027404476 0.028698985 0.19340819
-0.027146956 0.026233058 0.19533888
-0.026880281 0.023555046 0.19819948
-0.026725177 0.02099528 0.200826
-0.028552622 0.017667277 0.20327078
-0.02984293 0.012567142 0.20519611
-0.029515402 0.0075343018 0.2055206
-0.029936846 0.0039762626 0.20759198
-0.031116584 0.0010444078 0.21132477
-0.032701105 -0.0023995626 0.21489307
-0.034122948 -0.0063160216 0.21912675
-0.03557656 -0.011408017 0.2212846
-0.036646768 -0.016180253 0.22280522
-0.035497129 -0.018840879 0.22321664
-0.034218505 -0.02156378 0.22608052
-0.033505335 -0.02414345 0.22817963
-0.03320476 -0.026566625 0.23040111
-0.032599825 -0.029260373 0.23150779
-0.021796137 0.043947648 0.18156287
-0.021579586 0.042327005 0.18262911
-0.021572368 0.03971466 0.18414323
-0.021545304 0.037253205 0.18603274
-0.023310017 0.032512166 0.19062492
-0.023994809 0.029327149 0.19379023
-0.023841046 0.026981037 0.19619049
-0.023282852 0.024465663 0.19916043
-0.02374245 0.021315867 0.20193036
-0.025665177 0.017762048 0.20362245
-0.026268177 0.013576389 0.20635271
-0.026261045 0.0099555431 0.2078779
-0.026871385 0.0058745798 0.20973085
-0.0279938 0.0025039292 0.21344054
-0.029622074 -0.0014446374 0.21633486
-0.030223388 -0.0053934189 0.21945538
-0.030642364 -0.011116762 0.22172157
-0.031269096 -0.016601415 0.22439222
-0.03119432 -0.019722098 0.22638974
-0.030246863 -0.021889482 0.22867158
-0.029521435 -0.02380641 0.22961906
-0.029281622 -0.025797851 0.23119776
-0.029145511 -0.028837996 0.23304793
-0.018858645 0.042212676 0.1836061
-0.018395146 0.03992467 0.18514986
-0.01844685 0.037210919 0.18668748
-0.019306641 0.033491675 0.19026712
-0.020412894 0.030068811 0.19389684
-0.020261707 0.027720608 0.19640525
-0.020087264 0.025328252 0.1996839
-0.021058867 0.021191588 0.2025664
-0.022408761 0.01755813 0.20466523
-0.022890164 0.014040133 0.20727952
-0.02313843 0.010927718 0.20940335
-0.0236251 0.0074825236 0.21186185
-0.024449676 0.0036277568 0.21466057
-0.025792832 -0.0013732695 0.21783926
-0.025884533 -0.0052594347 0.22028883
-0.026138168 -0.010133003 0.22245826
-0.027026881 -0.015405003 0.22547631
-0.02750515 -0.018729653 0.22766671
-0.026746908 -0.021043403 0.22964461
-0.025703488 -0.023013363 0.23012371
-0.02558076 -0.025520861 0.23098437
-0.02541272 -0.028918397 0.23457886
-0.015479022 0.040340051 0.18596736
-0.015386509 0.037533421 0.18751401
-0.016057046 0.033951465 0.19032447
-0.016631879 0.030905295 0.19390033
-0.016592953 0.028518319 0.19678231
-0.016430946 0.026046183 0.20125543
-0.017764444 0.021265276 0.20462038
-0.018348077 0.017537076 0.20619226
-0.019200182 0.014329092 0.20767942
-0.019774549 0.011668419 0.20999673
-0.019673578 0.0083419057 0.21330242
-0.019195978 0.0055366368 0.21578951
-0.020187082 0.00076483085 0.21894808
-0.02211207 -0.0051050903 0.22202744
-0.023024905 -0.010211137 0.22494626
-0.023211138 -0.014188635 0.22654551
-0.02361835 -0.017743777 0.22808753
-0.023392705 -0.020330278 0.22986971
-0.022487925 -0.022552492 0.23019764
-0.022119273 -0.025199622 0.23186569
-0.021276241 -0.02921587 0.23739161
-0.012761599 0.037597034 0.18855338
-0.012656076 0.034844924 0.19071905
-0.012910226 0.031996723 0.19400106
-0.012751474 0.029645212 0.19703718
-0.013049629 0.026412262 0.2015039
-0.013895697 0.022273676 0.20554999
-0.014213483 0.018870862 0.20741388
-0.014655918 0.015436929 0.20897876
-0.015996477 0.012017599 0.21121185
-0.015630387 0.0088925259 0.21408822
-0.015449955 0.0060497797 0.2165391
-0.014996395 0.0029122389 0.21927993
-0.018203741 -0.0043335557 0.22410169
-0.01946429 -0.0092052938 0.22652508
-0.01971196 -0.012566628 0.22751771
-0.019121166 -0.015468817 0.22853494
-0.019000273 -0.018684352 0.22990908
-0.018820377 -0.021807624 0.23055972
-0.017911887 -0.025335224 0.23427342
-0.016966274 -0.029402854 0.24020001
-0.010328158 0.034614321 0.19164081
-0.0095271561 0.032593384 0.19452006
-0.0090969773 0.030287035 0.19787243
-0.0091323359 0.026340783 0.20209673
-0.0098390002 0.0230023 0.20621945
-0.010171375 0.019964891 0.20866659
-0.010535908 0.016291492 0.2104909
-0.011899606 0.01270618 0.2122864
-0.011594755 0.0092881536 0.21448638
-0.011287926 0.0061333468 0.21762347
-0.010707335 0.0032394938 0.2204608
-0.011185098 -0.0010518616 0.22365022
-0.014218275 -0.0077161193 0.2274795
-0.014331084 -0.010980891 0.22846705
-0.014276548 -0.014408326 0.2300773
-0.014769911 -0.018314594 0.23192883
-0.014961508 -0.021651477 0.23294464
-0.01386587 -0.025039112 0.23685183
-0.013429401 -0.028698994 0.24188797
-0.0060215411 0.032548968 0.19683003
-0.0056737131 0.030040085 0.19991274
-0.0053725936 0.025727009 0.20408489
-0.0059502339 0.022814605 0.20674382
-0.0063369442 0.020215549 0.20896883
-0.006849715 0.016450375 0.21134549
-0.0076094344 0.012697396 0.21298791
-0.0077982661 0.0095285783 0.21502978
-0.0073624905 0.0066084969 0.21808043
-0.0072925524 0.0034592587 0.22080067
-0.0068488931 -0.00043856268 0.22330779
-0.0075605782 -0.0059389677 0.22640157
-0.0087115606 -0.010739896 0.22893867
-0.0099117449 -0.014654939 0.23103429
-0.010644471 -0.018225245 0.2328843
-0.010928576 -0.021179583 0.23480839
-0.010812018 -0.023923874 0.23681508
-0.0034348392 0.031758968 0.19898756
-0.0025847619 0.029200425 0.2009889
-0.002204045 0.025613211 0.20426431
-0.0024295249 0.022666948 0.20640424
-0.002752739 0.020013802 0.20846151
-0.0035621247 0.016396364 0.21152923
-0.0039844513 0.012985829 0.21350978
-0.0041608037 0.0097602317 0.21563359
-0.0039776778 0.0069370926 0.21784529
-0.0036686237 0.0034541541 0.22007526
-0.0034280648 -0.00095238013 0.22338939
-0.0032197274 -0.005352166 0.22501384
-0.0049224179 -0.010549696 0.2285541
-0.0058298456 -0.014406194 0.23052673
-0.007066783 -0.017827472 0.23258689
0.00051062956 0.027829114 0.20197296
0.00087106467 0.025262099 0.20426127
0.00052493572 0.022340812 0.20623387
0.00052512652 0.019435491 0.20824014
-8.669919e-05 0.016046192 0.21059366
-0.00019379963 0.012957939 0.21290071
-7.7600816e-05 0.010291153 0.21514311
-0.00015333908 0.0071691638 0.21723782
-4.3374232e-05 0.0036356123 0.21884054
3.110509e-05 -0.00059262046 0.22207552
0.00067366328 -0.005072582 0.22412281
-0.0011805815 -0.0096752616 0.22756942
-0.003437618 -0.013492812 0.23013218
0.0033481703 0.024581969 0.20474963
0.0035989995 0.022063881 0.20597823
0.0038058467 0.019183388 0.20770358
0.00350804 0.015746105 0.21005554
0.0034808374 0.012747199 0.21211889
0.0034879379 0.010267303 0.21418029
0.0030843676 0.0071032387 0.21696919
0.0027430314 0.0042075091 0.21853425
0.0022593685 -0.00029222519 0.22131085
0.0026177999 -0.0036256521 0.22335315
0.005261804 0.021816321 0.2059754
0.0056493441 0.01850255 0.20793997
0.0059544817 0.015651768 0.20994785
0.0055110008 0.012444342 0.21231368
0 0 0 1 0 0 0 1 0 0 0 1 0 0 0 0 0 354 1 0 0
