ply
format ascii 1.0
comment PCL generated
element vertex 354
property float x
property float y
property float z
element camera 1
property float view_px
property float view_py
property float view_pz
property float x_axisx
property float x_axisy
property float x_axisz
property float y_axisx
property float y_axisy
property float y_axisz
property float z_axisx
property float z_axisy
property float z_axisz
property float focal
property float scalex
property float scaley
property float centerx
property float centery
property int viewportx
property int viewporty
property float k1
property float k2
end_header
-0.058233541 0.024964038 0.19099253
-0.058953863 0.022131803 0.1927696
-0.060022056 0.018991329 0.19428729
-0.060876831 0.015860965 0.19602871
-0.060848273 0.013235678 0.19774151
-0.054165944 0.029137442 0.18674725
-0.054953318 0.027621303 0.18785149
-0.055300288 0.025181852 0.18936084
-0.055299226 0.022659302 0.19092232
-0.056419455 0.019708892 0.19313321
-0.057814773 0.016300734 0.19524123
-0.05895225 0.012925986 0.19740033
-0.059399154 0.0098993862 0.19868025
-0.058352858 0.0066260374 0.20147921
-0.050473399 0.03122548 0.18398514
-0.051063601 0.029838014 0.18515533
-0.051490359 0.027777215 0.18646677
-0.051752366 0.025552034 0.1881344
-0.051582281 0.023027344 0.1903829
-0.052568648 0.019803831 0.19296828
-0.053398766 0.016712479 0.19467193
-0.055127103 0.013859315 0.19651452
-0.056462675 0.010380723 0.19940405
-0.05526441 0.0043100021 0.20304663
-0.053651385 -0.0014426085 0.20353451
-0.052544832 -0.0053203269 0.20492302
-0.048336245 0.031690586 0.18277892
-0.048342828 0.029836738 0.18430659
-0.048331041 0.027847258 0.18598312
-0.048485253 0.025701864 0.18827721
-0.048718926 0.023019044 0.19095215
-0.049139533 0.01996116 0.19337676
-0.049525458 0.017298086 0.19519325
-0.050914727 0.014233469 0.19755305
-0.052454293 0.010541782 0.20027991
-0.050708331 0.0022117065 0.20012905
-0.049864344 -0.0035536641 0.20173992
-0.049946107 -0.0060592224 0.20500501
-0.050829343 -0.0078896889 0.20679371
-0.052640352 -0.0087047061 0.20784055
-0.045929909 0.033992834 0.18157874
-0.045778748 0.032285511 0.18264467
-0.045618851 0.030291894 0.18435818
-0.045624055 0.028419929 0.18634933
-0.045799505 0.026223389 0.18841676
-0.046183012 0.023474924 0.19046706
-0.046477657 0.020450277 0.19345894
-0.046611585 0.017802682 0.19519739
-0.047073212 0.014942138 0.19811988
-0.046948601 0.0092462972 0.19943984
-0.047663175 0.0030686052 0.19793911
-0.046807062 -0.0036991283 0.20069139
-0.047200229 -0.0052061891 0.20516001
-0.048434738 -0.0064540813 0.20752503
-0.051217444 -0.0087273549 0.20915273
-0.054183464 -0.010407054 0.212795
-0.055490214 -0.01175067 0.21715944
-0.056184568 -0.01309931 0.22081719
-0.044013202 0.035201821 0.18112007
-0.043439671 0.033033434 0.18282118
-0.043211129 0.031050151 0.18460533
-0.043365717 0.029178612 0.18639207
-0.043813877 0.027043384 0.18825844
-0.043764099 0.02415932 0.19052564
-0.043518618 0.020634169 0.19297734
-0.043563087 0.01769693 0.1948147
-0.043761682 0.015027097 0.19834478
-0.04374833 0.010075457 0.19921599
-0.044022065 0.0034677391 0.19698155
-0.043801125 -0.0019629556 0.19908686
-0.043970551 -0.0041612429 0.20411491
-0.044920076 -0.0058417777 0.20775424
-0.048340302 -0.0083364081 0.21085824
-0.051834919 -0.0097219152 0.21445128
-0.053088073 -0.011565481 0.21824571
-0.054474019 -0.013223945 0.22169246
-0.054213498 -0.015438033 0.22604799
-0.053217914 -0.017653821 0.22918496
-0.042160355 0.038748544 0.17912401
-0.041845042 0.036854405 0.18069728
-0.041211352 0.034344528 0.18259944
-0.04080433 0.032270957 0.18440792
-0.040743217 0.030300742 0.18638092
-0.041015454 0.027784573 0.18857558
-0.040818516 0.024873922 0.19053265
-0.040406276 0.020962475 0.19278152
-0.040200643 0.017996242 0.19508095
-0.039852183 0.015397993 0.19863935
-0.040433884 0.010541559 0.19952404
-0.040793411 0.0040861336 0.19751382
-0.040455095 -0.00077581609 0.19910188
-0.040696818 -0.0033216712 0.20233233
-0.042019129 -0.004852403 0.20851241
-0.045579243 -0.0079992088 0.21231139
-0.049284168 -0.0093756253 0.21560173
-0.05000823 -0.01135774 0.21929146
-0.051091578 -0.013633288 0.22284262
-0.050615329 -0.016522912 0.22586547
-0.050691638 -0.019452374 0.22838943
-0.050229009 -0.021770993 0.23022781
-0.038730461 0.040409349 0.17894484
-0.038569987 0.038788017 0.1802931
-0.038180199 0.036212258 0.18209128
-0.038003795 0.033548065 0.18423827
-0.037209991 0.030813133 0.18721007
-0.037031393 0.027889339 0.1897179
-0.037231777 0.025147233 0.19148852
-0.037316669 0.021795085 0.19375995
-0.037052002 0.018755356 0.19664565
-0.037044767 0.015339151 0.19979273
-0.03789464 0.010419757 0.20034809
-0.038291182 0.0044637853 0.19878288
-0.038502902 0.00080155249 0.19959056
-0.038288303 -0.0024665711 0.20250149
-0.039964043 -0.0043891645 0.20972039
-0.043753233 -0.0073738536 0.21479371
-0.045759898 -0.0090588825 0.2169027
-0.046449933 -0.011549953 0.2203961
-0.046978019 -0.014595109 0.2233371
-0.046636991 -0.018227896 0.22528534
-0.046608005 -0.021206297 0.22714074
-0.046681639 -0.023763541 0.22926934
-0.033784006 0.042526457 0.17888635
-0.033853512 0.040927324 0.18018311
-0.033698969 0.038465139 0.18213497
-0.033360004 0.034425639 0.18591253
-0.033600152 0.030923283 0.18894444
-0.033453181 0.028199023 0.19119507
-0.033462442 0.025403161 0.19321734
-0.033615079 0.022615688 0.19540313
-0.034050371 0.019307625 0.19810249
-0.034577068 0.015538502 0.20114303
-0.035085179 0.010847239 0.20156625
-0.036066886 0.0045668175 0.20047918
-0.036378052 0.0010511788 0.20152621
-0.036643449 -0.0018917618 0.20466243
-0.039306782 -0.0040649301 0.21162237
-0.042002793 -0.0064384304 0.21759908
-0.043669548 -0.009376429 0.21968111
-0.043561425 -0.012467043 0.22132894
-0.043268546 -0.016403362 0.22276649
-0.042772282 -0.020210547 0.22459336
-0.042628478 -0.022930166 0.22629911
-0.042729057 -0.025241613 0.22863367
-0.029077133 0.043407954 0.17941017
-0.0287256 0.041855406 0.18074872
-0.028736625 0.039434411 0.1829937
-0.029566687 0.034927033 0.18759325
-0.030437572 0.031213647 0.19047941
-0.030364148 0.028379662 0.19242316
-0.030248981 0.025724227 0.19433774
-0.030074535 0.023185372 0.19648093
-0.030172467 0.019913051 0.19988012
-0.031401251 0.016310384 0.20302381
-0.032650083 0.0097309975 0.20268479
-0.033429623 0.0046777767 0.20281972
-0.033108607 0.0017124499 0.20501831
-0.034195434 -0.00075290393 0.2083279
-0.036009971 -0.0035023135 0.21389942
-0.038183667 -0.0067664171 0.21855848
-0.040401008 -0.010767809 0.2205535
-0.04102787 -0.014911858 0.22204269
-0.039728817 -0.018639753 0.22220267
-0.038935702 -0.021059271 0.22453628
-0.03859299 -0.023601653 0.22663692
-0.037848767 -0.026394157 0.22997689
-0.036290441 -0.028417286 0.23245212
-0.02486261 0.043595664 0.18073019
-0.02488482 0.042040162 0.18193798
-0.024723286 0.039413754 0.18380801
-0.025590749 0.036216844 0.18692988
-0.027365671 0.031643867 0.19085257
-0.027374145 0.028651547 0.19333811
-0.02711769 0.0261798 0.19525793
-0.026865253 0.023502123 0.19809841
-0.026720343 0.020944016 0.20072314
-0.028523227 0.017733799 0.20328951
-0.029774291 0.012595532 0.20513557
-0.029446438 0.0075476207 0.20546654
-0.029908122 0.0040162513 0.20757604
-0.031159831 0.0011416607 0.21134555
-0.032755397 -0.0023393708 0.21488802
-0.03417794 -0.00632698 0.21906023
-0.035480287 -0.011410692 0.22119693
-0.036553901 -0.016152222 0.22277232
-0.035423245 -0.018827796 0.22317685
-0.034161828 -0.021544768 0.22604033
-0.033442389 -0.024123173 0.22814678
-0.033142764 -0.026539499 0.23037514
-0.032538202 -0.029232342 0.23151162
-0.02178102 0.043899171 0.18155737
-0.021565966 0.042279296 0.18263032
-0.021561278 0.039668199 0.18415113
-0.02153763 0.03721074 0.18604618
-0.023294676 0.03248867 0.1906025
-0.023974067 0.029301869 0.19374292
-0.023823772 0.026949978 0.19613475
-0.023282016 0.024437102 0.1990957
-0.023746112 0.021280596 0.20186193
-0.025655234 0.017712468 0.20355703
-0.026258336 0.013530333 0.20627615
-0.026250806 0.0099082915 0.20780328
-0.026856888 0.0058310363 0.20965552
-0.028051687 0.0026045747 0.21347807
-0.029678136 -0.0013929084 0.21633489
-0.030257592 -0.0054096854 0.21939851
-0.030605713 -0.011110323 0.22165427
-0.031233404 -0.016575236 0.22434118
-0.031151567 -0.019690063 0.22635214
-0.0301993 -0.0218555 0.228643
-0.029465202 -0.023765342 0.22958395
-0.029229842 -0.025770027 0.23115648
-0.02909557 -0.028814789 0.23301506
-0.018845825 0.042166695 0.18360351
-0.0183853 0.039884482 0.18515621
-0.018438419 0.037175197 0.18669815
-0.01930215 0.033476647 0.19027349
-0.020402486 0.030063698 0.19388868
-0.020255866 0.027710577 0.19638348
-0.02009039 0.025311919 0.19965062
-0.021067258 0.021173762 0.20252873
-0.022408614 0.01752899 0.20462793
-0.022878541 0.01400617 0.20721419
-0.023114568 0.010874861 0.20930782
-0.023582745 0.0074126488 0.2117469
-0.024392691 0.0035561132 0.21454267
-0.025754731 -0.0013853117 0.21776499
-0.025871038 -0.005256454 0.22024091
-0.026142448 -0.010127409 0.22240208
-0.027020279 -0.015365477 0.2254284
-0.027471269 -0.018683944 0.22763245
-0.026696436 -0.020994116 0.22961859
-0.025649739 -0.02296121 0.23008825
-0.025531638 -0.025483826 0.23093857
-0.025366329 -0.028906075 0.23455873
-0.015469542 0.040300898 0.18596746
-0.015379005 0.037501581 0.18752222
-0.016052533 0.033939458 0.19033623
-0.016628018 0.030900752 0.1939117
-0.016594242 0.028511513 0.1967828
-0.01644654 0.026050087 0.20125988
-0.01778944 0.021277666 0.20463578
-0.018358653 0.017538365 0.20618555
-0.019193133 0.014313898 0.20763837
-0.019743536 0.011632119 0.20990497
-0.019644225 0.008287265 0.21318884
-0.01916853 0.0054910956 0.21568936
-0.020170204 0.00075656344 0.21888253
-0.022115469 -0.0050918846 0.22197431
-0.023029206 -0.010197067 0.22488232
-0.023203142 -0.01414389 0.22648922
-0.023589456 -0.017677674 0.22805001
-0.023343103 -0.020262675 0.22984453
-0.022441102 -0.022501744 0.23016232
-0.022070494 -0.025170743 0.23182611
-0.021236338 -0.029220341 0.23738298
-0.01274969 0.037565175 0.18856183
-0.012653238 0.03483098 0.19073023
-0.012915124 0.031991545 0.19400617
-0.012755153 0.029631006 0.19703525
-0.013063521 0.026406938 0.20149449
-0.013924303 0.022280162 0.20556046
-0.014229944 0.018872771 0.20742795
-0.014660608 0.015433226 0.20896693
-0.015979754 0.012004207 0.21115141
-0.015614326 0.0088672629 0.21401259
-0.015435815 0.0060268878 0.21646276
-0.014983008 0.0029005413 0.21922527
-0.018213209 -0.0043165064 0.22404113
-0.019464163 -0.0091809314 0.2264469
-0.019699613 -0.0125256 0.2274446
-0.019099832 -0.015410019 0.22846653
-0.018971676 -0.01862096 0.22986865
-0.01878177 -0.021767316 0.23053865
-0.017876532 -0.025314109 0.2342553
-0.01695317 -0.029401463 0.24016401
-0.010332921 0.034609292 0.19165342
-0.0095375217 0.032583926 0.19452211
-0.0091037331 0.030265568 0.19786116
-0.0091491453 0.026325073 0.20207146
-0.0098614786 0.023004055 0.20620565
-0.010188133 0.019962154 0.20866647
-0.010535285 0.016282696 0.21047917
-0.011892716 0.012709497 0.21225218
-0.011584631 0.0092815459 0.21443364
-0.01127533 0.0061299414 0.21755698
-0.010702854 0.0032471619 0.22040272
-0.011181761 -0.0010391343 0.22359408
-0.01420899 -0.0076865042 0.22738305
-0.014315133 -0.01093929 0.22836487
-0.01425485 -0.014350935 0.2299953
-0.014745216 -0.018250566 0.23188132
-0.014931316 -0.021597791 0.23293017
-0.013855276 -0.025017342 0.23684821
-0.01342327 -0.028695485 0.24186222
-0.0060327053 0.032533105 0.19682668
-0.0056874519 0.030017717 0.19989921
-0.0053964527 0.025710046 0.20405716
-0.0059713637 0.022811286 0.2067202
-0.0063497084 0.020222921 0.20895249
-0.006856299 0.016452638 0.21132737
-0.0076078954 0.012708982 0.2129591
-0.0077938712 0.0095336428 0.21497735
-0.0073609096 0.0066174483 0.21801074
-0.0072888639 0.0034738225 0.22074051
-0.0068448908 -0.00042591093 0.22325668
-0.0075517013 -0.005937906 0.22634155
-0.0086970171 -0.010707811 0.22886133
-0.0098896045 -0.014600728 0.2309653
-0.01062448 -0.018170446 0.23284388
-0.010913129 -0.021135045 0.23480704
-0.010801623 -0.023896003 0.23682447
-0.0034476302 0.031742401 0.19898066
-0.0026030692 0.029175162 0.2009768
-0.0022280731 0.025590442 0.20423296
-0.0024512229 0.022652153 0.20637231
-0.0027678264 0.020020423 0.20843789
-0.0035708584 0.016405785 0.21151085
-0.0039835693 0.01298875 0.2134777
-0.0041555618 0.0097636068 0.2155792
-0.0039760736 0.006947496 0.21778411
-0.003667068 0.0034746514 0.22002286
-0.0034247441 -0.00094962795 0.22335188
-0.0032182881 -0.0053564394 0.22497717
-0.0049085123 -0.010533604 0.22849327
-0.0058086081 -0.014362966 0.23047742
-0.0070482818 -0.017780764 0.23255463
0.00048337423 0.027808679 0.20194745
0.00084713456 0.02524101 0.20422219
0.00050707447 0.022329621 0.20619507
0.00050969567 0.019446349 0.2082146
-9.4242496e-05 0.016064983 0.21057457
-0.00019642912 0.012963356 0.21286361
-8.5841173e-05 0.010290204 0.21509704
-0.00015945564 0.0071757305 0.2171863
-4.4369081e-05 0.0036534441 0.21879515
3.4689419e-05 -0.0005927913 0.22204222
0.00067366997 -0.0050739455 0.2240878
-0.0011673919 -0.0096754581 0.22751784
-0.0034158744 -0.013458765 0.23009631
0.0033271171 0.024565071 0.20470445
0.0035790524 0.022055853 0.20593236
0.0037912873 0.019197134 0.20767118
0.0034974928 0.01576858 0.21003027
0.003471561 0.012760102 0.2120838
0.0034786633 0.010267308 0.21413404
0.003073304 0.0071008294 0.21692392
0.0027339079 0.0042131944 0.21849494
0.0022641546 -0.00029449223 0.22128062
0.0026216698 -0.0036287245 0.22331671
0.00524545 0.021809019 0.20593199
0.0056379749 0.018524826 0.20791
0.005941696 0.015677223 0.2099158
0.0055054482 0.012464247 0.2122743
0 0 0 1 0 0 0 1 0 0 0 1 0 0 0 0 0 354 1 0 0
