ply
format ascii 1.0
comment PCL generated
element vertex 354
property float x
property float y
property float z
element camera 1
property float view_px
property float view_py
property float view_pz
property float x_axisx
property float x_axisy
property float x_axisz
property float y_axisx
property float y_axisy
property float y_axisz
property float z_axisx
property float z_axisy
property float z_axisz
property float focal
property float scalex
property float scaley
property float centerx
property float centery
property int viewportx
property int viewporty
property float k1
property float k2
end_header
-0.055693116 0.03054302 0.18666285
-0.056896564 0.027560079 0.18859039
-0.058111299 0.024144202 0.19114918
-0.058853209 0.020553673 0.1932784
-0.058978193 0.017098021 0.19474703
-0.051344175 0.035232384 0.18310279
-0.052168537 0.033425488 0.18385141
-0.052683417 0.030627446 0.18499033
-0.053114571 0.027670035 0.18638897
-0.054148894 0.024576794 0.18912771
-0.055525687 0.021036927 0.19225682
-0.056306634 0.017446075 0.19406421
-0.05651287 0.014727446 0.19578323
-0.056265641 0.011349079 0.19819006
-0.047815312 0.037825108 0.18075281
-0.048479732 0.035957392 0.18140207
-0.048920076 0.033378892 0.18226394
-0.049335357 0.030679412 0.18382226
-0.049773328 0.027737848 0.18588701
-0.050792765 0.024735784 0.18911129
-0.051410496 0.021669816 0.19137187
-0.052575659 0.01893956 0.19393787
-0.053327207 0.01518201 0.19648169
-0.053309243 0.0099365171 0.20063104
-0.052911013 0.00470962 0.20215936
-0.052786354 0.0011364279 0.20313081
-0.045475826 0.038571831 0.17970978
-0.045690384 0.036061857 0.18070664
-0.045818247 0.033366177 0.1819925
-0.046227764 0.030635985 0.18402055
-0.046769384 0.027971391 0.18620716
-0.047664564 0.025037272 0.18935037
-0.048038471 0.022030031 0.19126694
-0.048804138 0.019433333 0.1941866
-0.049869709 0.015310051 0.19753487
-0.049494538 0.0088015301 0.20056434
-0.049583353 0.0037607974 0.20166929
-0.049713094 0.00046804393 0.20400323
-0.050000671 -0.0019966697 0.20675646
-0.051282439 -0.0032871771 0.20918365
-0.042336822 0.040953331 0.17885804
-0.042677797 0.038957253 0.17989688
-0.042838417 0.036412116 0.18127395
-0.042946648 0.033710644 0.18301734
-0.043361686 0.031023366 0.18505584
-0.043917231 0.028102307 0.18688621
-0.044711888 0.025253683 0.18954875
-0.045023218 0.022302829 0.19105235
-0.045411654 0.019597465 0.19388191
-0.045938574 0.014809685 0.19749573
-0.046349645 0.0089515392 0.19934772
-0.04651523 0.0035876485 0.200757
-0.046602774 0.0010048633 0.20425354
-0.047105461 -0.00084387715 0.2073759
-0.048603095 -0.0029928964 0.21051459
-0.049966693 -0.0053298459 0.21476209
-0.051043473 -0.0089985328 0.21774621
-0.050719116 -0.011349043 0.22049771
-0.039792821 0.041743074 0.17884012
-0.039919231 0.039195336 0.18037035
-0.039960787 0.036603823 0.18185075
-0.040185161 0.034081671 0.18372609
-0.040681973 0.03133731 0.18567589
-0.041018654 0.028349731 0.18772171
-0.041673232 0.025208969 0.18977413
-0.041902594 0.022115098 0.19095896
-0.042394601 0.019556874 0.19354175
-0.042703766 0.01541484 0.19650805
-0.043223761 0.0093181506 0.19825825
-0.043253459 0.0043724645 0.19914317
-0.043008685 0.0012486089 0.20261659
-0.043265976 -0.00068661012 0.20657118
-0.045155883 -0.002646728 0.21149425
-0.046802748 -0.0048994524 0.21607371
-0.047798991 -0.0088678477 0.21833763
-0.048315559 -0.01168021 0.22100334
-0.048482493 -0.015024685 0.22363497
-0.048236895 -0.0180261 0.22570944
-0.036576238 0.043808743 0.17785357
-0.036822811 0.042110357 0.17937401
-0.037048768 0.039568346 0.18094048
-0.03711364 0.037039921 0.18232051
-0.037240934 0.034426764 0.18449651
-0.037733685 0.031704172 0.18652745
-0.037955653 0.028669305 0.18806902
-0.038515624 0.02533705 0.19018406
-0.038979817 0.022300255 0.19154812
-0.039166506 0.019513946 0.19391787
-0.039622996 0.015483002 0.19655262
-0.040261678 0.0099894609 0.1979371
-0.04012423 0.0052113263 0.19776694
-0.039557792 0.0014433147 0.19987027
-0.039845496 -0.00052533357 0.20632467
-0.041786097 -0.0023067615 0.21255434
-0.043405164 -0.0045759985 0.2168618
-0.044238269 -0.0087372903 0.21868792
-0.044544715 -0.012089922 0.22081904
-0.044690084 -0.015500576 0.22238843
-0.044988725 -0.01873181 0.2243419
-0.044718727 -0.021415418 0.2263577
-0.033769105 0.044048328 0.1784659
-0.033872105 0.04239266 0.17990091
-0.034001611 0.039865501 0.18153541
-0.034186523 0.037350561 0.18293457
-0.034092546 0.034549262 0.18499383
-0.034538124 0.031667914 0.18730636
-0.035024516 0.028738296 0.18922998
-0.035526179 0.025738588 0.19116387
-0.036044292 0.022686521 0.19282226
-0.036319513 0.019626543 0.19553706
-0.036830571 0.015399069 0.19750154
-0.037177514 0.010451541 0.1983299
-0.037119918 0.00620384 0.19855371
-0.036705613 0.0019145238 0.19949053
-0.037122373 -0.00022650266 0.20701623
-0.038874567 -0.0018725328 0.21381979
-0.03964866 -0.0046384386 0.21746819
-0.040544346 -0.0089247124 0.2185625
-0.040619098 -0.012462628 0.220019
-0.040867247 -0.015885526 0.22195259
-0.040846597 -0.018997988 0.22340618
-0.041104581 -0.022126039 0.22548893
-0.030477194 0.044273734 0.17949416
-0.030706486 0.042537563 0.18045706
-0.030826064 0.039932977 0.18223952
-0.030983528 0.037398342 0.18470351
-0.031234572 0.034642652 0.186474
-0.031464729 0.031711396 0.18882185
-0.031799417 0.028825451 0.19086127
-0.032317001 0.025843322 0.19252847
-0.032991048 0.023011727 0.19383556
-0.033404686 0.019771496 0.19674155
-0.033946648 0.015574648 0.19847612
-0.034309383 0.01075307 0.19956057
-0.034245905 0.0065852287 0.20024598
-0.03398411 0.0027773364 0.20147331
-0.034971803 0.0010996772 0.20905316
-0.036109678 -0.0013861397 0.2148176
-0.036451507 -0.0047043213 0.21692511
-0.037238121 -0.0092197973 0.21853137
-0.037255697 -0.012666909 0.22018491
-0.037404872 -0.015895396 0.22208874
-0.037348982 -0.019128913 0.22296399
-0.037569046 -0.022309117 0.22511794
-0.027433114 0.044399757 0.17991932
-0.027423197 0.042577121 0.1810402
-0.027576167 0.039967734 0.18304276
-0.027851058 0.037456155 0.18616916
-0.028312035 0.034804855 0.18828754
-0.02853463 0.031956512 0.19022849
-0.028592641 0.029008575 0.19157399
-0.028768769 0.02622606 0.19334434
-0.029169153 0.023321891 0.19546615
-0.030135065 0.020223802 0.19820115
-0.031146526 0.015104254 0.20021294
-0.031237885 0.010888687 0.20167635
-0.030849006 0.0073591471 0.20330241
-0.030689266 0.0041234279 0.20648536
-0.031453058 0.0017949311 0.21072133
-0.032387134 -0.0012309662 0.21434511
-0.032809805 -0.0048151664 0.21662275
-0.033956163 -0.0091252057 0.2190793
-0.03395706 -0.012460866 0.22086526
-0.034038678 -0.01565774 0.22301918
-0.033964649 -0.019037157 0.2243553
-0.033893645 -0.022635181 0.22731496
-0.033371005 -0.025319213 0.23007087
-0.024048142 0.044371542 0.18065037
-0.024193252 0.042744253 0.18179601
-0.024129186 0.040115532 0.18339917
-0.024588717 0.037613567 0.18627
-0.025178889 0.035079438 0.188843
-0.02542248 0.032233521 0.19111748
-0.025511019 0.02933017 0.19253992
-0.025632482 0.026331663 0.19473903
-0.025740303 0.023547914 0.19723031
-0.026844487 0.020314673 0.20010221
-0.027175559 0.015694415 0.20280187
-0.027198056 0.01197761 0.20432036
-0.027238768 0.0083042737 0.20641279
-0.027419979 0.0050393711 0.20899577
-0.028176919 0.0022837468 0.21192598
-0.028931987 -0.00096852903 0.21531872
-0.029752692 -0.0053596999 0.21709047
-0.030076653 -0.0086987605 0.22053865
-0.030137638 -0.01206943 0.22213307
-0.030246727 -0.01551788 0.22508417
-0.029868912 -0.019172069 0.22718336
-0.029870087 -0.022819467 0.22928639
-0.029894395 -0.026582068 0.23130031
-0.020920878 0.044711448 0.18108614
-0.02096403 0.043011583 0.18222514
-0.021026619 0.040309686 0.18364312
-0.021150045 0.03785181 0.18560225
-0.021820545 0.035255648 0.18911189
-0.022074219 0.032629296 0.19181198
-0.022256892 0.029784897 0.19375654
-0.02225654 0.026933433 0.19607067
-0.022761386 0.023875032 0.19896184
-0.023338562 0.020031989 0.20162632
-0.023354826 0.015990775 0.20356335
-0.023274312 0.012253926 0.20546103
-0.023750743 0.0085331909 0.20752716
-0.024096694 0.0056608403 0.2108499
-0.024946624 0.0027230338 0.2138484
-0.02551814 -0.00055599061 0.21647601
-0.026284551 -0.0048454376 0.21853831
-0.026187275 -0.0084183803 0.22204122
-0.026214235 -0.011976499 0.22298485
-0.026082788 -0.015656574 0.22628149
-0.025953235 -0.019469459 0.22869304
-0.026094006 -0.023277411 0.23027858
-0.026323741 -0.027071951 0.23242551
-0.018283151 0.042947046 0.1831336
-0.018010812 0.040696017 0.18463677
-0.018062903 0.037939116 0.18595314
-0.018440472 0.035261273 0.1891942
-0.018858453 0.032672986 0.19213407
-0.019033058 0.030005727 0.19422793
-0.019270472 0.02732664 0.19708803
-0.019856865 0.023885654 0.20035121
-0.020241542 0.020071926 0.20302218
-0.020252835 0.016298223 0.20511381
-0.020039272 0.012882706 0.20696154
-0.020466778 0.0091991266 0.20964795
-0.020983743 0.0057323943 0.21178344
-0.021918075 0.0024110556 0.21540266
-0.02236134 -0.0011111322 0.21795753
-0.022824399 -0.0045994287 0.22044365
-0.022599986 -0.0079891672 0.22406496
-0.022385884 -0.011811615 0.2247017
-0.022457914 -0.015694179 0.22705255
-0.021994585 -0.019575179 0.22924648
-0.02217946 -0.023283297 0.22955497
-0.022569718 -0.02741117 0.23398191
-0.015166772 0.040815141 0.18539879
-0.015152779 0.038143855 0.18699828
-0.015236454 0.035339843 0.18930572
-0.015385523 0.032655258 0.19225928
-0.01560541 0.030027898 0.19470216
-0.01586606 0.027330361 0.19863524
-0.016697636 0.02367007 0.20271362
-0.016814297 0.020199727 0.20481934
-0.016897382 0.016837625 0.20633288
-0.016774731 0.013314785 0.2080195
-0.017190266 0.0097375214 0.211302
-0.017260035 0.0067607518 0.21381094
-0.017872225 0.003017257 0.2166751
-0.018897139 -0.00080426526 0.21962079
-0.019449929 -0.0043151015 0.22284016
-0.019239644 -0.0077193407 0.22582151
-0.018766202 -0.011696821 0.22648983
-0.018642422 -0.015843043 0.22863242
-0.018295957 -0.019715039 0.22926903
-0.018361369 -0.023515783 0.23097642
-0.018811699 -0.027894702 0.23727594
-0.012541422 0.038078524 0.18834695
-0.012070168 0.035621736 0.19018503
-0.012151662 0.032873798 0.19303994
-0.012265264 0.030132975 0.19582489
-0.012578789 0.027172094 0.19931632
-0.013150045 0.023726428 0.20360988
-0.013132778 0.020576656 0.20603622
-0.013275896 0.017225606 0.20791441
-0.013645106 0.01374867 0.20998484
-0.013712108 0.0103862 0.21307018
-0.013984532 0.0071582892 0.21524343
-0.013986692 0.0037469459 0.21772744
-0.015120039 -0.00039981361 0.2208657
-0.01579137 -0.0038155122 0.22439146
-0.015704384 -0.0074333185 0.22684161
-0.015116217 -0.011604801 0.22839259
-0.014829186 -0.015663827 0.23021226
-0.014708134 -0.019740589 0.23083837
-0.014662599 -0.023842815 0.23431583
-0.015110883 -0.028237257 0.24048994
-0.009783363 0.035224147 0.19109672
-0.0090301363 0.032988265 0.19380163
-0.0089319712 0.030182336 0.19682384
-0.0090946415 0.0270657 0.19963209
-0.0095157353 0.024017692 0.20348446
-0.0095015271 0.020903474 0.20668538
-0.0095025618 0.017648168 0.20916805
-0.010150699 0.014330339 0.2117862
-0.010159451 0.010846755 0.2139996
-0.010222836 0.0075497152 0.21668701
-0.01011539 0.0041712811 0.219265
-0.010510235 0.00023753844 0.22177914
-0.011651259 -0.003728216 0.22511695
-0.011191261 -0.0074297269 0.22733615
-0.010948272 -0.011466996 0.229413
-0.010938742 -0.015586141 0.23126522
-0.010887801 -0.019660909 0.23277977
-0.010956954 -0.024023978 0.2367454
-0.011527544 -0.02750214 0.2411201
-0.0057271942 0.032487653 0.19633561
-0.0056973253 0.030095769 0.19846585
-0.0057872301 0.026933162 0.20131107
-0.0060269251 0.024016965 0.20422798
-0.0061167637 0.021202365 0.20704384
-0.0060729077 0.017813448 0.21006472
-0.006332478 0.014428148 0.21252353
-0.0063277376 0.011233199 0.21463461
-0.0063345986 0.0077232509 0.21703315
-0.0065880488 0.0041012224 0.21979336
-0.0066830413 0.00023184753 0.22203442
-0.0068282341 -0.0039798305 0.22463377
-0.0068274089 -0.0077398503 0.22740458
-0.0070311087 -0.01171163 0.22948089
-0.0069301161 -0.015630974 0.23107068
-0.0070567573 -0.019613499 0.23378617
-0.0074966187 -0.023317564 0.23642492
-0.0031531551 0.031898841 0.19799671
-0.0026253029 0.029959571 0.19907461
-0.0025422047 0.026916865 0.2013478
-0.0026331835 0.023939906 0.20393395
-0.0026139668 0.021213306 0.20681581
-0.0027905779 0.01807281 0.2101056
-0.0027833777 0.014573609 0.21296985
-0.0027198442 0.011145732 0.21501689
-0.0027242941 0.0077072415 0.21728943
-0.00294915 0.0040575592 0.2192834
-0.0030917639 -6.1940424e-05 0.22247742
-0.00303118 -0.0038753639 0.22405338
-0.0030838999 -0.0078427661 0.22679685
-0.0031768729 -0.011455488 0.22842662
-0.0037520786 -0.015083774 0.23009315
9.1696631e-05 0.029465683 0.19998403
0.00067260361 0.027189292 0.20180494
0.00050907151 0.024025941 0.20389982
0.00077664579 0.021390809 0.20642456
0.00081324461 0.018203253 0.20921929
0.00095986325 0.014746785 0.211687
0.0008438474 0.01125023 0.21440844
0.00080968818 0.0078191757 0.21689616
0.00086306682 0.0041607847 0.21800102
0.00059296779 0.00022982394 0.22126821
0.00090318132 -0.0036702522 0.22328417
0.00023979366 -0.0073949927 0.22590584
-0.00067365583 -0.010576431 0.22853655
0.0036045334 0.027100535 0.20251344
0.0039458196 0.024404844 0.20355923
0.0042677773 0.021520834 0.20586483
0.0044075707 0.01823307 0.20862012
0.0044971388 0.014757592 0.21099314
0.0042772917 0.01145697 0.21320866
0.0038147147 0.0077946866 0.21643257
0.0034161073 0.0045226268 0.21775879
0.0031377668 0.00044369555 0.22032957
0.0031662819 -0.0026635786 0.22259595
0.0057989536 0.024456525 0.20397858
0.0065496173 0.021406433 0.20609674
0.0066601727 0.018336022 0.20844546
0.0065509095 0.014545563 0.2112793
0 0 0 1 0 0 0 1 0 0 0 1 0 0 0 0 0 354 1 0 0
