ply
format ascii 1.0
comment PCL generated
element vertex 354
property float x
property float y
property float z
element camera 1
property float view_px
property float view_py
property float view_pz
property float x_axisx
property float x_axisy
property float x_axisz
property float y_axisx
property float y_axisy
property float y_axisz
property float z_axisx
property float z_axisy
property float z_axisz
property float focal
property float scalex
property float scaley
property float centerx
property float centery
property int viewportx
property int viewporty
property float k1
property float k2
end_header
-0.056053516 0.030989908 0.18688864
-0.057173058 0.02797992 0.18882677
-0.058409333 0.024475582 0.1914728
-0.059053283 0.021027632 0.19371043
-0.059100334 0.017637834 0.19533865
-0.05172503 0.035786293 0.1832412
-0.052549224 0.033982724 0.18400685
-0.053040504 0.031105652 0.18520539
-0.053450178 0.028064281 0.18665445
-0.054405645 0.024897851 0.18942662
-0.055671468 0.021448754 0.19262369
-0.056345455 0.018001782 0.19457874
-0.056499928 0.01463841 0.19596183
-0.056138013 0.011276567 0.19844933
-0.048079867 0.038284868 0.18079963
-0.048866127 0.036466509 0.18157727
-0.049356971 0.033926923 0.18255046
-0.049765658 0.031267997 0.18417792
-0.05013999 0.02818647 0.18619609
-0.051044527 0.025031326 0.18931864
-0.051613025 0.021966552 0.19168922
-0.052647181 0.01876191 0.19386622
-0.053266384 0.01506182 0.19648997
-0.053005941 0.0097149704 0.20071487
-0.052606478 0.004373278 0.20217687
-0.052488789 0.00078790967 0.20319659
-0.045710791 0.038826883 0.17965904
-0.046021353 0.036447551 0.18083529
-0.046252564 0.033930436 0.18235748
-0.046756964 0.031336848 0.18460974
-0.047207553 0.028600644 0.18670866
-0.047946423 0.025241515 0.18937285
-0.048237383 0.022172028 0.19127095
-0.048870809 0.019153329 0.19382507
-0.049695585 0.015124992 0.19734621
-0.049082913 0.0083207591 0.2003275
-0.049271178 0.0032117174 0.2013505
-0.049314342 2.7387293e-06 0.2038383
-0.049512934 -0.0022990524 0.2065952
-0.050934292 -0.0034712157 0.20867939
-0.042462319 0.0410522 0.17871377
-0.042861156 0.039138585 0.17980336
-0.043113466 0.036700882 0.18138877
-0.043349795 0.034220506 0.18344587
-0.043853216 0.03172354 0.18576205
-0.0443555 0.028750023 0.18746272
-0.045014564 0.02543263 0.18942249
-0.045212977 0.022365075 0.19065018
-0.045474596 0.019159341 0.19303766
-0.045699485 0.014279427 0.19657509
-0.046050474 0.0083102575 0.19849609
-0.046235625 0.0028027303 0.20006816
-0.04610654 0.00043669503 0.20382391
-0.046610896 -0.0011173316 0.20695229
-0.048299424 -0.0031484012 0.21003489
-0.049763788 -0.0053984853 0.21421692
-0.050489441 -0.0081313392 0.21839567
-0.049911626 -0.010721604 0.22097647
-0.039879531 0.041758209 0.1786603
-0.040071487 0.039279338 0.18026789
-0.040207196 0.036805481 0.1819272
-0.040518045 0.034510635 0.18416645
-0.041074213 0.031910304 0.18635775
-0.041390538 0.028930755 0.18832655
-0.041968845 0.025458518 0.1896871
-0.042099889 0.022169257 0.19032015
-0.042543627 0.018988371 0.19222948
-0.04261649 0.014737834 0.19500712
-0.043136295 0.0084934384 0.1966012
-0.043093413 0.0035496892 0.19810805
-0.042566899 0.00064282166 0.20192197
-0.042766038 -0.00097543024 0.20604837
-0.04486414 -0.0027814556 0.21103013
-0.046646986 -0.0049357451 0.21553692
-0.047159608 -0.0080201095 0.21886501
-0.047394343 -0.011069353 0.22137147
-0.047241844 -0.01461278 0.22370195
-0.046989739 -0.017917713 0.22521576
-0.036665667 0.043809425 0.17774533
-0.036886141 0.042123266 0.17926142
-0.037128709 0.039551821 0.18081491
-0.037285626 0.037112635 0.18229355
-0.037494205 0.034756817 0.18480322
-0.037960071 0.032081258 0.18692131
-0.038222335 0.029112803 0.1884854
-0.038801793 0.025664855 0.19025582
-0.039069116 0.022385657 0.19095472
-0.039256651 0.01886679 0.19226767
-0.039568495 0.014727768 0.19463761
-0.0401554 0.0091415551 0.19564664
-0.039956458 0.0043298863 0.19642965
-0.039225794 0.00073805824 0.19888009
-0.039346039 -0.00074886286 0.20570457
-0.041518901 -0.0024036407 0.21210869
-0.043288071 -0.0045724381 0.21635078
-0.043549232 -0.007882148 0.21902269
-0.04352849 -0.011428541 0.220842
-0.043663118 -0.015103133 0.22177085
-0.043890733 -0.018537682 0.22326885
-0.043510821 -0.021494009 0.22504325
-0.033795539 0.044006567 0.17831613
-0.033934902 0.042364545 0.17977637
-0.034085467 0.039842028 0.18143083
-0.034301627 0.037366699 0.18285069
-0.034171313 0.0346344 0.18483804
-0.034622621 0.031827003 0.18717761
-0.035146482 0.028988102 0.18925315
-0.035706334 0.026017565 0.19121717
-0.03603771 0.022611564 0.19216889
-0.036344357 0.018988824 0.19387092
-0.036764428 0.014691042 0.19550459
-0.037027832 0.0097478898 0.19602883
-0.036821287 0.0055162562 0.19659588
-0.036255933 0.0013023803 0.19813718
-0.036726866 -0.00054968143 0.20615573
-0.038679142 -0.0019512631 0.2133017
-0.039545815 -0.004607541 0.21695781
-0.039846282 -0.0080266679 0.21857221
-0.039786395 -0.011797143 0.21937445
-0.040002618 -0.015627507 0.22055085
-0.03990896 -0.018874403 0.22173481
-0.040123858 -0.022128111 0.22376932
-0.030466462 0.044098649 0.17914668
-0.030746471 0.042380419 0.18015774
-0.030866463 0.039819095 0.18198401
-0.030913809 0.03729973 0.18425344
-0.031151548 0.034571338 0.18590316
-0.03139684 0.031743873 0.18835531
-0.031752866 0.028936436 0.19052832
-0.032321442 0.0260329 0.19233322
-0.032931302 0.022963673 0.19331869
-0.03343562 0.019166455 0.19509622
-0.033910014 0.01494608 0.19662686
-0.034241781 0.010231726 0.19758984
-0.033977211 0.006089461 0.19829604
-0.033534903 0.0023542768 0.19981094
-0.034670908 0.00061932998 0.20778996
-0.036089703 -0.0014642728 0.21403953
-0.036437266 -0.0046392428 0.21643312
-0.036534466 -0.0082739647 0.21828243
-0.036420856 -0.012255723 0.21874732
-0.036464762 -0.015819907 0.22023436
-0.036374688 -0.019106714 0.22114952
-0.036603983 -0.022384224 0.22339246
-0.027405532 0.044024993 0.17920515
-0.027397616 0.042233251 0.18036613
-0.027519178 0.039703306 0.18246092
-0.027676925 0.03727873 0.18547106
-0.028105425 0.034666624 0.18755971
-0.028385542 0.03191445 0.1895809
-0.028466329 0.029018199 0.19103768
-0.028710743 0.026286192 0.19288312
-0.029110171 0.02332616 0.19496408
-0.030129185 0.019711901 0.19678195
-0.031238828 0.014641382 0.19855434
-0.031262018 0.010523741 0.20006028
-0.030593609 0.0069305212 0.20182131
-0.030286828 0.0036356419 0.20525171
-0.031255249 0.0014099753 0.20962697
-0.032362122 -0.0013945369 0.2134615
-0.03282075 -0.0047744224 0.21618779
-0.033232078 -0.0083203213 0.21894567
-0.032991704 -0.01212269 0.21969382
-0.032962989 -0.015616938 0.22152472
-0.032946859 -0.019050751 0.22290477
-0.033195451 -0.022624915 0.22609963
-0.0330435 -0.025191301 0.22930485
-0.023924759 0.043806907 0.17955314
-0.024079543 0.042230885 0.1807742
-0.024048164 0.039710872 0.18251099
-0.024419624 0.03738042 0.18548195
-0.024964506 0.0349213 0.18798928
-0.025251478 0.032161649 0.19037566
-0.025390966 0.029269869 0.19187234
-0.025547823 0.026320899 0.19413705
-0.025651112 0.023494545 0.19669081
-0.026736705 0.019794485 0.19946294
-0.026813036 0.014981002 0.20193255
-0.026628023 0.011311402 0.20306726
-0.026727337 0.0077439914 0.20529662
-0.027123149 0.0047120433 0.20812379
-0.028040797 0.0020639305 0.2110886
-0.028939027 -0.0010568663 0.21452835
-0.029207846 -0.0046038367 0.21695933
-0.029236237 -0.0082257371 0.22021702
-0.029174922 -0.011840742 0.22147636
-0.029375048 -0.015491344 0.22418988
-0.029140405 -0.019215075 0.22640018
-0.029534271 -0.022721251 0.22903979
-0.030010905 -0.0263584 0.23191819
-0.020738771 0.043995745 0.1797051
-0.020814287 0.042378817 0.1809295
-0.020888265 0.039791107 0.18254811
-0.021012001 0.037487634 0.18467674
-0.021702673 0.035125084 0.18831137
-0.021928994 0.032533143 0.191018
-0.022114247 0.029694146 0.19298191
-0.022121122 0.026847389 0.19531696
-0.022666123 0.023764422 0.19855002
-0.023348257 0.019808654 0.20174423
-0.023230005 0.015736716 0.20361687
-0.023088658 0.012118597 0.20539606
-0.02352689 0.0085243676 0.20746222
-0.023983868 0.0054559316 0.21022515
-0.025016041 0.0026234444 0.21328211
-0.02565005 -0.00061825005 0.21595328
-0.025849383 -0.0042120353 0.21843608
-0.025594996 -0.0080337487 0.22182938
-0.025403196 -0.011848642 0.22261125
-0.025369912 -0.015729651 0.22593333
-0.025645414 -0.019517327 0.22910157
-0.026277533 -0.023086445 0.23140258
-0.026724277 -0.02678795 0.2337538
-0.01806945 0.042287357 0.18175194
-0.017833048 0.040149014 0.18341996
-0.017922681 0.037500579 0.18497829
-0.018362481 0.035150401 0.1884695
-0.018783944 0.032673832 0.19143301
-0.018913407 0.02994753 0.1934879
-0.019113621 0.02723394 0.19630232
-0.019835828 0.023783328 0.20023856
-0.020316282 0.019958289 0.20333399
-0.020238087 0.016175386 0.20530766
-0.019924233 0.012880451 0.20707029
-0.020345639 0.0092528937 0.2096865
-0.020883441 0.0060172831 0.21194388
-0.021867793 0.0030088783 0.21554446
-0.022229895 -0.00036290244 0.21812682
-0.022649018 -0.0037367875 0.22077069
-0.022364477 -0.0073034535 0.22434849
-0.021846833 -0.011559739 0.22488314
-0.021890102 -0.015688455 0.22729513
-0.021847326 -0.019589193 0.23040056
-0.022292864 -0.023113152 0.23121612
-0.023144839 -0.027027098 0.23573078
-0.014980453 0.040275358 0.18413615
-0.01501758 0.037763473 0.18600476
-0.015169261 0.035258591 0.18859871
-0.015366958 0.032781087 0.19173372
-0.015549565 0.030077042 0.194111
-0.015853442 0.027324261 0.19806322
-0.016830239 0.023654491 0.20297083
-0.01696137 0.020272193 0.20530097
-0.017041422 0.017011715 0.20686042
-0.016920352 0.013644087 0.20857325
-0.017204298 0.009976441 0.21168947
-0.017206477 0.0070122816 0.21404949
-0.017787494 0.0034017498 0.21687581
-0.018887 0.00019321393 0.22003345
-0.019525254 -0.0032003114 0.22344233
-0.019200897 -0.0068461271 0.22648887
-0.018443711 -0.011313547 0.22722745
-0.018343054 -0.015794974 0.22961524
-0.018291326 -0.019656956 0.23110048
-0.018660719 -0.023234978 0.23311636
-0.019670825 -0.027340842 0.23933284
-0.012410952 0.037794255 0.18741624
-0.012033176 0.035601422 0.18957883
-0.012129744 0.032896202 0.19247659
-0.012219571 0.030064024 0.1952011
-0.012561782 0.026939947 0.19872823
-0.013238988 0.023557717 0.20348549
-0.013224843 0.020565595 0.20620771
-0.013437502 0.017450994 0.20846337
-0.01381446 0.014111756 0.21055876
-0.013713244 0.010628738 0.21342419
-0.013959995 0.007357724 0.21554185
-0.013904831 0.0039042558 0.21786542
-0.015192258 0.0007374477 0.22150718
-0.01596004 -0.0024704847 0.22526442
-0.01567526 -0.0066238935 0.22789809
-0.014910625 -0.01147751 0.22973087
-0.014842728 -0.015617127 0.23194262
-0.015035299 -0.019562237 0.23306267
-0.015249501 -0.023535611 0.23666716
-0.016162245 -0.027630532 0.24270453
-0.0097539704 0.035175037 0.1904415
-0.0089437161 0.032823678 0.19304912
-0.0088300686 0.029885234 0.19596775
-0.0090090856 0.026668753 0.19881937
-0.0094930548 0.023645205 0.20288444
-0.0095093558 0.020562502 0.20627877
-0.0094533851 0.017417852 0.20900717
-0.01005014 0.01429924 0.21172556
-0.010073505 0.010931971 0.21412435
-0.010146835 0.0077292221 0.21691033
-0.010092043 0.0043600244 0.21951538
-0.010510686 0.0007690941 0.22233534
-0.011744289 -0.0028602725 0.22606505
-0.010884396 -0.0074351607 0.2285703
-0.010750572 -0.011714454 0.23091982
-0.011033562 -0.015741698 0.23305579
-0.011220305 -0.019715089 0.23484313
-0.011648795 -0.02384025 0.2389231
-0.012586303 -0.027010493 0.24336267
-0.0055555017 0.03207463 0.1953367
-0.0054938202 0.029596958 0.19738086
-0.0055828192 0.026476637 0.2002888
-0.0058903508 0.023616752 0.2034595
-0.0060187774 0.020799566 0.20637019
-0.0059627551 0.01758524 0.20967272
-0.0061730254 0.01434391 0.21233356
-0.0061956593 0.011322306 0.21472871
-0.0062526171 0.0079231178 0.21730888
-0.0065818341 0.0043823132 0.22018132
-0.0066457256 0.00042045049 0.22258237
-0.006767503 -0.0039894199 0.2252087
-0.0065743262 -0.0081435489 0.22837122
-0.0068828398 -0.012258563 0.23095284
-0.0070098061 -0.016089752 0.23272958
-0.0074164886 -0.019907987 0.23557319
-0.0080972472 -0.023345947 0.23862329
-0.0029102995 0.031292118 0.19676578
-0.0023678865 0.029233437 0.19769606
-0.0022998995 0.026292026 0.20011169
-0.0024926267 0.023531191 0.20311201
-0.0025380552 0.020895906 0.20618409
-0.0027118896 0.017946983 0.20974647
-0.0026584286 0.014693193 0.21296313
-0.0026132714 0.011417007 0.21537548
-0.0026670129 0.0080150329 0.2178039
-0.0029283261 0.0043504275 0.21985491
-0.0030396124 1.6554388e-05 0.22306553
-0.0030134919 -0.0039448473 0.22454406
-0.0029467335 -0.0083342995 0.22756205
-0.0031036567 -0.012203017 0.22960956
-0.0038118381 -0.015885085 0.23165825
0.00044308728 0.028524216 0.1983529
0.00092929672 0.026469508 0.20045142
0.00063475134 0.023581348 0.20300409
0.00088839419 0.021041494 0.20579341
0.00092077698 0.018041421 0.20886534
0.0010827178 0.014912744 0.21184798
0.00094281894 0.011697884 0.21519405
0.00089140236 0.0083447294 0.21784961
0.00097112695 0.0045488458 0.21895149
0.00064648583 0.000315843 0.22191545
0.00093696656 -0.0037639458 0.22372004
0.00032374196 -0.0078533767 0.22646819
-0.00054656301 -0.011377619 0.2295164
0.0038601509 0.026376471 0.20118757
0.0040932214 0.023843 0.20259915
0.0043586399 0.021158703 0.20524669
0.0045149713 0.018177409 0.20844938
0.0045890771 0.015099052 0.2114542
0.0044113761 0.012045573 0.21426313
0.0038847062 0.008613524 0.21777411
0.0035529351 0.0051721144 0.21907
0.0032208273 0.0005910761 0.22109993
0.0032054484 -0.0026724066 0.22316873
0.0059601413 0.02387427 0.20304015
0.0066567808 0.021128621 0.20562577
0.0067764455 0.018413344 0.20850205
0.0066566598 0.015037294 0.21197702
0 0 0 1 0 0 0 1 0 0 0 1 0 0 0 0 0 354 1 0 0
