ply
format ascii 1.0
comment PCL generated
element vertex 239
property float x
property float y
property float z
element camera 1
property float view_px
property float view_py
property float view_pz
property float x_axisx
property float x_axisy
property float x_axisz
property float y_axisx
property float y_axisy
property float y_axisz
property float z_axisx
property float z_axisy
property float z_axisz
property float focal
property float scalex
property float scaley
property float centerx
property float centery
property int viewportx
property int viewporty
property float k1
property float k2
end_header
-0.024498826 0.034543503 0.145319
-0.024271868 0.032200672 0.1454678
-0.024467241 0.030214682 0.14717267
-0.024702983 0.028107237 0.14902326
-0.024882838 0.026073476 0.15116671
-0.025605341 0.023879105 0.15518562
-0.026932886 0.021607772 0.16014324
-0.027518386 0.019223265 0.16255203
-0.027502375 0.016595749 0.16352345
-0.027224069 0.013767457 0.16461448
-0.027202692 0.010995484 0.16533174
-0.02746303 0.008248684 0.16703218
-0.027489727 0.0055890991 0.1670794
-0.022053899 0.034593083 0.14495377
-0.021886582 0.032370925 0.14600195
-0.022070671 0.030354906 0.14778681
-0.022191662 0.028217744 0.14938377
-0.022314597 0.02602688 0.15138762
-0.022762217 0.023769546 0.15414263
-0.023462359 0.021399092 0.15829411
-0.023836013 0.019022172 0.16036408
-0.024141658 0.016632322 0.16246872
-0.0241483 0.013962903 0.1636394
-0.023994964 0.01112604 0.16436063
-0.02453615 0.0083460296 0.16658343
-0.024975915 0.0056579099 0.16888893
-0.024750913 0.0027674492 0.17113586
-0.01945325 0.034826271 0.14541119
-0.01957419 0.032728456 0.1474693
-0.019614916 0.030445771 0.1482995
-0.019753834 0.028240025 0.14990127
-0.019812485 0.026014287 0.15141752
-0.020205606 0.023896243 0.15473777
-0.020963201 0.021627802 0.15903737
-0.021195482 0.019137621 0.16073573
-0.02125534 0.016782485 0.16235393
-0.021481982 0.014231014 0.16437398
-0.021489041 0.011048853 0.16660577
-0.021385081 0.0078916457 0.16834305
-0.021664884 0.0051083723 0.17040695
-0.021393189 0.0022322917 0.17109816
-0.021403197 -0.00083354075 0.17194921
-0.016922235 0.035041589 0.14678666
-0.017157098 0.032837268 0.14805803
-0.017042957 0.030447595 0.14822342
-0.017250659 0.028359661 0.15052269
-0.017282829 0.026087286 0.15161356
-0.017622767 0.023952853 0.15475506
-0.018345855 0.022068925 0.15974002
-0.01834796 0.019314909 0.16061696
-0.018532738 0.016822454 0.16287693
-0.018360244 0.014150337 0.16542853
-0.018631043 0.010825378 0.16839848
-0.018620301 0.0080134757 0.16942829
-0.019055931 0.0053788144 0.17183159
-0.019001309 0.0024575014 0.17302993
-0.019376544 -0.0004568664 0.17425263
-0.014317794 0.035237741 0.14700353
-0.014562781 0.032970563 0.1481043
-0.014366359 0.030542908 0.14817846
-0.014750044 0.028362345 0.15066436
-0.014796961 0.026242306 0.15260743
-0.015072115 0.02417249 0.155277
-0.015646312 0.022306567 0.16060768
-0.015594062 0.019470591 0.16103846
-0.015735166 0.016871406 0.16338605
-0.015542042 0.014121419 0.16631934
-0.015353983 0.011136063 0.16835715
-0.016012121 0.0084158471 0.17116641
-0.016774669 0.0056569315 0.17457637
-0.016851246 0.0026444157 0.1753493
-0.016127991 -0.00069834769 0.17454721
-0.011995763 0.035489731 0.14741169
-0.012085292 0.033251997 0.1485427
-0.011981725 0.030974185 0.14980987
-0.012032258 0.02845099 0.15156622
-0.012186479 0.026364282 0.1531488
-0.012430481 0.024183655 0.15566194
-0.012783346 0.022009514 0.15951969
-0.01279074 0.019517668 0.16112491
-0.012807366 0.016865579 0.16314746
-0.012905882 0.014279604 0.16717298
-0.013401671 0.011273098 0.17116609
-0.01396503 0.0086468766 0.17391293
-0.014047322 0.0057209656 0.17611648
-0.014083199 0.0028003408 0.17552462
-0.012679028 -0.0010868374 0.17405099
-0.0096781757 0.035523187 0.14749372
-0.0097013246 0.033649713 0.14899246
-0.0096222796 0.03147468 0.1511378
-0.0097687719 0.028719269 0.15261954
-0.0096245911 0.026554659 0.15437649
-0.0097650215 0.024250139 0.15642369
-0.0097902222 0.021901846 0.15950848
-0.0097906599 0.019433884 0.16007486
-0.010032112 0.016941594 0.16326371
-0.010383192 0.014636968 0.16769376
-0.010679668 0.011303842 0.17203943
-0.010946763 0.0086764954 0.17474516
-0.010917122 0.0055296994 0.17477719
-0.010878094 0.0025760529 0.17482954
-0.01040822 -0.0006476313 0.17481735
-0.0070404974 0.035625052 0.1476489
-0.0072543933 0.033709064 0.14950188
-0.0072493255 0.031560995 0.15174507
-0.0070353243 0.028938683 0.1525529
-0.0070557757 0.026645599 0.15412621
-0.0070830034 0.024622925 0.15746467
-0.0071626538 0.022114014 0.16050626
-0.0071900277 0.019364994 0.16064002
-0.0074108555 0.016944384 0.16385047
-0.0077965232 0.014572463 0.16829875
-0.0077022938 0.01104741 0.17123789
-0.0080305384 0.0083497567 0.1740405
-0.0081726639 0.0055161496 0.17487381
-0.0081363218 0.0027578073 0.1757475
-0.0085468069 0.00051304238 0.17845301
-0.0045976182 0.035443943 0.14769563
-0.0046917116 0.03338581 0.14969961
-0.0046484806 0.031700451 0.15169966
-0.0044472953 0.029076327 0.15353999
-0.0044940859 0.02690771 0.15600033
-0.0044448553 0.024998693 0.16054915
-0.0044691018 0.022304151 0.16142966
-0.0045848843 0.019659258 0.16225134
-0.0048223934 0.017088853 0.165108
-0.0049973642 0.01472897 0.16853546
-0.0050780121 0.011302792 0.17186102
-0.0050861831 0.0085432539 0.17442286
-0.0051541994 0.0056615542 0.17499776
-0.0052990932 0.0028683466 0.17553383
-0.0049603451 -0.00020103999 0.17922044
-0.0021024628 0.035397246 0.14798898
-0.0022172683 0.033036012 0.14930032
-0.0020574555 0.030828895 0.1509608
-0.0018978486 0.028642517 0.15279846
-0.0018374996 0.026637003 0.15550056
-0.001595912 0.025010273 0.16002874
-0.0017406318 0.022269776 0.16119166
-0.00194098 0.019785937 0.16347569
-0.001875261 0.017411243 0.16584101
-0.0020894757 0.014661958 0.16973566
-0.0021378601 0.011558527 0.17262201
-0.0021220767 0.0089797955 0.17492643
-0.0022077309 0.0061966726 0.17603035
-0.0019848559 0.0031747059 0.17607187
-0.0018043257 -7.59389e-05 0.18036197
-0.00065467844 0.034313668 0.14916366
-0.00036860106 0.031955041 0.15029231
-5.6592799e-05 0.02964255 0.15194046
0.00081424299 0.028271869 0.15358007
0.00099157472 0.026429424 0.15651157
0.0010345981 0.024531234 0.15911575
0.0010308827 0.022198334 0.16140372
0.00084965432 0.019825172 0.16367991
0.00084684289 0.017365184 0.16593686
0.00094342331 0.014661038 0.16970934
0.00074604945 0.011916703 0.17266555
0.00088308105 0.0091018016 0.17452395
0.00083206868 0.0062482799 0.17566437
0.00089637248 0.0033449447 0.17714949
0.0010628108 0.00025762583 0.17960764
0.0018661299 0.034720816 0.14952111
0.0020639193 0.032387309 0.15093693
0.0024812999 0.030050479 0.15210807
0.0035341545 0.027942102 0.15376619
0.0036954859 0.026065897 0.15625049
0.0037481315 0.024051163 0.15844527
0.0036897904 0.021811962 0.1600201
0.0037093773 0.019654198 0.16344224
0.0036416487 0.017286571 0.16610703
0.0039452082 0.014802395 0.16955341
0.0037926049 0.012112968 0.17251749
0.0037966296 0.009178401 0.17340127
0.0039413981 0.0063553648 0.17405136
0.0038853919 0.0036230173 0.17705394
0.0041552489 0.00046500392 0.17825218
0.0044954945 0.03497583 0.1490186
0.0046209376 0.03279265 0.15068206
0.0050388323 0.030495353 0.15193737
0.00606832 0.028306594 0.15402994
0.0062621329 0.026351601 0.15738542
0.0063579152 0.024170469 0.15947041
0.0062876497 0.0219345 0.16123669
0.0062740492 0.019740144 0.16330697
0.0068901884 0.017438652 0.16580364
0.0068893712 0.014869014 0.17044738
0.00666735 0.011850569 0.17166772
0.0067252452 0.0092964945 0.1729303
0.0066474099 0.0067854971 0.17532484
0.0069662645 0.0036854502 0.17783792
0.006953876 0.00053743424 0.17986032
0.0069700731 0.035354499 0.14931156
0.0072541465 0.033140514 0.15121633
0.007573009 0.030776681 0.15142387
0.0090871146 0.028612804 0.15567759
0.0090514002 0.026483169 0.1588386
0.0090837888 0.02414945 0.15998474
0.0089372229 0.022333208 0.16279452
0.0098618474 0.020190852 0.16572277
0.0097796312 0.017585581 0.16735876
0.0097137475 0.014763577 0.17012049
0.0096657909 0.011843238 0.17078343
0.0094670849 0.009573943 0.17229293
0.0094324388 0.0067193233 0.17589968
0.0099626761 0.0028494515 0.17980693
0.0098275272 -4.2371219e-05 0.18162735
0.0095834825 0.035551179 0.14916565
0.0099514183 0.033339489 0.15045471
0.010370147 0.030775264 0.15240118
0.011762261 0.028686095 0.15643905
0.011747492 0.026368676 0.15877743
0.011859354 0.024169929 0.15974894
0.011568259 0.022164362 0.16273892
0.012548759 0.020132691 0.16607068
0.012526271 0.017455053 0.16780476
0.012468037 0.014533957 0.16865323
0.012353183 0.011495217 0.16942003
0.012011829 0.0095154718 0.17183752
0.012544309 0.006145285 0.1764943
0.013238728 0.0021366959 0.17906542
0.012154303 0.035759445 0.1480086
0.012653649 0.033414148 0.14956543
0.013568153 0.031079166 0.15351248
0.014428961 0.028738046 0.15774418
0.014438407 0.026503855 0.1589327
0.014563937 0.024277639 0.1601283
0.014671284 0.022097142 0.1640798
0.015238401 0.019911522 0.16605993
0.015253384 0.017286941 0.16739719
0.015181913 0.014450793 0.16837186
0.014989266 0.011298027 0.1686676
0.014689125 0.0091388309 0.17168353
0.015271194 0.0057799206 0.17494904
0.01535546 0.0021915205 0.17589612
0.014749486 0.03585856 0.14700828
0.015296675 0.033482946 0.14953932
0.016009551 0.03111493 0.15414369
0.016725449 0.026727909 0.15903282
0 0 0 1 0 0 0 1 0 0 0 1 0 0 0 0 0 239 1 0 0
