ply
format ascii 1.0
comment PCL generated
element vertex 239
property float x
property float y
property float z
element camera 1
property float view_px
property float view_py
property float view_pz
property float x_axisx
property float x_axisy
property float x_axisz
property float y_axisx
property float y_axisy
property float y_axisz
property float z_axisx
property float z_axisy
property float z_axisz
property float focal
property float scalex
property float scaley
property float centerx
property float centery
property int viewportx
property int viewporty
property float k1
property float k2
end_header
-0.028341647 0.033532519 0.14892057
-0.02775784 0.031184349 0.14872451
-0.026998658 0.02883964 0.1500321
-0.026216438 0.026311208 0.15099488
-0.025830949 0.023758907 0.15201783
-0.027319083 0.020268945 0.15436882
-0.031852655 0.013678076 0.15670465
-0.032366812 0.011080718 0.1580696
-0.031782102 0.008120331 0.15908566
-0.03115312 0.0052628848 0.15958191
-0.032243803 0.0021590684 0.16054839
-0.034018461 -0.00098213123 0.16213986
-0.034349788 -0.0036518849 0.16175677
-0.026417717 0.033661854 0.14783959
-0.025251741 0.031102013 0.14835872
-0.024418769 0.028731519 0.14887878
-0.023712259 0.026399884 0.14983781
-0.023529608 0.023943739 0.15130518
-0.024359692 0.020415993 0.15267818
-0.025758736 0.016388414 0.15655947
-0.027827898 0.012639515 0.15738785
-0.028006701 0.0093123456 0.15833679
-0.027229082 0.0061208969 0.15937828
-0.026835114 0.0029457032 0.16098939
-0.030171337 -0.00039770408 0.16219036
-0.032081492 -0.0041495096 0.1636669
-0.028968018 -0.0070558586 0.16567579
-0.023494303 0.033649027 0.14703199
-0.021731596 0.031333432 0.14790021
-0.021471649 0.028929383 0.14839725
-0.021395056 0.026568862 0.14965804
-0.021143628 0.023815848 0.15095359
-0.022002256 0.020339448 0.1538301
-0.023339391 0.016550727 0.1566291
-0.024184966 0.013356439 0.15746734
-0.024632612 0.010482386 0.15789388
-0.024743306 0.0068545761 0.15971741
-0.024123073 0.0023692334 0.16366477
-0.026084576 -0.0010132755 0.16448934
-0.026582416 -0.0048969639 0.16639568
-0.02537187 -0.0066523748 0.1676202
-0.024686823 -0.0089001963 0.16875857
-0.018654788 0.033435591 0.1482006
-0.018893672 0.031302296 0.14868701
-0.018914362 0.029230123 0.14875944
-0.018994544 0.026837228 0.15064175
-0.019009745 0.023948116 0.15104289
-0.019396024 0.021030298 0.15369126
-0.021004049 0.017150519 0.15730533
-0.020854663 0.01397769 0.15797667
-0.021344094 0.011349101 0.15925662
-0.021266444 0.0057512089 0.16257665
-0.022418307 0.001722037 0.16477941
-0.023376673 -0.00068694603 0.16616043
-0.024145372 -0.0036135325 0.16761568
-0.023081185 -0.0055967364 0.16812058
-0.022698758 -0.0076802415 0.17008457
-0.015582692 0.033446245 0.14920686
-0.016111095 0.031177118 0.14921148
-0.016119016 0.029228633 0.14908829
-0.016628304 0.026395671 0.15157682
-0.016648503 0.023756221 0.15229003
-0.017142022 0.021163253 0.15397528
-0.018276855 0.017479863 0.15839094
-0.01831934 0.014809442 0.15892901
-0.018597884 0.011989999 0.16049899
-0.01853936 0.0061523467 0.16437404
-0.019359475 0.0025573939 0.16643085
-0.020218618 -0.00010431164 0.16776165
-0.021042103 -0.0027102286 0.16732661
-0.020455202 -0.004715886 0.1687054
-0.019490475 -0.0073263138 0.1699646
-0.012880735 0.033263039 0.14986937
-0.013086156 0.031037049 0.14999171
-0.013343155 0.028641017 0.15090238
-0.01361206 0.02608029 0.15221535
-0.014207175 0.023809295 0.1528614
-0.014649807 0.021319123 0.15392448
-0.015148777 0.018554104 0.15774365
-0.015641268 0.015344288 0.15925509
-0.015850211 0.012164364 0.16164434
-0.016880643 0.0067830277 0.16536333
-0.018476347 0.0021570236 0.16732417
-0.018846415 6.9929578e-05 0.16779101
-0.018873306 -0.0017100538 0.16825455
-0.018809829 -0.0042267507 0.16812627
-0.017068218 -0.0066815144 0.16826403
-0.010738167 0.033482041 0.14973047
-0.010619415 0.031138413 0.15024783
-0.010767042 0.028764371 0.15173413
-0.011299589 0.025976265 0.15278527
-0.011090748 0.024079204 0.15359476
-0.011337834 0.021627391 0.15492021
-0.010422648 0.018621387 0.15793118
-0.011868493 0.015934626 0.158658
-0.011942281 0.012794536 0.16223164
-0.012430507 0.0096765505 0.16632862
-0.016258379 0.0028841069 0.16729353
-0.016765252 0.00083184004 0.1684518
-0.017086148 -0.0016983068 0.16766523
-0.016730066 -0.0033685458 0.16741291
-0.014925016 -0.0062228711 0.16829434
-0.0079454342 0.033744309 0.14997296
-0.0085228914 0.030965306 0.15085325
-0.0085798725 0.028562872 0.15228061
-0.0083528049 0.026638592 0.15251356
-0.0081660328 0.024370251 0.15300889
-0.0077948258 0.02174397 0.15639262
-0.0077285338 0.018825941 0.15899751
-0.007899384 0.015733313 0.15979899
-0.0080837663 0.012919231 0.16248576
-0.0078243129 0.010074889 0.16758868
-0.013581912 0.0034249669 0.16863692
-0.014855594 0.0010551963 0.16931635
-0.015087537 -0.00067263137 0.16922128
-0.014327443 -0.0028460077 0.16843559
-0.013545605 -0.0053907726 0.16957974
-0.0050969827 0.034124546 0.1497135
-0.0061653773 0.030201061 0.15170965
-0.006530121 0.028705597 0.15210146
-0.0058837356 0.026700128 0.15269358
-0.0056308582 0.024017006 0.15427178
-0.0046364903 0.021120317 0.15851355
-0.0052658641 0.019163903 0.1596811
-0.0056383866 0.016135471 0.1609485
-0.0053152177 0.013006192 0.1640633
-0.005333323 0.010156988 0.16773705
-0.0064433208 0.0054922784 0.17002739
-0.010843268 0.0023244738 0.1704907
-0.012008235 -0.0003367383 0.16970497
-0.012184576 -0.0024710575 0.16928622
-0.0084153237 -0.0067220004 0.17241387
-0.0027394907 0.033927742 0.1499425
-0.0034457739 0.030681912 0.15085906
-0.0030261192 0.028751545 0.15147366
-0.0031618867 0.026514387 0.1521325
-0.0028698721 0.024076387 0.15445469
-0.0024690155 0.021109542 0.15909295
-0.002865711 0.019272259 0.16036175
-0.0028021559 0.016462926 0.16244388
-0.002544709 0.013389042 0.16482401
-0.0024083031 0.0098168124 0.16881442
-0.0028156906 0.0066166357 0.17057092
-0.0024947487 0.0042120372 0.17275251
-0.0034308005 0.0014108723 0.17307273
-0.0030673421 -0.00098651566 0.17428029
-0.0031082737 -0.0063222633 0.17657432
-0.00078732491 0.031533953 0.15071288
0.00042433254 0.029380471 0.1516533
-0.00036515057 0.027721759 0.15281737
0.0017644833 0.025885656 0.15440542
0.0018315299 0.023291405 0.15676391
0.00069128152 0.021114228 0.15900339
-1.1394431e-05 0.019241685 0.16137017
-0.00030913268 0.016510487 0.16317759
-0.00034363751 0.013725174 0.16500513
0.00047483153 0.010036232 0.1688856
0.00045614189 0.006840616 0.17056058
0.00043070869 0.0043952684 0.17291719
0.00020709568 0.0021212322 0.17437346
0.00043458963 -0.00058910548 0.17668478
0.00012836167 -0.0047112741 0.17772056
0.001908895 0.033292331 0.1503046
0.0026811964 0.031220967 0.15190379
0.0034947589 0.028817877 0.15387
0.0047934237 0.026223527 0.15621203
0.0046493774 0.024155134 0.15739867
0.0037439167 0.021685569 0.1584698
0.0030707046 0.019582061 0.15991829
0.0021404258 0.016449964 0.16342483
0.0018361364 0.013744746 0.16504669
0.0040473309 0.010623739 0.16881798
0.0043504899 0.0079367282 0.17013356
0.00372521 0.0047313771 0.17263182
0.003577563 0.0023162949 0.17483671
0.003074436 -0.0002391296 0.1771528
0.003288209 -0.0036062333 0.17849572
0.004857088 0.034438256 0.14964013
0.0051102741 0.032617297 0.15152809
0.0057299221 0.030507177 0.15323001
0.006724325 0.026452973 0.15641804
0.0064571886 0.024714475 0.15821627
0.0060095536 0.022341818 0.15981045
0.005639351 0.019609556 0.16112496
0.0048396531 0.017020632 0.16266829
0.0075509222 0.013175679 0.16827178
0.0070385397 0.010469223 0.1698865
0.0067313858 0.0077153249 0.17101704
0.0066227373 0.0052115214 0.17360349
0.0060961354 0.0030264582 0.17576653
0.0057481062 -0.00036467079 0.17861761
0.0060209874 -0.0028433702 0.18050911
0.0072909095 0.034991439 0.14907637
0.0076766643 0.033311315 0.15109617
0.0081485501 0.031448204 0.15222612
0.0085932966 0.027306262 0.15797453
0.0077809594 0.025136176 0.15984985
0.0072797965 0.022367802 0.16070968
0.0072213123 0.019912358 0.16207768
0.010114535 0.015029375 0.1685482
0.0094735045 0.012319454 0.16947897
0.009559297 0.0099337958 0.17046636
0.0096013462 0.0079478221 0.17203791
0.0089666061 0.0059359143 0.17401177
0.0077951429 0.0034690551 0.17700909
0.0091607226 -0.00060466939 0.18038417
0.0085163992 -0.0028202482 0.18180253
0.0098313633 0.034955762 0.14882109
0.010205835 0.03319208 0.14997812
0.010697274 0.030711394 0.15321667
0.010196083 0.027848762 0.15877046
0.0095760375 0.025295407 0.16024905
0.0093997149 0.022733754 0.16154276
0.0088368338 0.019453762 0.1640764
0.011891537 0.015502882 0.16896276
0.011631381 0.012622705 0.17013681
0.012051932 0.010228788 0.17113248
0.012356041 0.0084338728 0.17331043
0.010876517 0.0064985943 0.17437841
0.010291566 0.0038242738 0.17803071
0.013331479 -0.00063644577 0.18007761
0.012368577 0.034788705 0.1477534
0.013188527 0.032552477 0.14890175
0.013165819 0.029672241 0.15656741
0.013825179 0.027492523 0.1593788
0.012507162 0.025509335 0.16069928
0.011985909 0.022164134 0.16405922
0.012746233 0.017373906 0.16837615
0.01386837 0.015800374 0.16922666
0.013974828 0.012987846 0.17070056
0.013568653 0.010876824 0.17160775
0.014383363 0.0094036013 0.17428178
0.01223127 0.0069072926 0.17502509
0.012453462 0.0040035066 0.17808156
0.015203621 0.00012203408 0.17841414
0.015487034 0.034116238 0.14685534
0.017693417 0.032993823 0.15002534
0.016018394 0.029551888 0.15627006
0.015238162 0.025689833 0.16116664
0 0 0 1 0 0 0 1 0 0 0 1 0 0 0 0 0 239 1 0 0
