ply
format ascii 1.0
comment PCL generated
element vertex 239
property float x
property float y
property float z
element camera 1
property float view_px
property float view_py
property float view_pz
property float x_axisx
property float x_axisy
property float x_axisz
property float y_axisx
property float y_axisy
property float y_axisz
property float z_axisx
property float z_axisy
property float z_axisz
property float focal
property float scalex
property float scaley
property float centerx
property float centery
property int viewportx
property int viewporty
property float k1
property float k2
end_header
-0.024802024 0.035460636 0.14746468
-0.024806032 0.033126906 0.14753476
-0.024938548 0.031035982 0.14925686
-0.025039574 0.028700365 0.15078034
-0.025002941 0.026461922 0.15223046
-0.025483996 0.02411486 0.15578049
-0.026531989 0.021818379 0.16061552
-0.027082665 0.019376494 0.16299015
-0.027202234 0.01667832 0.16372994
-0.027207213 0.01380212 0.16442584
-0.027318088 0.01110705 0.16542658
-0.027681796 0.0084552858 0.16759893
-0.02776742 0.0057995482 0.16771214
-0.02244452 0.035287801 0.14663033
-0.022338605 0.033054013 0.14759248
-0.022428684 0.030960048 0.14935619
-0.022473328 0.028673587 0.15061991
-0.022437919 0.026271632 0.15199353
-0.022723516 0.023934286 0.15451203
-0.023260314 0.0212838 0.15834761
-0.023664605 0.018998096 0.1602889
-0.02388569 0.016430184 0.16222334
-0.024109406 0.013715568 0.16318941
-0.024176903 0.011038753 0.1643091
-0.024763355 0.0084684007 0.16702645
-0.025257938 0.0058322405 0.16956471
-0.025337225 0.0031444971 0.17217083
-0.019736048 0.035258323 0.14655815
-0.019743592 0.033177894 0.14867239
-0.019851971 0.030872952 0.14946118
-0.019923078 0.02855227 0.15077999
-0.019928476 0.026284918 0.15179181
-0.020105666 0.023899738 0.15486297
-0.020747537 0.021352759 0.15870143
-0.020953121 0.018869443 0.16026081
-0.021042427 0.016435238 0.16173324
-0.021404183 0.013839812 0.16375092
-0.021683367 0.011069166 0.16661939
-0.021777155 0.0079585621 0.1688236
-0.022356756 0.0052912566 0.17141747
-0.022378055 0.002635946 0.17286459
-0.022545258 -0.00030516169 0.17423458
-0.017009484 0.035411775 0.14794992
-0.017251354 0.033139225 0.14901915
-0.017262025 0.030759443 0.14906193
-0.01734318 0.028590575 0.15117182
-0.01737293 0.026325703 0.15193
-0.017566636 0.023976551 0.15478794
-0.018040156 0.021635883 0.15906425
-0.018103708 0.018870832 0.15974595
-0.01829344 0.016342448 0.1620107
-0.018356351 0.013747633 0.16496915
-0.018860945 0.010712153 0.16856097
-0.019004548 0.0079620359 0.16985713
-0.019710226 0.0055791209 0.17275117
-0.019774131 0.0028338791 0.17464767
-0.02010989 9.13193e-05 0.17606713
-0.014368173 0.035596486 0.14822873
-0.014629254 0.033206791 0.14900239
-0.014550755 0.030772388 0.14886971
-0.014852107 0.028568517 0.15104254
-0.014832752 0.026371343 0.15283668
-0.015015264 0.024130778 0.15526138
-0.015341041 0.021842435 0.15988049
-0.015401722 0.019067809 0.16023026
-0.015641961 0.016523946 0.16259943
-0.015678182 0.013874141 0.16586243
-0.015579492 0.010886955 0.16845973
-0.016307566 0.0084536467 0.17151599
-0.016997986 0.0058719888 0.17549628
-0.017204465 0.0029752578 0.17652963
-0.016780218 -0.00050352118 0.17570882
-0.012012183 0.035741132 0.1482662
-0.01210383 0.033386912 0.14927426
-0.012013792 0.030929845 0.15002501
-0.012066771 0.028433492 0.15157947
-0.012174755 0.026322093 0.15315473
-0.012339174 0.024047377 0.15554692
-0.012621015 0.021881526 0.15915228
-0.012670701 0.019314952 0.1606328
-0.012822725 0.016696734 0.16273417
-0.013084837 0.0139302 0.16678765
-0.013772219 0.010991427 0.17096972
-0.01421224 0.0085446909 0.17372993
-0.014023499 0.0058436738 0.1764418
-0.014324245 0.0028856026 0.17618676
-0.013171361 -0.0012534463 0.17470168
-0.0097148614 0.035645071 0.14779688
-0.0096627166 0.033545092 0.14895067
-0.0095200781 0.031127727 0.15069601
-0.0096570216 0.028287871 0.15199797
-0.0094156312 0.02605742 0.15371639
-0.0096644452 0.024047816 0.15613906
-0.0097496668 0.021854803 0.15945719
-0.0097829876 0.019373246 0.15991743
-0.01004966 0.016704066 0.16285479
-0.010497283 0.01427703 0.16714647
-0.011138317 0.010770391 0.17115101
-0.011069814 0.0084765544 0.17386879
-0.011141773 0.0053218268 0.17458367
-0.011121385 0.0023288014 0.1748748
-0.010764487 -0.00089556992 0.17506139
-0.0070654093 0.035644431 0.1477662
-0.0071835164 0.033446178 0.14921999
-0.0071083391 0.031072468 0.15109065
-0.0068561258 0.028468072 0.15189214
-0.0067933141 0.026188646 0.15349826
-0.007025945 0.02428299 0.15708594
-0.0071917009 0.021982089 0.16048567
-0.0072454079 0.019240469 0.16048305
-0.0074299062 0.016564343 0.16332066
-0.0077932915 0.013998337 0.16765364
-0.008086767 0.010401431 0.17027628
-0.0082755014 0.0081053758 0.17347683
-0.0083846143 0.0053772749 0.17462252
-0.0082712024 0.0025462499 0.17553549
-0.0083694831 0.00038163818 0.17817652
-0.0046165632 0.035576254 0.14792183
-0.0046339161 0.033191726 0.14948776
-0.0045189266 0.031210322 0.15097743
-0.00424129 0.028732955 0.15308538
-0.0043309517 0.026561093 0.15557539
-0.0043956344 0.024718888 0.16022013
-0.0044647902 0.022120878 0.16129379
-0.0046208431 0.019426964 0.16200714
-0.0048498055 0.016679971 0.16464128
-0.0050286748 0.014431988 0.16796713
-0.0051051867 0.010988461 0.17133357
-0.0053033312 0.0086837439 0.17435509
-0.0053803232 0.0057420493 0.17512916
-0.0054604593 0.0028313566 0.17547914
-0.0051024696 -0.00031212677 0.17921336
-0.0021278292 0.035607692 0.14832036
-0.0021709453 0.033084147 0.14936078
-0.0018466699 0.030766802 0.15082918
-0.001641544 0.028542649 0.15265162
-0.0016335091 0.026488798 0.15530817
-0.0016469018 0.024692047 0.15952027
-0.0017723449 0.022039883 0.16080566
-0.0019398769 0.019538758 0.16300847
-0.0018544212 0.017147927 0.16533639
-0.0021131744 0.014594326 0.16926767
-0.0021993949 0.011455489 0.17213769
-0.0021646894 0.0092413453 0.17489763
-0.002403432 0.006565941 0.17640616
-0.0023382753 0.0035384388 0.17655082
-0.0019711421 -2.311897e-05 0.18040054
-0.00069217366 0.034414891 0.14945871
-0.00042127006 0.032006096 0.15053684
-3.1065597e-06 0.029728657 0.15215844
0.00093738886 0.028720126 0.15394568
0.0010249779 0.0265646 0.15654236
0.0010334795 0.024346089 0.15877479
0.0011046543 0.021942547 0.16086015
0.00090015458 0.019484635 0.16294286
0.00087344722 0.01703096 0.16514555
0.00085655745 0.014589467 0.16918541
0.00068089913 0.011852751 0.17216697
0.00079856091 0.009161327 0.1744718
0.00064332492 0.0064473227 0.17581317
0.00063030282 0.0034905213 0.17711654
0.00079079391 0.00027843408 0.17936897
0.0018319662 0.034670282 0.14955521
0.0020476202 0.032374684 0.15102059
0.0024792808 0.030092871 0.15233479
0.0035969189 0.028616827 0.15429439
0.003755844 0.026481647 0.15645958
0.0037926957 0.024085911 0.15809414
0.0036929932 0.021628046 0.1591924
0.0037750178 0.019241493 0.16252305
0.0036261885 0.016920745 0.16513969
0.0038214403 0.014676563 0.1688263
0.0037112602 0.012011003 0.17177802
0.0036131719 0.0091113085 0.17312628
0.0036496415 0.0063033737 0.17395934
0.0035828799 0.0036062968 0.17665274
0.0037735438 0.00036043092 0.17763534
0.0044825221 0.034868594 0.14896518
0.0046129357 0.032718319 0.15063561
0.0050244913 0.030425744 0.15191373
0.0060939337 0.028850114 0.1542913
0.0062616686 0.026520185 0.15733175
0.0064439015 0.023871019 0.15863115
0.006437378 0.021262668 0.15980959
0.0064583654 0.018878961 0.16166817
0.0066734646 0.016986785 0.16470371
0.0067572263 0.014626866 0.16937387
0.0064390725 0.011659683 0.17078722
0.0064650937 0.0091804452 0.17235431
0.0063868915 0.0066185715 0.17472862
0.0066952487 0.0035561461 0.17722291
0.0066696922 0.00040377091 0.17911591
0.0070209759 0.03518166 0.14899205
0.0073105036 0.033018071 0.1509423
0.0075676856 0.030663265 0.15129611
0.0091512101 0.028976116 0.15594651
0.0090858322 0.026209386 0.15855859
0.0090564834 0.023606811 0.15901975
0.009026763 0.021048389 0.16095287
0.0097107114 0.019082554 0.16379005
0.0095798513 0.016695317 0.16576466
0.0094519714 0.01426224 0.16880976
0.0093845464 0.011446103 0.16972607
0.0091819689 0.0093348185 0.1715316
0.009190443 0.0064975959 0.17514479
0.0096831052 0.002855655 0.17917685
0.0095847733 -3.0429192e-05 0.18097621
0.0097104385 0.035329312 0.14880119
0.010079469 0.033178076 0.15012676
0.010550139 0.030814869 0.15229015
0.011909285 0.028848877 0.15672284
0.01171232 0.026238814 0.15879618
0.011745413 0.023814507 0.15928669
0.011395252 0.020846041 0.1612642
0.012386414 0.018730491 0.16380499
0.012299043 0.016374841 0.16595957
0.012208564 0.013802134 0.16744012
0.01223616 0.011141242 0.16870169
0.011725678 0.0092813959 0.17103854
0.012238626 0.0060010566 0.17564379
0.012890446 0.0021266199 0.17827788
0.012291333 0.035417132 0.14758448
0.012816647 0.03316728 0.14923254
0.013901208 0.031184228 0.15375176
0.014445209 0.02876885 0.15839064
0.014324597 0.02643083 0.15945645
0.014340213 0.023910727 0.16019332
0.014384436 0.020357599 0.16253723
0.015015095 0.018273478 0.16374914
0.014976795 0.016029289 0.16547185
0.014862593 0.013572253 0.16701864
0.014939109 0.011014977 0.16822231
0.014455047 0.0091020977 0.17115848
0.014915133 0.0056578387 0.17426619
0.014916311 0.0021022449 0.17511739
0.014917291 0.035406921 0.14655258
0.015537193 0.033176426 0.14916272
0.016371828 0.031201834 0.15484191
0.016550509 0.026670471 0.15997727
0 0 0 1 0 0 0 1 0 0 0 1 0 0 0 0 0 239 1 0 0
