ply
format ascii 1.0
comment PCL generated
element vertex 239
property float x
property float y
property float z
element camera 1
property float view_px
property float view_py
property float view_pz
property float x_axisx
property float x_axisy
property float x_axisz
property float y_axisx
property float y_axisy
property float y_axisz
property float z_axisx
property float z_axisy
property float z_axisz
property float focal
property float scalex
property float scaley
property float centerx
property float centery
property int viewportx
property int viewporty
property float k1
property float k2
end_header
-0.028511489 0.033504631 0.14915375
-0.027923366 0.031165658 0.14896534
-0.02706776 0.028840531 0.15031984
-0.026249835 0.026324183 0.1513077
-0.025849661 0.02393245 0.15228571
-0.027388165 0.020526893 0.15458922
-0.031976141 0.013605371 0.1574951
-0.032452051 0.010976872 0.158756
-0.031787932 0.0080114668 0.15957701
-0.031133473 0.0052699428 0.1598874
-0.032387905 0.002146482 0.16069598
-0.034302227 -0.0011456867 0.16203149
-0.034894116 -0.0038025819 0.16145603
-0.026656441 0.033606533 0.14795117
-0.025421062 0.031019321 0.14841333
-0.024555432 0.028625291 0.14893468
-0.023782779 0.026323386 0.14988481
-0.023625353 0.024066987 0.15153936
-0.024504788 0.020557297 0.15277779
-0.02581862 0.016418172 0.15665314
-0.027876636 0.012490066 0.15781762
-0.028087825 0.0091690198 0.15905839
-0.027152598 0.0059404117 0.15958974
-0.02670153 0.0025835324 0.1604131
-0.030224558 -0.00067835674 0.16168939
-0.032379024 -0.0045094788 0.16305649
-0.028796073 -0.0073817908 0.16360304
-0.023758572 0.033515744 0.14688399
-0.021878622 0.031094119 0.14755723
-0.021616686 0.028707894 0.14810476
-0.021502251 0.026385764 0.14945568
-0.021329276 0.023726901 0.15087742
-0.022110302 0.020369075 0.15380372
-0.023417247 0.016485445 0.1565178
-0.024214668 0.013184763 0.15732859
-0.024681684 0.010334845 0.15807724
-0.024622563 0.006504768 0.15967205
-0.023971915 0.0016330469 0.16272959
-0.025892619 -0.0014627638 0.1630538
-0.026376178 -0.0054471605 0.16416061
-0.025334399 -0.0071301735 0.16564803
-0.024900176 -0.0092835743 0.16707797
-0.01878616 0.033197712 0.14769907
-0.019010715 0.03108946 0.14823712
-0.019040812 0.02903156 0.14837234
-0.019052461 0.026629118 0.15020868
-0.019165354 0.023673033 0.15067974
-0.019545274 0.020872327 0.15349047
-0.021090204 0.016956039 0.15702845
-0.020865796 0.013770039 0.15748324
-0.021321231 0.011118825 0.15855835
-0.021341544 0.0048712431 0.16148466
-0.022547638 0.0007576684 0.16332921
-0.023390196 -0.0014824178 0.16471559
-0.02404953 -0.0042423015 0.16561061
-0.023124352 -0.0061138836 0.16636939
-0.022978999 -0.0079853246 0.1686434
-0.01568914 0.033256616 0.14865331
-0.016251821 0.030971656 0.14878474
-0.016260931 0.029038765 0.14872696
-0.016627016 0.02602472 0.15095162
-0.016754679 0.023428002 0.15178262
-0.017336383 0.021045489 0.15364628
-0.018424045 0.017204203 0.15810375
-0.018415367 0.014490366 0.15836087
-0.018683437 0.011566385 0.15950431
-0.018906401 0.00510896 0.16241704
-0.0196326 0.0016449784 0.16466588
-0.020232929 -0.00085449743 0.16598202
-0.020831143 -0.0035090176 0.16541086
-0.020405378 -0.0052534002 0.16704731
-0.019701615 -0.0077270782 0.1688035
-0.012954304 0.032974768 0.14923617
-0.013189479 0.030809062 0.14950588
-0.013418555 0.028323334 0.15021993
-0.013674844 0.025563495 0.1512886
-0.014358489 0.023466479 0.1522799
-0.014909902 0.021197133 0.15351143
-0.015378449 0.018404206 0.15746158
-0.015888929 0.015052784 0.15874924
-0.016149398 0.011611129 0.16072825
-0.017515684 0.0060215308 0.16367289
-0.018778684 0.0014322478 0.16543309
-0.018900566 -0.00065375521 0.16586119
-0.018942501 -0.0022880363 0.16653873
-0.018746987 -0.0047178953 0.16680279
-0.017031224 -0.0071017505 0.16749389
-0.010801893 0.033121608 0.14917418
-0.010771022 0.03086721 0.14997859
-0.010906498 0.028476832 0.15123345
-0.011391887 0.025575655 0.15188539
-0.011263254 0.023759944 0.15285586
-0.0115926 0.021602483 0.15454634
-0.010594305 0.018693412 0.15797152
-0.012168531 0.015905319 0.1584264
-0.012268656 0.012473677 0.16165894
-0.012773733 0.0088183777 0.16533951
-0.016766952 0.0024308339 0.165278
-0.016948003 0.00037748966 0.16619489
-0.017069399 -0.0022971518 0.16614938
-0.016623404 -0.0038953063 0.1663288
-0.014926461 -0.0066434867 0.16784224
-0.0080463802 0.033330299 0.14958876
-0.0087423334 0.030712133 0.15078813
-0.0088448133 0.028357664 0.15202846
-0.0085771382 0.026576489 0.15242752
-0.0083284928 0.024403984 0.15307947
-0.0080483677 0.02198524 0.15684636
-0.0079707764 0.019016342 0.15947343
-0.0080280611 0.01595548 0.16008843
-0.0082074217 0.012982137 0.16243474
-0.0077446895 0.0096442401 0.1670652
-0.013773293 0.0029561613 0.16736056
-0.015056483 0.00066731503 0.16771668
-0.01527842 -0.001005302 0.16773479
-0.014420656 -0.0032420431 0.16758741
-0.013762011 -0.005684094 0.16924547
-0.0051595466 0.033493783 0.1491895
-0.006472907 0.02983637 0.15177085
-0.0068273721 0.028638447 0.15230341
-0.0061947308 0.026817251 0.15311947
-0.0059708636 0.024217589 0.15484847
-0.004941517 0.021424413 0.1592008
-0.0055582989 0.019426974 0.16030329
-0.00585806 0.016344182 0.16135561
-0.0055136462 0.013049081 0.16417551
-0.0051791179 0.0097627239 0.16732447
-0.0062655509 0.0055702562 0.17016955
-0.011364981 0.0019342065 0.17032273
-0.012380145 -0.00077728438 0.16955085
-0.012532639 -0.0028991976 0.1692232
-0.0088527659 -0.0068604946 0.17251444
-0.0027813399 0.033279318 0.14951546
-0.0037108904 0.030097641 0.15084068
-0.0032749882 0.028817168 0.15210983
-0.0034392495 0.026710069 0.15289028
-0.003242474 0.024309536 0.155259
-0.0027807578 0.021424916 0.15976411
-0.0031662611 0.019578712 0.16105317
-0.003073561 0.016767401 0.16299796
-0.002780735 0.013525081 0.16514699
-0.0022201443 0.0095491996 0.16875087
-0.0025289764 0.0066464907 0.17069657
-0.0024150519 0.0044896067 0.17370814
-0.0034789629 0.0018814885 0.17453463
-0.0031045531 -0.00068825623 0.1753563
-0.0029154576 -0.0065226364 0.17640749
-0.00069498096 0.031143729 0.15043598
0.00058150419 0.028990006 0.15133674
-0.00059050927 0.02780766 0.15338105
0.0012307396 0.026087796 0.15486693
0.0014387654 0.023701619 0.15735707
0.00041830246 0.021560622 0.15970562
-0.00019714299 0.019748654 0.16216251
-0.00052329921 0.016826168 0.16372521
-0.00052462216 0.013938843 0.16534689
0.00058526319 0.0099283736 0.16914089
0.0006018416 0.0069191908 0.17112499
0.000523125 0.0045314827 0.1737086
0.00037234032 0.0022342666 0.17515393
0.00079082727 -0.00078105158 0.17677577
0.00050997228 -0.0050150095 0.17735219
0.002435182 0.032584544 0.14941725
0.0030907902 0.030613134 0.15117219
0.0036589731 0.028339408 0.15344617
0.0045601451 0.025976319 0.15568714
0.0044058608 0.024134958 0.15709499
0.0034573167 0.021901947 0.15866327
0.0027771883 0.020051371 0.1605224
0.0019453684 0.016770372 0.163956
0.0016288594 0.013971252 0.1654027
0.0041952706 0.010476675 0.16904163
0.0044888803 0.007805421 0.17037103
0.0037495834 0.0048918766 0.17319603
0.003719392 0.0023326098 0.17527512
0.0034363575 -0.00047467992 0.17701843
0.0038003044 -0.0039303708 0.17800497
0.0054460503 0.033985689 0.1490981
0.0055711363 0.032018557 0.15083143
0.006061215 0.029918153 0.15255412
0.006430828 0.025880704 0.15536596
0.0063164374 0.024343429 0.15727408
0.0058370177 0.022371743 0.15938805
0.0054030931 0.020082576 0.16146764
0.0045899297 0.017693538 0.16336609
0.0076105525 0.013055574 0.16840836
0.0071557481 0.010262405 0.16981669
0.006814389 0.0074532535 0.17095785
0.0066553578 0.0051496774 0.17387109
0.0061814454 0.0032798343 0.17625447
0.0061234594 -0.00056386838 0.17838988
0.0066085244 -0.0030722341 0.1801081
0.0078768805 0.034944873 0.14907174
0.0081303241 0.033017147 0.1508382
0.0085629234 0.031012401 0.15176363
0.0086071929 0.026698429 0.1565194
0.008005498 0.024687897 0.15846208
0.0072007105 0.022252725 0.15987389
0.0070672641 0.02048761 0.16212216
0.010413635 0.014438645 0.16785997
0.0096135288 0.011984758 0.16910534
0.0096948594 0.0095670279 0.17012534
0.009730964 0.0077570775 0.17190906
0.0090756202 0.0058745532 0.17409386
0.0077860081 0.003711089 0.17722495
0.0097533586 -0.00012404339 0.18043202
0.0092576388 -0.0025226143 0.18165471
0.010428903 0.035332493 0.14943112
0.010765363 0.033463061 0.15039298
0.010856068 0.030541111 0.15277533
0.010310549 0.027172109 0.15700082
0.0097611276 0.024637464 0.15846676
0.009437982 0.022444747 0.16016974
0.0089687025 0.020258367 0.16395384
0.012273134 0.014590555 0.16772602
0.01191512 0.011892794 0.16919607
0.012292063 0.0096315984 0.17049766
0.012604654 0.0081705693 0.17297688
0.01085273 0.0065006288 0.17445122
0.010170644 0.0042639123 0.17825417
0.014042276 0.00052663794 0.18043797
0.013158645 0.035802145 0.1491479
0.013997769 0.033582192 0.15009752
0.012948802 0.029626325 0.15541941
0.013865601 0.027262473 0.15802036
0.012635724 0.024855478 0.15856904
0.012297247 0.022030339 0.16245978
0.013184407 0.016620053 0.16690628
0.014279783 0.014915611 0.16788459
0.014211171 0.012380752 0.16976349
0.013784028 0.010346265 0.17081901
0.014733948 0.0091361152 0.17365727
0.012162263 0.0070521636 0.17497939
0.012289864 0.0046351021 0.17844912
0.015745541 0.0013258602 0.17893523
0.016552985 0.035708029 0.14891453
0.01831617 0.034004435 0.15188837
0.01588133 0.029844059 0.15547127
0.015385076 0.025207188 0.15950938
0 0 0 1 0 0 0 1 0 0 0 1 0 0 0 0 0 239 1 0 0
