ply
format ascii 1.0
comment PCL generated
element vertex 239
property float x
property float y
property float z
element camera 1
property float view_px
property float view_py
property float view_pz
property float x_axisx
property float x_axisy
property float x_axisz
property float y_axisx
property float y_axisy
property float y_axisz
property float z_axisx
property float z_axisy
property float z_axisz
property float focal
property float scalex
property float scaley
property float centerx
property float centery
property int viewportx
property int viewporty
property float k1
property float k2
end_header
-0.028830796 0.033310384 0.14922833
-0.028225582 0.030898789 0.14900057
-0.027495863 0.028457731 0.15032627
-0.026733022 0.025932569 0.1514855
-0.026266294 0.023507779 0.1526273
-0.027936684 0.020789644 0.1557864
-0.033098545 0.01289151 0.15904808
-0.033611003 0.010472 0.16067193
-0.032918524 0.007660544 0.16201976
-0.032203697 0.0049604285 0.16286595
-0.033418037 0.0018417728 0.16386093
-0.035190634 -0.0015852905 0.16539828
-0.035608072 -0.0043618586 0.16494958
-0.026907794 0.033432353 0.14814959
-0.025715973 0.030714843 0.14852205
-0.024902886 0.02819485 0.14911462
-0.024106445 0.025941426 0.15023865
-0.023945732 0.023601361 0.1519441
-0.024954062 0.020383015 0.15405753
-0.026581444 0.01678382 0.15885672
-0.028987711 0.012092347 0.15978102
-0.029281115 0.0088810762 0.16133124
-0.028253283 0.0057852585 0.16309936
-0.027699262 0.0025643066 0.16449471
-0.031106811 -0.00087803259 0.16517194
-0.033070356 -0.0049152523 0.16670901
-0.029457847 -0.0077309543 0.16888602
-0.023978844 0.033339024 0.14710765
-0.022150453 0.030830476 0.14751533
-0.02189092 0.028442102 0.14827903
-0.021752587 0.026174493 0.1498875
-0.021540383 0.023474218 0.15174414
-0.022640716 0.020445524 0.15521181
-0.024164401 0.016851084 0.15881687
-0.025161386 0.013164765 0.15989517
-0.025739163 0.010226159 0.16072115
-0.025785087 0.0065599438 0.16349398
-0.025086131 0.0015875116 0.16687448
-0.027114604 -0.0016960158 0.16745438
-0.027366865 -0.0055535235 0.16947991
-0.026086148 -0.0068105473 0.17111924
-0.025364252 -0.00871595 0.17264125
-0.018871991 0.033174429 0.14749992
-0.019192586 0.031039381 0.14811511
-0.019282414 0.028947299 0.14840311
-0.019272301 0.026536822 0.15059403
-0.019421723 0.023540113 0.15182424
-0.020042583 0.021050075 0.15499985
-0.021842716 0.017349867 0.15927368
-0.021726094 0.014010661 0.16019602
-0.022248954 0.011385891 0.16153917
-0.022700617 0.0048545101 0.16551636
-0.02365759 0.00065756653 0.16716306
-0.024533475 -0.0014646883 0.16891627
-0.025028311 -0.0039658742 0.17053711
-0.023914099 -0.0055636051 0.17139962
-0.023184918 -0.0073109269 0.17360568
-0.015578817 0.033217043 0.148412
-0.016333522 0.030983483 0.14861253
-0.016461154 0.029045036 0.14864549
-0.016879141 0.025843849 0.15196069
-0.017110161 0.023323905 0.15303907
-0.017802417 0.021060331 0.15516979
-0.019142538 0.017613353 0.16033351
-0.019194072 0.01480524 0.16097575
-0.019437958 0.011835178 0.16240649
-0.020659206 0.0047343918 0.16574362
-0.02093496 0.0015704287 0.16805583
-0.021161372 -0.00069870113 0.1696756
-0.022003774 -0.0030650245 0.17005509
-0.02121984 -0.0046707517 0.17154145
-0.020034041 -0.0071715699 0.17269555
-0.012849864 0.03257237 0.14892134
-0.013192127 0.030536676 0.1492666
-0.013530916 0.028023509 0.15051724
-0.013925538 0.025384964 0.15249039
-0.014737238 0.023317326 0.15366092
-0.015381875 0.021122582 0.15509908
-0.015990395 0.018863153 0.15959664
-0.016601056 0.015339229 0.16119462
-0.01663626 0.011737671 0.16325106
-0.018870886 0.0058226939 0.1662447
-0.020079652 0.0013904498 0.16871029
-0.02006295 -0.00051308353 0.16948915
-0.01990436 -0.0018757503 0.17040186
-0.019683195 -0.0042291381 0.17082717
-0.018009108 -0.0066566952 0.17047152
-0.010739286 0.032590117 0.14886218
-0.010728956 0.030329589 0.14979576
-0.010955061 0.028025305 0.15146933
-0.011639661 0.025349068 0.15286085
-0.011615882 0.023607142 0.15408608
-0.011977766 0.021448752 0.15610275
-0.01095538 0.019045429 0.16000511
-0.012823227 0.016120205 0.16048914
-0.01247351 0.012382429 0.16332079
-0.012657352 0.0085888142 0.1667825
-0.01838729 0.0022669283 0.16793837
-0.018314917 0.00038558713 0.16907787
-0.018419113 -0.0020385531 0.16943836
-0.017957559 -0.0035251984 0.16944341
-0.01594767 -0.0063388497 0.1699219
-0.0080168787 0.032876007 0.14938328
-0.0087694023 0.030181956 0.1506906
-0.0089293085 0.027915318 0.15227591
-0.0086828861 0.026248399 0.15309568
-0.0084452936 0.024210332 0.1541037
-0.008149852 0.022235418 0.15831816
-0.0082042729 0.019295882 0.16129661
-0.0083523355 0.016172847 0.161754
-0.0083402488 0.012879294 0.16348439
-0.0077893184 0.0093154674 0.16770734
-0.0149508 0.0028588017 0.16856004
-0.016122777 0.00081108994 0.16972272
-0.016372833 -0.00072914513 0.16996114
-0.015542755 -0.0029124231 0.16944326
-0.014279566 -0.0054998896 0.17073393
-0.0051773391 0.033596557 0.14937088
-0.0066423398 0.029371854 0.15199281
-0.0069866935 0.028190497 0.15263206
-0.0063891858 0.026520949 0.15380411
-0.0061895228 0.02424266 0.1559816
-0.0050424868 0.021661652 0.16086946
-0.0056922887 0.019635184 0.16195321
-0.0060869809 0.016427299 0.16281137
-0.0055969725 0.012774866 0.1650317
-0.0054347366 0.0095251016 0.16807614
-0.0066922801 0.0053188535 0.17022681
-0.011534899 0.0019042998 0.17013597
-0.012937614 -0.00070479326 0.17016231
-0.013303835 -0.002734914 0.17022879
-0.0093698148 -0.0068475814 0.17336987
-0.0028100687 0.033503264 0.14972971
-0.0037576701 0.029861419 0.1514141
-0.0033993165 0.028350245 0.15253866
-0.0037058543 0.026365515 0.15376756
-0.0035389655 0.024368728 0.15652607
-0.0029604419 0.021658653 0.16140865
-0.003270614 0.019706583 0.16251585
-0.0031708037 0.016718257 0.16411605
-0.0029411782 0.013277224 0.16601965
-0.0026009795 0.0092470841 0.1695544
-0.0029432252 0.0063544195 0.17111506
-0.0028361038 0.0039315829 0.17378184
-0.0036016318 0.0011721342 0.17432925
-0.0034644222 -0.00097351748 0.17552723
-0.0038405594 -0.0062027574 0.17807709
-0.00063491584 0.031754948 0.15051432
0.00083907152 0.029458141 0.15108141
-0.00052078941 0.027477033 0.15351519
0.0012315515 0.025607754 0.15507063
0.0012556713 0.023565952 0.15803638
0.00027040677 0.021708425 0.16097912
-0.00019316051 0.019740175 0.16341475
-0.0005924133 0.016644916 0.16469781
-0.0007076484 0.013605638 0.16609369
0.00020663139 0.0095422305 0.16996694
0.00022955137 0.0066219061 0.17180379
2.5491279e-05 0.0041163894 0.17407498
-0.00018557077 0.0019489434 0.17551102
-3.7161064e-07 -0.00067339785 0.17771026
-0.00061579485 -0.0046884874 0.17890416
0.0022288514 0.03394033 0.15001062
0.0030282922 0.031660516 0.15146862
0.0037978026 0.028728625 0.15330543
0.0045406679 0.02585258 0.1563672
0.0043013655 0.024188688 0.15789427
0.0033049206 0.022099813 0.15967482
0.0027269786 0.020078685 0.16139147
0.0018346809 0.016489254 0.16481727
0.0013966955 0.01354127 0.16599005
0.0039388114 0.010323245 0.16975673
0.0041787568 0.0077478373 0.17121768
0.003195565 0.0045504924 0.17370139
0.0030714271 0.0021595871 0.17601326
0.0025209624 -0.00041480962 0.17806847
0.0025722177 -0.0037594491 0.17942016
0.0050974279 0.035390649 0.14965165
0.0053160363 0.033368081 0.15133126
0.0059307725 0.0309765 0.15287074
0.0066120983 0.025993044 0.15644342
0.0062590335 0.024638392 0.15831585
0.0058618053 0.02244569 0.16031805
0.00551554 0.019700011 0.16175009
0.004589722 0.017301066 0.16375507
0.0075768759 0.012695359 0.16860053
0.0069407262 0.010045049 0.17008124
0.0064044073 0.0074061588 0.17155519
0.0062125595 0.0049585998 0.17437115
0.0057165376 0.0032537663 0.17691116
0.0051778085 -0.00073375978 0.17932621
0.0055041933 -0.0031656157 0.18115212
0.0075710998 0.035921115 0.14921539
0.0078460602 0.034167495 0.15107429
0.0082661109 0.032262467 0.15206121
0.0083746016 0.027222762 0.15792553
0.0076153865 0.025289554 0.15975256
0.0071764449 0.022162409 0.16067271
0.0073176781 0.019748885 0.16205144
0.01044919 0.013949226 0.16808623
0.0094672721 0.011567795 0.16924337
0.0094085895 0.0090997396 0.17023641
0.0094343554 0.0072264159 0.17216031
0.0087024113 0.0053852582 0.17431666
0.0076803537 0.0033542616 0.17763498
0.0091223735 -0.0014730854 0.18007797
0.0083436072 -0.00347803 0.18169962
0.010195804 0.035686564 0.14902587
0.010479793 0.033951152 0.15010916
0.010637287 0.031249607 0.15327559
0.0098127713 0.027919713 0.15868442
0.0092857992 0.025374716 0.16011226
0.0093345474 0.022376647 0.1610938
0.0092517445 0.018959252 0.16357461
0.012346318 0.013897355 0.16773342
0.011786949 0.011252196 0.16919896
0.012084924 0.0087498939 0.17030069
0.012481324 0.0071220696 0.17272502
0.010623116 0.0054648793 0.1742349
0.010370294 0.0028296537 0.17784452
0.013267775 -0.0023694751 0.17838241
0.01304323 0.035290536 0.14810151
0.013901573 0.033040091 0.14928348
0.012800032 0.029958013 0.15721875
0.013470863 0.027867891 0.15986192
0.012101842 0.025761133 0.1608537
0.012200226 0.021522798 0.16312401
0.01336972 0.015785404 0.16678753
0.01445309 0.013863247 0.16737324
0.014232029 0.011225798 0.16921924
0.013646049 0.0092411805 0.17036565
0.014761577 0.0078296205 0.17306301
0.01211524 0.0056057293 0.17439669
0.012401691 0.0024644262 0.17716351
0.014583487 -0.0019530772 0.1764345
0.016605552 0.034482017 0.14749677
0.018354338 0.033442575 0.15132622
0.015764249 0.029950263 0.15659542
0.014971535 0.025893519 0.16150755
0 0 0 1 0 0 0 1 0 0 0 1 0 0 0 0 0 239 1 0 0
