ply
format ascii 1.0
comment PCL generated
element vertex 239
property float x
property float y
property float z
element camera 1
property float view_px
property float view_py
property float view_pz
property float x_axisx
property float x_axisy
property float x_axisz
property float y_axisx
property float y_axisy
property float y_axisz
property float z_axisx
property float z_axisy
property float z_axisz
property float focal
property float scalex
property float scaley
property float centerx
property float centery
property int viewportx
property int viewporty
property float k1
property float k2
end_header
-0.03015478 0.032078266 0.14739358
-0.02916747 0.029748112 0.14732625
-0.028207419 0.027505118 0.14908309
-0.027143497 0.025435075 0.15097345
-0.026221294 0.023146035 0.15260437
-0.027573995 0.020403413 0.15583754
-0.032826293 0.013795081 0.15986976
-0.033402745 0.01147696 0.16140047
-0.032785267 0.0085776411 0.16250008
-0.032106612 0.00589266 0.16312225
-0.033554506 0.0035341908 0.16484141
-0.035576887 0.00056029332 0.16700788
-0.036439709 -0.0022746418 0.16687356
-0.028163293 0.032522798 0.14660893
-0.02662788 0.029896811 0.14720534
-0.025568474 0.027428407 0.14811529
-0.024545193 0.02550994 0.14969367
-0.02400161 0.023291769 0.1519013
-0.024668865 0.020073533 0.15387617
-0.026048604 0.016432021 0.15853623
-0.028862551 0.012471873 0.16048059
-0.029398955 0.0093519026 0.16209126
-0.028009165 0.0057415063 0.16314562
-0.027329385 0.0025161693 0.16450472
-0.031333026 0.00024034276 0.16614074
-0.033788241 -0.0029682817 0.16845851
-0.029814895 -0.0061297235 0.16977647
-0.025089627 0.03289248 0.14606617
-0.022912994 0.03059943 0.1468863
-0.02249003 0.028290251 0.14776997
-0.022215215 0.026095593 0.14948352
-0.021660391 0.023349226 0.15137151
-0.022297386 0.020162346 0.15482228
-0.023674872 0.016434493 0.15815559
-0.024893129 0.013016738 0.15995081
-0.025641581 0.010323609 0.16119948
-0.025421312 0.0062698852 0.16347758
-0.024502257 0.0015033932 0.16709843
-0.026739378 -0.0011955414 0.16760658
-0.027282329 -0.0044915657 0.16949803
-0.026188316 -0.0059703868 0.17064625
-0.026015483 -0.0082006762 0.17163603
-0.019418178 0.033248346 0.14681123
-0.019809252 0.031140441 0.14756925
-0.019887021 0.02913953 0.14801343
-0.019792568 0.026774095 0.15028822
-0.019596655 0.023593001 0.1512253
-0.019804111 0.021170292 0.1542751
-0.021508228 0.016927674 0.15834309
-0.021373777 0.013798151 0.15967631
-0.022128377 0.011397181 0.16149625
-0.021949004 0.0043462859 0.16606158
-0.022883277 0.00052205042 0.16800046
-0.024050627 -0.0012943187 0.16925925
-0.024693007 -0.0034746358 0.17003717
-0.024133686 -0.0052661467 0.17083681
-0.024077259 -0.0073969564 0.17282958
-0.015950968 0.033404734 0.14788999
-0.016813993 0.031213854 0.14817753
-0.016983666 0.029328739 0.14840955
-0.017191105 0.026075983 0.15133525
-0.017284231 0.023542188 0.15242523
-0.017876273 0.021482948 0.15471701
-0.01896102 0.017340215 0.15925227
-0.019088836 0.014589747 0.16025607
-0.019625079 0.011738391 0.16209309
-0.019776221 0.0039522573 0.16677997
-0.020484956 0.0012149683 0.16965036
-0.021266621 -0.00088686869 0.17110811
-0.022096952 -0.0032201537 0.17053975
-0.021676969 -0.0047285096 0.1720241
-0.020722175 -0.0074345749 0.17259485
-0.013148898 0.032908682 0.14900647
-0.013538767 0.030843925 0.1491593
-0.013897694 0.028142715 0.15031198
-0.014260883 0.02565618 0.15206359
-0.015018757 0.023697278 0.15326974
-0.015581895 0.021664925 0.15485172
-0.016084861 0.019213533 0.1591484
-0.01678919 0.015129022 0.16059765
-0.017134523 0.011451225 0.16309735
-0.018222006 0.005155874 0.16709445
-0.019886492 0.0010235875 0.17029338
-0.020195372 -0.00076264312 0.17111665
-0.020299381 -0.0021298651 0.1715631
-0.020113068 -0.0043850853 0.17181648
-0.018398028 -0.0065071271 0.17129816
-0.01096891 0.032894216 0.14912297
-0.011079876 0.030573303 0.15000321
-0.011331613 0.028035974 0.15129715
-0.012066978 0.025467314 0.15267777
-0.011979456 0.023957953 0.15399496
-0.012098014 0.022176014 0.15601119
-0.010646771 0.018769724 0.15826324
-0.012860868 0.015924379 0.15970629
-0.013085975 0.012074991 0.16311637
-0.013318422 0.0084134229 0.16693006
-0.018364828 0.0016910533 0.1696723
-0.018528121 -7.1543327e-06 0.17075326
-0.018863942 -0.0021749269 0.1712026
-0.018471221 -0.0034981375 0.17099258
-0.016416406 -0.0060946411 0.17068109
-0.0082021831 0.032951035 0.14951466
-0.0091917925 0.030140826 0.15086812
-0.0093417745 0.027891051 0.15209399
-0.0090671778 0.026288413 0.15276466
-0.008865362 0.024312943 0.15348406
-0.0080842907 0.022126934 0.15682791
-0.0081579359 0.018589782 0.15899459
-0.0081457356 0.015358511 0.16010404
-0.0085552381 0.01275294 0.16343054
-0.0081456928 0.0099396221 0.16836441
-0.015783591 0.0021438254 0.17037155
-0.016710911 0.00016294992 0.1714561
-0.016988933 -0.001123841 0.17196597
-0.016272517 -0.0029252509 0.17119199
-0.014790076 -0.0053590504 0.17148405
-0.0051614824 0.033141784 0.14930299
-0.0071734223 0.029018048 0.1519842
-0.0074515557 0.028062463 0.15228248
-0.0067373347 0.026429318 0.15305507
-0.0063893972 0.024087902 0.15495537
-0.0051195528 0.021336948 0.15915285
-0.0057885456 0.019081933 0.1599689
-0.0060836268 0.015738398 0.16135727
-0.005944177 0.012932066 0.16519541
-0.0058014146 0.0098779062 0.16894066
-0.0068751997 0.0055148266 0.17131452
-0.012640655 0.0015818459 0.17075947
-0.013921857 -0.00087819068 0.17058869
-0.014176415 -0.0027805115 0.17070168
-0.0097107971 -0.0069131725 0.17333677
-0.0028622709 0.032720711 0.14942522
-0.0042938972 0.029298581 0.15124632
-0.0037846048 0.028196169 0.15197191
-0.0040444732 0.026233064 0.15283753
-0.0036813316 0.024206454 0.15549305
-0.002959657 0.021213716 0.15987238
-0.0033929925 0.019127231 0.16071837
-0.0032926337 0.016327685 0.16305669
-0.0033943311 0.013616834 0.16611305
-0.0030494034 0.0097106015 0.17119202
-0.003202114 0.006972352 0.172694
-0.0026633504 0.0041012638 0.17491171
-0.0030415549 0.0011492147 0.17482345
-0.0029150599 -0.0011279836 0.17599948
-0.0032935829 -0.0067112446 0.17804578
-0.00069982721 0.030847145 0.15048559
0.00078371906 0.028740445 0.15157492
-0.00064396998 0.027516132 0.15357922
0.0018834027 0.026049532 0.15544361
0.0019773152 0.023213597 0.15754463
0.00051313575 0.021211613 0.16008465
-0.00044146786 0.019015875 0.16209315
-0.00088623364 0.01642351 0.16398071
-0.0012316296 0.014005833 0.16636814
-0.00029414869 0.010214195 0.17217113
3.7224381e-06 0.0073639224 0.17403208
0.00012576513 0.0043735858 0.1755046
0.00011605494 0.0019780351 0.1765665
0.00049151614 -0.0010066474 0.17850181
2.0718223e-06 -0.0052008284 0.17907751
0.0023202898 0.032760814 0.14956366
0.0031665289 0.030786974 0.15128487
0.0039372058 0.028359104 0.15359768
0.0053420374 0.025887493 0.15667021
0.0049680271 0.02404579 0.15776646
0.0039263321 0.021499366 0.15907072
0.0029413751 0.019673688 0.16098845
0.0013821535 0.016495669 0.16462772
0.00082336832 0.014022357 0.1666473
0.00356232 0.011018858 0.17209181
0.0037628913 0.0084805256 0.17339915
0.0030306948 0.0050077583 0.17530267
0.0032019999 0.0022232765 0.1771953
0.0029308009 -0.00075319258 0.17861801
0.0031177718 -0.0042808312 0.1793939
0.0051556258 0.034230337 0.14896873
0.0054245461 0.032404087 0.15080026
0.0060836347 0.030293632 0.15255646
0.0073718308 0.025978077 0.15689017
0.0067843096 0.024485717 0.15829787
0.0062090708 0.022137629 0.16022527
0.0055169025 0.01958194 0.1620343
0.0041126725 0.017424671 0.16397475
0.0074354606 0.012818325 0.17066471
0.0065860464 0.010516435 0.17220218
0.0058156573 0.0081643602 0.17356201
0.0059037185 0.0052013062 0.17554083
0.0057343743 0.0028405718 0.17738597
0.0056477459 -0.0013689854 0.17916502
0.0061647855 -0.0039854827 0.18057278
0.007624018 0.034929462 0.14872316
0.0079321926 0.033302575 0.15056501
0.0083632879 0.031504367 0.15160248
0.0090208957 0.026952442 0.15827721
0.0081091514 0.024739798 0.15969446
0.007355311 0.02190458 0.1609799
0.0071098595 0.019809505 0.16277252
0.010157218 0.013888361 0.16978033
0.0091243563 0.011736293 0.17116676
0.008827216 0.0095831035 0.1720846
0.0087888353 0.0076849908 0.17354409
0.0082427515 0.005596431 0.17529599
0.0075296653 0.0027784365 0.17783344
0.0094837099 -0.00203251 0.17899151
0.0089325616 -0.0042183679 0.18046023
0.010232307 0.035089701 0.1490307
0.01054136 0.033455316 0.15009789
0.010887473 0.0308834 0.15347788
0.010320261 0.027408974 0.15884246
0.0095166108 0.024794905 0.15979975
0.009411647 0.021960314 0.16163895
0.0087355059 0.019146066 0.16454843
0.011768754 0.013713606 0.16913407
0.01116531 0.011450557 0.1707963
0.011238634 0.0093931686 0.17173548
0.011718921 0.0073001957 0.1735481
0.010026339 0.0057053464 0.17501903
0.010066752 0.002476064 0.17784463
0.013215951 -0.0024380924 0.17663722
0.013158761 0.035390854 0.14894955
0.014169896 0.033413149 0.15033159
0.013629261 0.029150954 0.1580857
0.014362698 0.026407721 0.16001299
0.01238879 0.024743702 0.16028152
0.012171309 0.021077873 0.16375922
0.012895039 0.015320323 0.16781533
0.013832469 0.013441376 0.16814844
0.013409465 0.011159897 0.17025933
0.01266046 0.0095591964 0.17146111
0.013948843 0.0075551705 0.17333584
0.011449956 0.0058917277 0.17488821
0.01202748 0.0024235202 0.17707962
0.014179341 -0.0016539353 0.1747779
0.017013559 0.035274256 0.14914025
0.018674474 0.033808008 0.15366097
0.016916506 0.028674513 0.15719958
0.015651301 0.024046939 0.16137472
0 0 0 1 0 0 0 1 0 0 0 1 0 0 0 0 0 239 1 0 0
