ply
format ascii 1.0
comment PCL generated
element vertex 239
property float x
property float y
property float z
element camera 1
property float view_px
property float view_py
property float view_pz
property float x_axisx
property float x_axisy
property float x_axisz
property float y_axisx
property float y_axisy
property float y_axisz
property float z_axisx
property float z_axisy
property float z_axisz
property float focal
property float scalex
property float scaley
property float centerx
property float centery
property int viewportx
property int viewporty
property float k1
property float k2
end_header
-0.029956266 0.032065634 0.14645953
-0.029027017 0.029742518 0.14677998
-0.028109895 0.027749855 0.14901498
-0.02707546 0.025862392 0.15124002
-0.026200395 0.023707613 0.15336092
-0.027521037 0.020892354 0.15668184
-0.032625131 0.014102106 0.16144688
-0.03315714 0.011780065 0.16297914
-0.032590285 0.0088614235 0.16401617
-0.032030441 0.0062237647 0.1647601
-0.033562392 0.0040760073 0.16683476
-0.03569093 0.00094886246 0.16874488
-0.036695048 -0.0019509647 0.16842449
-0.027953759 0.032350454 0.14565608
-0.026483318 0.029765423 0.14667329
-0.025483953 0.027408125 0.14797217
-0.024528397 0.025623413 0.14981401
-0.024013363 0.023672946 0.15260336
-0.024707543 0.020558506 0.1546659
-0.025860172 0.01652858 0.15903178
-0.028637866 0.012473133 0.16141497
-0.029217988 0.009336086 0.16300887
-0.027972611 0.0055710524 0.1641416
-0.027470335 0.0023793185 0.16601275
-0.031487703 0.00062622287 0.16805975
-0.034016456 -0.0028511672 0.16988055
-0.029984597 -0.0063974611 0.1717861
-0.024870245 0.032542758 0.14513598
-0.022740591 0.030283222 0.14634717
-0.022369917 0.028060274 0.14744215
-0.022192443 0.026025094 0.1493867
-0.021734115 0.023382422 0.15184581
-0.022291563 0.020566087 0.1554732
-0.023526669 0.01659916 0.1585523
-0.024508689 0.012856911 0.16010712
-0.025327194 0.010108283 0.16138546
-0.025293224 0.0057338197 0.16399422
-0.024518954 0.0012732401 0.16841266
-0.026963824 -0.0013632932 0.16935317
-0.027501754 -0.0047796164 0.17139477
-0.026354626 -0.0062281969 0.17244853
-0.026111048 -0.0084883058 0.17334013
-0.019508783 0.033081446 0.14667793
-0.01980558 0.030970084 0.14739631
-0.019825192 0.028969213 0.14785051
-0.019818768 0.026756721 0.15024173
-0.019645477 0.023549583 0.15144923
-0.019796288 0.021374229 0.154724
-0.021407049 0.017139493 0.15871958
-0.021072365 0.013862398 0.15985309
-0.021763118 0.011376558 0.16164997
-0.021980228 0.003928409 0.16701059
-0.023104852 0.00036983873 0.16945322
-0.024261566 -0.0015544991 0.17073506
-0.024899505 -0.0037521769 0.17164454
-0.0243598 -0.0055208472 0.17241928
-0.024069857 -0.0077464357 0.17421657
-0.016209124 0.033415124 0.14780511
-0.016973032 0.031193694 0.14819342
-0.017058687 0.029297946 0.14846177
-0.017186848 0.02608108 0.15141566
-0.017279785 0.023547309 0.15256393
-0.017847288 0.021574419 0.15504353
-0.01896235 0.017678291 0.15969302
-0.018970657 0.014862289 0.1607074
-0.019489003 0.012003921 0.16266555
-0.020063017 0.0037211045 0.16816571
-0.020731919 0.00089061481 0.17099729
-0.021371927 -0.0012484523 0.17240569
-0.022421136 -0.0035207674 0.17176902
-0.021798344 -0.005041068 0.17314923
-0.020789715 -0.0077749919 0.17358126
-0.013203651 0.032838635 0.14831035
-0.013625409 0.030840879 0.14864497
-0.013985265 0.028174324 0.15019408
-0.014290247 0.02566975 0.15207638
-0.015017754 0.023737775 0.15337291
-0.015577376 0.021766538 0.1550331
-0.016065823 0.019552872 0.15954837
-0.01681762 0.015563841 0.16129619
-0.017206503 0.01197148 0.16405454
-0.018544186 0.0051124305 0.16849817
-0.020181118 0.00066560827 0.17162287
-0.020422528 -0.0011662188 0.17235427
-0.020434072 -0.0025971911 0.17256421
-0.020320041 -0.0048365071 0.17258628
-0.018698903 -0.0068803886 0.17203072
-0.010942596 0.03271383 0.14835359
-0.011119034 0.030413289 0.14938611
-0.011460424 0.028007673 0.15104271
-0.012173819 0.025521474 0.15260305
-0.012063233 0.024049917 0.15399751
-0.012079137 0.022299042 0.15609889
-0.010759782 0.0194436 0.15904151
-0.01300388 0.016681444 0.16074792
-0.013449953 0.013008809 0.16455531
-0.013653667 0.0091195237 0.16822164
-0.018746007 0.0013825315 0.17108858
-0.01896335 -0.00034448341 0.17214476
-0.019165482 -0.0026346927 0.17203359
-0.018806946 -0.0039013252 0.17167601
-0.016742738 -0.006414962 0.1715019
-0.0082292454 0.032752864 0.14894913
-0.0093630105 0.030044943 0.15059118
-0.0095149809 0.027915062 0.15191038
-0.0092168711 0.026353985 0.15275891
-0.0090441322 0.02447558 0.15374772
-0.0082929553 0.022661008 0.15745267
-0.0083633149 0.019351978 0.16008139
-0.0086291945 0.016357275 0.16150522
-0.0089005381 0.013667969 0.16460803
-0.0083422493 0.010455507 0.16910438
-0.016331784 0.0016841 0.17166403
-0.017325303 -0.00025619293 0.17292273
-0.017537499 -0.0016688893 0.17329094
-0.016660418 -0.0033160411 0.17224312
-0.015132378 -0.0057056174 0.17235206
-0.0052078292 0.033094384 0.14933959
-0.0075043831 0.029061411 0.15213908
-0.0076657548 0.02810449 0.15231997
-0.0069339075 0.026556036 0.1532971
-0.0066680354 0.024431653 0.15549746
-0.0052271555 0.021783257 0.15998876
-0.005915347 0.019657597 0.16094525
-0.0064276303 0.016443759 0.16246916
-0.0061296606 0.013385467 0.16596706
-0.0061008073 0.01009993 0.16931868
-0.0074437894 0.0056094402 0.17130886
-0.013258946 0.00090856967 0.17194816
-0.014602978 -0.0014470912 0.17201214
-0.014855488 -0.0032623145 0.17217737
-0.0099865422 -0.0073517673 0.17365448
-0.0029330382 0.032753836 0.14972554
-0.0044883131 0.029345063 0.15177475
-0.003936898 0.028196378 0.15233754
-0.004232408 0.026313787 0.15331377
-0.0040123598 0.024523307 0.15613958
-0.0031222634 0.02144012 0.16069774
-0.0035109874 0.019439381 0.1616396
-0.0034044799 0.016488817 0.16361469
-0.0034784649 0.013576601 0.16644719
-0.0031936306 0.0092558172 0.17079729
-0.0035007191 0.0066357087 0.17223534
-0.0028802536 0.003529455 0.17443672
-0.0033787331 0.00063475181 0.174711
-0.0031169679 -0.0016922449 0.1758047
-0.00300076 -0.0075208992 0.17690238
-0.00075670506 0.031295601 0.15131725
0.00076582283 0.029240983 0.15244778
-0.00084811979 0.027643191 0.1541906
0.0015484057 0.026229426 0.15623634
0.0016481897 0.023332147 0.1583053
0.0003110228 0.021285694 0.16071837
-0.00053381297 0.019226613 0.16282737
-0.0008832562 0.016395612 0.16433832
-0.0012231148 0.013698892 0.16640641
-0.00033022717 0.0091863219 0.17099868
-8.4322921e-05 0.00646256 0.17294088
7.0879614e-06 0.0036519491 0.17472501
7.70591e-05 0.0013082449 0.17584416
0.00058442174 -0.001814127 0.17745319
0.0002399519 -0.0060963691 0.17757474
0.0024580595 0.033464 0.15071575
0.003245533 0.031335823 0.15228158
0.0039332812 0.02864529 0.15436223
0.0051380051 0.025830202 0.15717191
0.0046780109 0.024112118 0.1583821
0.0036667821 0.021555893 0.15957789
0.0027571428 0.019712443 0.16147055
0.001446167 0.016377585 0.16482131
0.00086469768 0.0135715 0.16644688
0.0036955175 0.0097148139 0.17010251
0.0039204885 0.0073059499 0.17164265
0.0029690678 0.004188173 0.17411621
0.0031767176 0.0013557366 0.17590243
0.0030204738 -0.0015931928 0.17732987
0.0033404473 -0.0051623737 0.17782871
0.0053251684 0.034942493 0.15023316
0.0055355886 0.033009145 0.15196574
0.0061420542 0.030702328 0.15350409
0.0072977417 0.025784066 0.15734783
0.0065671019 0.024441879 0.15881531
0.0060476447 0.02201557 0.16053608
0.0054100617 0.019463716 0.1622915
0.0040756809 0.017378801 0.16424432
0.007491583 0.012418723 0.16976923
0.0067635071 0.0097840484 0.17082834
0.0060400683 0.00734611 0.17213583
0.0059969211 0.0045726271 0.1744654
0.005751323 0.0022071199 0.17623036
0.0057604122 -0.0021467358 0.17790908
0.0063471356 -0.0048295413 0.17914705
0.0078285597 0.035599545 0.15000087
0.0080571063 0.033873256 0.15179707
0.0084401146 0.032022744 0.1527402
0.0088366214 0.026721442 0.15879269
0.0078246249 0.024764776 0.16026147
0.0071753883 0.021717323 0.16129221
0.0070318519 0.019540051 0.16288795
0.010154268 0.013899749 0.16961035
0.0091856467 0.011520998 0.17049401
0.0091225626 0.0091812266 0.17130923
0.0089604566 0.0074047204 0.17300397
0.0082849478 0.0052634031 0.17462581
0.0073565417 0.002426327 0.17701858
0.0095825419 -0.0023455524 0.1784898
0.0090584513 -0.0047309133 0.17957754
0.010440743 0.03557511 0.15023482
0.010688033 0.033906646 0.15125579
0.010947678 0.031102212 0.15444705
0.010097255 0.027341934 0.15950248
0.0091660516 0.024838507 0.16060515
0.0090889093 0.021925418 0.16225676
0.0085782986 0.018793855 0.16467646
0.011930702 0.013908335 0.16942926
0.011359897 0.011416655 0.17061539
0.011737389 0.0091966232 0.17171292
0.011897665 0.0075955531 0.17414662
0.010035953 0.0056406846 0.17482942
0.0097868666 0.002443895 0.1776533
0.013683685 -0.0022166085 0.17718782
0.013414184 0.035583582 0.14991373
0.01434593 0.03346464 0.15112597
0.013415496 0.02908263 0.15917218
0.01383184 0.026573466 0.16143723
0.011853237 0.025057312 0.16184334
0.011705685 0.021192798 0.16455705
0.012960159 0.015672183 0.1684203
0.014166783 0.013963908 0.16900979
0.013759686 0.011413914 0.17077568
0.013086266 0.0096318573 0.17181233
0.014033465 0.0082431128 0.17454144
0.011384328 0.0061279428 0.17522319
0.011782163 0.0026425617 0.17751707
0.014936234 -0.0012635039 0.17566977
0.017299762 0.035040472 0.14976658
0.018914551 0.033454053 0.15425119
0.016717985 0.028574251 0.15866072
0.015017707 0.024249271 0.16287667
0 0 0 1 0 0 0 1 0 0 0 1 0 0 0 0 0 239 1 0 0
