ply
format ascii 1.0
comment PCL generated
element vertex 239
property float x
property float y
property float z
element camera 1
property float view_px
property float view_py
property float view_pz
property float x_axisx
property float x_axisy
property float x_axisz
property float y_axisx
property float y_axisy
property float y_axisz
property float z_axisx
property float z_axisy
property float z_axisz
property float focal
property float scalex
property float scaley
property float centerx
property float centery
property int viewportx
property int viewporty
property float k1
property float k2
end_header
-0.030240862 0.031758785 0.14660104
-0.029191786 0.029461125 0.14687009
-0.028263044 0.027436225 0.14901534
-0.027274184 0.025616348 0.15126367
-0.026297471 0.023450378 0.15334773
-0.027501486 0.020745095 0.15679893
-0.032703228 0.014108102 0.16130194
-0.033258259 0.011675457 0.16262968
-0.032707304 0.0086942753 0.16340022
-0.032094128 0.0060025156 0.16382107
-0.033494107 0.0035689718 0.1654301
-0.035424929 0.00025376354 0.16701554
-0.036288418 -0.0026134148 0.16650498
-0.028228587 0.032185171 0.14589813
-0.026649237 0.029627586 0.14687803
-0.025579965 0.027275069 0.14814888
-0.024585601 0.02559937 0.15005091
-0.024066303 0.023640262 0.15274563
-0.024679713 0.020425657 0.15475124
-0.025814675 0.0167103 0.15951568
-0.028767148 0.012598922 0.16146049
-0.029404147 0.0093147596 0.16264467
-0.028038718 0.0054496904 0.16340168
-0.027211616 0.002036267 0.16485955
-0.031206738 1.3370095e-05 0.16639283
-0.03355395 -0.0035158573 0.16791499
-0.029167315 -0.0071197641 0.16970044
-0.025124203 0.032539934 0.14549041
-0.022895189 0.030306816 0.146687
-0.022475867 0.028125083 0.14782354
-0.022251405 0.026167216 0.14980957
-0.021702962 0.023787079 0.1523225
-0.022273099 0.020547524 0.15556082
-0.023455948 0.016731026 0.15883411
-0.02466001 0.013128732 0.16069889
-0.02550499 0.010287224 0.16163667
-0.025379628 0.0057303864 0.16345686
-0.024038712 0.00085906981 0.16711971
-0.02617101 -0.002183954 0.16745777
-0.026636686 -0.0055671949 0.16925722
-0.02561762 -0.0068261828 0.17056356
-0.025503382 -0.0089206547 0.17174874
-0.019633936 0.033138182 0.14691646
-0.019923411 0.031048454 0.14768603
-0.019927429 0.029064279 0.14819309
-0.019894535 0.026955763 0.15064009
-0.019658105 0.024028484 0.15202561
-0.019834701 0.021752411 0.15516262
-0.021275746 0.017189654 0.15866539
-0.021125115 0.013934996 0.1600202
-0.021785432 0.01142825 0.1617939
-0.021616518 0.0038580908 0.16630264
-0.022103872 -0.00013306706 0.16775513
-0.023312476 -0.0023891709 0.16853248
-0.024045674 -0.0045188875 0.1695438
-0.023663353 -0.0060596867 0.17070366
-0.023657862 -0.0080173491 0.17281923
-0.016321044 0.033579554 0.14819807
-0.017064577 0.031329654 0.14854571
-0.017134808 0.02943499 0.14882696
-0.017276835 0.02643938 0.15183528
-0.017363371 0.024037102 0.15314876
-0.017923379 0.022007465 0.15547161
-0.018619651 0.017420907 0.15891591
-0.01884892 0.014633317 0.16030891
-0.019379724 0.011782197 0.16235946
-0.019598989 0.0038514673 0.16780391
-0.020330882 0.00064337387 0.17005135
-0.020972112 -0.001731622 0.170972
-0.021675995 -0.0040944633 0.17018695
-0.021342482 -0.0052569634 0.17191337
-0.020315493 -0.007992384 0.17260288
-0.013396842 0.033222359 0.14905606
-0.013785351 0.031160587 0.14929728
-0.014221007 0.028680902 0.15103422
-0.014446102 0.02616434 0.15266207
-0.015137143 0.024263132 0.15396404
-0.015654979 0.022188673 0.15535626
-0.015779942 0.019132705 0.15874875
-0.016574668 0.015121446 0.16048025
-0.017067743 0.011515923 0.16348191
-0.018355062 0.0051756985 0.16846652
-0.019914374 0.0004264967 0.17081885
-0.020064667 -0.0014948077 0.17119652
-0.019957902 -0.0029513193 0.17131379
-0.01977546 -0.0051485291 0.17157967
-0.018107321 -0.00708006 0.1713433
-0.011188115 0.033115514 0.14902979
-0.011352742 0.030797655 0.15001631
-0.011685225 0.028417287 0.15165767
-0.012337313 0.025826417 0.15300258
-0.012139333 0.024312738 0.1542419
-0.012080461 0.022432692 0.15614276
-0.010544647 0.019061843 0.15825541
-0.012728775 0.016095089 0.15957773
-0.013313156 0.012478131 0.1639992
-0.01357601 0.0085646948 0.16766395
-0.018528443 0.0013560297 0.17069881
-0.018681383 -0.00050719013 0.17143075
-0.018700544 -0.0029318929 0.17097823
-0.0183054 -0.0041917162 0.17074783
-0.016180923 -0.0065695764 0.1707623
-0.008436773 0.033015486 0.1493232
-0.0095435008 0.030354105 0.15112498
-0.0096600289 0.028171016 0.15227476
-0.0093066711 0.026508711 0.15284629
-0.0090813618 0.024525475 0.15356307
-0.0081580831 0.022473583 0.15712395
-0.0080877701 0.018867053 0.15913959
-0.0084064482 0.015816497 0.16052513
-0.0088164359 0.013282686 0.1640452
-0.0081428494 0.0097577823 0.16799231
-0.016151074 0.0017506036 0.17132103
-0.017035406 -0.00040343311 0.17208621
-0.017117199 -0.0017409563 0.17210741
-0.016235698 -0.0034130265 0.17108475
-0.014629442 -0.0057241912 0.17154999
-0.0053709904 0.03309653 0.14910153
-0.0076331175 0.029295636 0.15253855
-0.0077610589 0.028289571 0.15254602
-0.0069638095 0.02663325 0.15323821
-0.0065909256 0.024310758 0.15519255
-0.0050259489 0.021362862 0.15924919
-0.0056493613 0.019110512 0.15993385
-0.0062332987 0.015912054 0.16153638
-0.0060101682 0.012973442 0.16532254
-0.0059083798 0.0093111387 0.16803576
-0.0070672059 0.0047169523 0.17004617
-0.013035071 0.0010038569 0.17131476
-0.014318086 -0.0013440567 0.17095022
-0.014508842 -0.0032116929 0.17090538
-0.0097227721 -0.0071333176 0.17351304
-0.0030969996 0.032645825 0.14921688
-0.0046168324 0.029568069 0.15202825
-0.0039981962 0.028359808 0.15232812
-0.0042648879 0.026407208 0.15309234
-0.0039010786 0.024360096 0.15572473
-0.0029457228 0.020925021 0.1597326
-0.0032483917 0.018804401 0.16041346
-0.0032757286 0.015978798 0.16273493
-0.0033366682 0.013166964 0.16569902
-0.0032136447 0.0085877199 0.16980739
-0.0034436195 0.0060886731 0.17137697
-0.0028177439 0.0030546181 0.17371409
-0.003204522 0.00025948379 0.17438601
-0.0030950368 -0.0016297373 0.17606825
-0.0032943077 -0.007002899 0.17825021
-0.00074991002 0.031020902 0.15036485
0.00080056977 0.029000996 0.1515225
-0.00078014407 0.027600084 0.15374821
0.0016141064 0.026131548 0.15551527
0.0017080611 0.023302784 0.15770593
0.0004186786 0.020978553 0.15993159
-0.00034056843 0.018698422 0.16179642
-0.00072862097 0.015977211 0.16351941
-0.0010935756 0.013357258 0.16570841
-0.00044568634 0.0087922607 0.17054392
-0.00017279341 0.0061545982 0.17260477
-1.8858145e-05 0.0034217027 0.17440376
3.2060892e-05 0.0013024295 0.17589098
0.0003784273 -0.0013613118 0.17828332
-1.9948473e-06 -0.0055159037 0.17913304
0.002410731 0.032938864 0.1491375
0.0032530064 0.030937361 0.15091257
0.0039985701 0.028540216 0.15346895
0.0051262672 0.025856202 0.156537
0.0047055907 0.024177467 0.15781812
0.0037479152 0.021504562 0.15901092
0.0028545039 0.019611958 0.16088095
0.0015510436 0.016164396 0.16421874
0.00098130072 0.013375502 0.16593662
0.0034025407 0.0095761865 0.17025541
0.003763183 0.0071386541 0.17172112
0.0029276425 0.0041565639 0.17429878
0.0030616939 0.0016865993 0.17652729
0.0027982891 -0.001061161 0.17837581
0.0031119485 -0.0044680103 0.17953394
0.0052284985 0.034348067 0.14842442
0.005515438 0.032417331 0.15018205
0.0061664116 0.030303452 0.15206189
0.0071991407 0.025933007 0.15671499
0.0065477663 0.024581047 0.15818709
0.0060202321 0.022180162 0.16009216
0.0054269829 0.019627955 0.16190337
0.0041301432 0.017458012 0.16384916
0.0068366635 0.012235047 0.16951212
0.0063299458 0.0096142823 0.17072473
0.0057961196 0.0071699931 0.17219099
0.005856866 0.0046597375 0.17470372
0.005580517 0.0026486889 0.17688411
0.0054830671 -0.0013828905 0.17930664
0.0060201469 -0.003782745 0.1810455
0.0077146124 0.034968361 0.14805184
0.0080165481 0.033227727 0.14982443
0.0084075518 0.03137989 0.15085746
0.0087611126 0.026901169 0.15801151
0.0078549404 0.024917888 0.1595052
0.0071326438 0.021822907 0.16077465
0.0069690659 0.019807035 0.16253921
0.0093938215 0.013458109 0.16845144
0.0085695023 0.011220097 0.16972476
0.0087459916 0.0088244807 0.17071497
0.0087638553 0.0072425893 0.17274877
0.008133891 0.0053997966 0.17477626
0.0072391066 0.0030320138 0.17763625
0.0093411608 -0.0013630069 0.18014878
0.0087444261 -0.0035067946 0.18165432
0.010331769 0.034890197 0.14812498
0.01059204 0.033222023 0.1491496
0.010860733 0.030696845 0.15269364
0.010083549 0.027473258 0.15854459
0.0092626261 0.024899185 0.15959427
0.0091729444 0.021836342 0.16141029
0.0085509373 0.019039262 0.16420498
0.01129187 0.013226742 0.16782941
0.010805869 0.010855935 0.16922055
0.011428156 0.0085775796 0.17058013
0.011735578 0.0072384947 0.17335293
0.0098896958 0.0057675736 0.17480819
0.0097034136 0.0031861153 0.17823492
0.013492838 -0.0015842635 0.17881529
0.013287015 0.034906536 0.14770082
0.014241985 0.032841399 0.14892823
0.013417807 0.02931869 0.15793139
0.014209419 0.026641678 0.15974499
0.012205713 0.024840949 0.16007616
0.011943519 0.020989016 0.16339031
0.012380902 0.015248683 0.16704775
0.013834481 0.013498906 0.16776945
0.013435303 0.011085025 0.16972616
0.012825366 0.0091739055 0.17075092
0.013913602 0.0079409257 0.17355974
0.011237979 0.006198721 0.17491089
0.011704617 0.0033396594 0.17801002
0.014748275 -0.00097885611 0.17710154
0.017170519 0.034413103 0.14747088
0.018930815 0.033041876 0.15210328
0.016818916 0.02904007 0.1571596
0.015457587 0.024229415 0.1610162
0 0 0 1 0 0 0 1 0 0 0 1 0 0 0 0 0 239 1 0 0
