ply
format ascii 1.0
comment PCL generated
element vertex 239
property float x
property float y
property float z
element camera 1
property float view_px
property float view_py
property float view_pz
property float x_axisx
property float x_axisy
property float x_axisz
property float y_axisx
property float y_axisy
property float y_axisz
property float z_axisx
property float z_axisy
property float z_axisz
property float focal
property float scalex
property float scaley
property float centerx
property float centery
property int viewportx
property int viewporty
property float k1
property float k2
end_header
-0.030248627 0.031259786 0.1454217
-0.029247912 0.029006043 0.14597611
-0.02828479 0.0272504 0.14847097
-0.027231382 0.025630347 0.1509257
-0.026209304 0.023564318 0.15332976
-0.02735474 0.02092989 0.15704408
-0.032604389 0.013633423 0.16015284
-0.033130426 0.011204773 0.16151109
-0.03251873 0.0082383649 0.16235234
-0.031850334 0.0055626561 0.16295312
-0.033298731 0.0032244874 0.16491646
-0.035320736 9.6047748e-05 0.1668601
-0.03637176 -0.0027197113 0.16672742
-0.028252469 0.031551551 0.1446275
-0.026704952 0.029118199 0.14593682
-0.025643207 0.02689418 0.14747901
-0.024630291 0.025298554 0.14948185
-0.023987809 0.023479145 0.15245156
-0.024714936 0.020410929 0.15481749
-0.025734352 0.016640766 0.1593311
-0.028652837 0.012137027 0.1601311
-0.029226245 0.0088031897 0.16116829
-0.027620258 0.0049053505 0.16242622
-0.026750358 0.0014155261 0.16434236
-0.031041684 -0.00041968326 0.16592114
-0.033593263 -0.0036683735 0.16802226
-0.02881719 -0.0081000179 0.16848551
-0.025180614 0.031884879 0.14425562
-0.02297812 0.029937435 0.14586544
-0.022532867 0.02775467 0.14702447
-0.022310082 0.025793996 0.14905539
-0.021683039 0.023202009 0.15162346
-0.022250697 0.020418525 0.15542795
-0.023425696 0.016732126 0.15873687
-0.024587058 0.012748313 0.15951318
-0.025389045 0.0098220129 0.15999447
-0.024886701 0.0051302789 0.16256455
-0.023620158 -2.5960211e-05 0.16683425
-0.025465863 -0.0033602563 0.16641285
-0.026248924 -0.0065762121 0.16834731
-0.025551436 -0.0075768325 0.17005472
-0.025601707 -0.0095107332 0.17149992
-0.019827763 0.032905515 0.14622965
-0.020095861 0.030835712 0.14704439
-0.02004596 0.028855972 0.14754805
-0.019971436 0.026613057 0.14985338
-0.019616438 0.023331506 0.15108436
-0.019747751 0.021365676 0.15453669
-0.021300055 0.017203199 0.15862487
-0.021113465 0.013789915 0.15947123
-0.02171625 0.010979153 0.16075726
-0.021261547 0.0027941153 0.16568848
-0.021841064 -0.0011941064 0.16725944
-0.023058187 -0.0032920393 0.16812366
-0.023829523 -0.0053719771 0.16906758
-0.023671545 -0.0067248852 0.1704683
-0.023890464 -0.0084743164 0.17273717
-0.016441764 0.033302251 0.14729972
-0.017243465 0.031154182 0.1478986
-0.01731739 0.029302789 0.14830135
-0.017227363 0.025897048 0.1508894
-0.017284144 0.02344083 0.15221873
-0.017861996 0.021559184 0.1547927
-0.018725701 0.017526506 0.15902568
-0.018879524 0.014566183 0.16021699
-0.019323759 0.011345798 0.16183919
-0.019294221 0.0023297418 0.16666856
-0.020129735 -0.0003130894 0.1694009
-0.02099276 -0.0023743203 0.1707273
-0.021786503 -0.0046641901 0.17018403
-0.021507947 -0.0058051222 0.1719061
-0.020506576 -0.0083917025 0.17286168
-0.013464521 0.032787561 0.1480643
-0.013900036 0.030833166 0.14849423
-0.014313709 0.028426476 0.15059341
-0.014438109 0.025728567 0.15196383
-0.015072267 0.02373567 0.1531752
-0.015592284 0.021725489 0.15485509
-0.015921379 0.019273272 0.1588807
-0.016639085 0.015124786 0.16068448
-0.017019682 0.011012024 0.16319993
-0.018021137 0.0036614637 0.16673435
-0.019708231 -0.00044123048 0.17006616
-0.020040235 -0.0021780133 0.17091444
-0.020072591 -0.0035096859 0.1713133
-0.019939214 -0.0057050223 0.17161436
-0.018195262 -0.0075274073 0.17148586
-0.011251069 0.032609336 0.14814799
-0.011503344 0.03048471 0.14952463
-0.01183218 0.028240867 0.15149127
-0.012408468 0.025564294 0.15270136
-0.012151233 0.023939461 0.1539111
-0.012130276 0.022119107 0.15600069
-0.010642142 0.01906709 0.15892699
-0.012825768 0.016138975 0.16024812
-0.013257286 0.011931593 0.16406156
-0.013499212 0.0076751281 0.16722646
-0.018336199 0.00027927669 0.16954215
-0.018560128 -0.00132197 0.17064166
-0.018839929 -0.0035298073 0.17090794
-0.018474128 -0.0047652018 0.1707956
-0.016267095 -0.0069870772 0.17089812
-0.0085115395 0.032553058 0.14857619
-0.0097138137 0.030124104 0.15074097
-0.009807854 0.028003823 0.15211967
-0.009395252 0.026300289 0.1526826
-0.0091338437 0.024323301 0.15348214
-0.0082124425 0.022457929 0.1574146
-0.0081604198 0.018866656 0.15992166
-0.0083963405 0.015607026 0.16119504
-0.0087691965 0.012666153 0.16433586
-0.0082429955 0.0093831252 0.16870111
-0.016194738 0.00094155187 0.17026404
-0.016978266 -0.0010629208 0.1712238
-0.017183401 -0.0022052038 0.17166506
-0.016362458 -0.0039034316 0.17102671
-0.0147224 -0.0060989675 0.17163162
-0.0054536285 0.03242581 0.14824288
-0.0077675721 0.029057108 0.15216298
-0.0078891832 0.028064981 0.15229227
-0.0070469687 0.02640014 0.15304178
-0.006667186 0.024221761 0.15520307
-0.0050701289 0.021465311 0.15996362
-0.0057203458 0.019193852 0.16076984
-0.0062287268 0.015718499 0.1621858
-0.0060373424 0.01247159 0.16572841
-0.0060759089 0.0089661079 0.16880991
-0.0074887448 0.005005165 0.17231165
-0.013302341 0.00065285433 0.1712611
-0.014431873 -0.0017103106 0.17101428
-0.01457442 -0.0035641985 0.17102179
-0.0096885879 -0.0072997366 0.17367984
-0.0032018078 0.031876873 0.14827263
-0.0047460231 0.028931491 0.15123965
-0.0040756003 0.027829861 0.15179823
-0.0043610814 0.026033722 0.15283385
-0.0039712223 0.024230236 0.1557336
-0.0029868681 0.021118395 0.16058537
-0.0033386515 0.019014744 0.1613927
-0.0033399577 0.015870603 0.16343749
-0.0033920694 0.012803678 0.16617745
-0.0032548558 0.0080978414 0.17032552
-0.0035071066 0.0059744348 0.17262176
-0.0027362537 0.0030979661 0.17503148
-0.0032193447 0.00029430448 0.17563124
-0.0029740664 -0.0017631975 0.17695914
-0.0030935786 -0.007491658 0.17833793
-0.00072725624 0.029931299 0.14967039
0.00090600876 0.027992675 0.15124495
-0.00074156059 0.026922686 0.15319224
0.0018462249 0.025549211 0.15514547
0.0018711051 0.022915404 0.15755346
0.00046705559 0.021053676 0.16054675
-0.00037265499 0.018925842 0.16272344
-0.00083457789 0.016027573 0.16434059
-0.0011566855 0.01318794 0.16632056
-0.00036529952 0.0080105104 0.1704587
-4.9486698e-05 0.0058106403 0.17306623
0.00013196457 0.003200362 0.1750911
0.00025751372 0.0010580852 0.17650801
0.00074844761 -0.0018786734 0.17847125
0.0002897619 -0.0061055152 0.17908192
0.0024556676 0.031629119 0.14866894
0.0032926428 0.029909922 0.15065888
0.0040737051 0.027781673 0.15329888
0.0053213295 0.025245463 0.15620168
0.0049099703 0.023613647 0.15750577
0.0037862989 0.021188289 0.15910952
0.0029318295 0.019518865 0.16127995
0.0014941191 0.016166622 0.1649286
0.00092801335 0.013220639 0.16648506
0.0036440503 0.0083316909 0.16923937
0.0039358423 0.0061817705 0.17125182
0.003049854 0.003704835 0.17439677
0.0033302107 0.0011736023 0.17658855
0.003162764 -0.0016945185 0.17827472
0.0034640429 -0.0051742857 0.17922635
0.0052706264 0.032846574 0.14781706
0.0055269348 0.031259432 0.14984599
0.0061795684 0.029468168 0.15195458
0.0073248832 0.025376406 0.15644576
0.0067055947 0.024053339 0.1579366
0.0062226751 0.021647116 0.15984966
0.005618888 0.019213479 0.16184385
0.0042838948 0.017294941 0.16417532
0.0070739547 0.011456728 0.16870317
0.0066576838 0.008657461 0.16977422
0.006086716 0.006273 0.17153479
0.0060589998 0.0039902376 0.17434195
0.0058367816 0.0020257498 0.17656325
0.0059052231 -0.0021879128 0.17884193
0.0065249633 -0.0046692262 0.18043321
0.007702725 0.033296194 0.14733249
0.0079951948 0.031922095 0.14938925
0.0083968434 0.030333191 0.15071273
0.0088431481 0.026433043 0.1577429
0.0080195451 0.024423067 0.15924545
0.0073255184 0.021323871 0.16057678
0.0071778544 0.019279288 0.1623078
0.0096585741 0.01288681 0.1679506
0.0088404445 0.010653663 0.16908027
0.0091410503 0.0080623822 0.17013809
0.0090329396 0.0065382337 0.17230469
0.0083878227 0.0045965258 0.17424127
0.007478538 0.0021621701 0.17701006
0.0097895525 -0.0022025604 0.17957228
0.0092652813 -0.0044059297 0.18097669
0.010206291 0.033188205 0.14738268
0.010473823 0.031757407 0.14869469
0.010786704 0.029835129 0.15252358
0.010133703 0.02704807 0.1582571
0.0093759261 0.024454094 0.15935141
0.0092660049 0.021507824 0.16147959
0.008662425 0.018557757 0.16404501
0.011703825 0.012627623 0.16740607
0.011194581 0.010301028 0.16881742
0.011994461 0.0080134189 0.1706114
0.01197287 0.0068449462 0.1735131
0.010143703 0.0049787182 0.17435479
0.0098865414 0.0022435349 0.1776446
0.013956558 -0.0022000566 0.17855452
0.012988654 0.033149272 0.1468748
0.013929485 0.031436332 0.14845802
0.013323033 0.028997114 0.1575876
0.014084663 0.026585227 0.15965508
0.012256001 0.024559993 0.15986112
0.011845349 0.020874985 0.16384928
0.012754108 0.01467675 0.16679084
0.014371288 0.012796064 0.16740663
0.01392996 0.010448335 0.16947317
0.01333027 0.0086372187 0.17079009
0.014070164 0.0077306014 0.17401879
0.011437033 0.0055499249 0.17469315
0.011865418 0.0024487993 0.17758384
0.015302922 -0.0016598766 0.17687465
0.016727438 0.032827649 0.14667128
0.018412098 0.032731757 0.151521
0.016689921 0.028964153 0.15714109
0.015340647 0.024504591 0.16143131
0 0 0 1 0 0 0 1 0 0 0 1 0 0 0 0 0 239 1 0 0
