ply
format ascii 1.0
comment PCL generated
element vertex 239
property float x
property float y
property float z
element camera 1
property float view_px
property float view_py
property float view_pz
property float x_axisx
property float x_axisy
property float x_axisz
property float y_axisx
property float y_axisy
property float y_axisz
property float z_axisx
property float z_axisy
property float z_axisz
property float focal
property float scalex
property float scaley
property float centerx
property float centery
property int viewportx
property int viewporty
property float k1
property float k2
end_header
-0.030719163 0.032185394 0.14711478
-0.029649269 0.029887181 0.14729802
-0.028597195 0.027789593 0.14937784
-0.027501157 0.025839731 0.15150277
-0.02642455 0.023264794 0.15323648
-0.027475871 0.020261254 0.15665233
-0.032930769 0.013042552 0.16082692
-0.033440325 0.010694772 0.16233157
-0.032829393 0.0077804099 0.16334772
-0.032153793 0.0051382203 0.16407155
-0.033672247 0.0027203034 0.16592269
-0.035661094 -0.00066237332 0.16780511
-0.036680318 -0.0035999902 0.16777492
-0.028742438 0.032631926 0.14636612
-0.027124841 0.030024434 0.14726657
-0.025993638 0.027642172 0.14847814
-0.024898939 0.025883354 0.15029764
-0.024163956 0.023563683 0.15260398
-0.024725752 0.02011396 0.15444146
-0.025662938 0.01597945 0.15891835
-0.028927807 0.011642495 0.16090171
-0.029585009 0.0083445497 0.1622673
-0.027847301 0.0043454356 0.16363654
-0.027086072 0.00083143823 0.16577205
-0.03140476 -0.00084781373 0.16719228
-0.033847511 -0.0044959905 0.16906539
-0.029104194 -0.0083371513 0.17026822
-0.025679713 0.032941781 0.14588352
-0.023434121 0.030616179 0.14704314
-0.022993539 0.028455297 0.14816035
-0.022696961 0.026474439 0.15011942
-0.021814022 0.023890225 0.15236075
-0.022294212 0.020213578 0.15514012
-0.023269083 0.016175864 0.15808195
-0.024561241 0.012348707 0.15979667
-0.025549412 0.0093846386 0.1607594
-0.025049439 0.0043203109 0.16353673
-0.023966881 -0.00045004571 0.16858909
-0.025911527 -0.003848498 0.16817255
-0.026601592 -0.0067248726 0.17012021
-0.025851568 -0.0076390877 0.17158122
-0.02581604 -0.0096963001 0.1725655
-0.019972097 0.033410758 0.14695063
-0.020321578 0.031319797 0.14781177
-0.020385137 0.029341072 0.14840393
-0.020311059 0.027201487 0.15089442
-0.019868189 0.0241485 0.15208143
-0.019909285 0.021555524 0.15491445
-0.02115362 0.016735474 0.15789694
-0.020925587 0.013371612 0.15921564
-0.021603685 0.010598985 0.16109106
-0.021436401 0.0025138333 0.16749151
-0.022197857 -0.0011194397 0.16928712
-0.023480099 -0.003479403 0.16985497
-0.024197029 -0.0054296916 0.17073564
-0.023959618 -0.0067878664 0.17176725
-0.024052972 -0.0088925697 0.17360133
-0.016473811 0.033856068 0.14806904
-0.017314125 0.031626936 0.14850588
-0.017452981 0.029734923 0.14888686
-0.017542833 0.026521945 0.15202697
-0.01753331 0.0239428 0.153018
-0.017960476 0.021694405 0.15514088
-0.018577466 0.01722097 0.15828714
-0.018694825 0.01413535 0.15977937
-0.019218499 0.010988406 0.16215785
-0.019537378 0.0026033446 0.16938233
-0.020377124 -0.00033762911 0.17151636
-0.021236371 -0.002639798 0.17241739
-0.022014538 -0.004676431 0.17146885
-0.021783153 -0.0060356995 0.17301543
-0.020686219 -0.0087514753 0.17360923
-0.013410581 0.033302117 0.14890552
-0.013839176 0.031354416 0.14909713
-0.014370671 0.028726041 0.15114796
-0.014640694 0.026109038 0.15270874
-0.015255179 0.024024071 0.15372907
-0.015662128 0.021854721 0.15503325
-0.015881766 0.0193133 0.15875843
-0.016511582 0.014758464 0.16033112
-0.016982395 0.010811892 0.16373368
-0.018043533 0.0039931848 0.1699235
-0.020004785 -0.00062603992 0.17217784
-0.020330265 -0.0024495509 0.17256674
-0.020352412 -0.0036518411 0.17270274
-0.02022698 -0.0058581615 0.17280033
-0.01846231 -0.0075612813 0.1722862
-0.01115505 0.033157445 0.14905769
-0.011336027 0.030731749 0.14989755
-0.011756542 0.028230984 0.15164715
-0.012458822 0.025685061 0.15307242
-0.012175142 0.024013685 0.15409254
-0.012087446 0.02222649 0.15601426
-0.010742805 0.019544166 0.15928663
-0.012854502 0.016476963 0.16051781
-0.01336347 0.012010703 0.16476616
-0.01356645 0.0078694457 0.16878919
-0.018632915 0.0001554952 0.17203398
-0.018915331 -0.0016309875 0.17273276
-0.019125938 -0.0036019406 0.17241201
-0.018699173 -0.0047498341 0.17219642
-0.016525324 -0.0069009834 0.17225571
-0.0084725814 0.033151399 0.14968155
-0.0096591311 0.030235782 0.15103483
-0.0097376117 0.027975788 0.15229377
-0.0092685567 0.026283767 0.15288848
-0.0089454306 0.024291527 0.15365812
-0.0082202442 0.022479892 0.15764463
-0.0083633205 0.019533651 0.16066298
-0.0086702174 0.01649997 0.16224638
-0.0089440076 0.013521528 0.16544776
-0.0085666114 0.010305191 0.17001592
-0.016540134 0.00060573837 0.17319618
-0.017490877 -0.0014465335 0.17367369
-0.017829945 -0.0024977054 0.17390735
-0.016786955 -0.0038936632 0.17326277
-0.01519715 -0.0062286784 0.17349516
-0.0053857611 0.033186786 0.14972207
-0.0077658147 0.029051648 0.15250561
-0.0078003071 0.028087409 0.1526082
-0.0069118445 0.026462905 0.15347604
-0.0066373176 0.024251334 0.15564877
-0.0052367374 0.021966442 0.16068034
-0.0059279702 0.019868586 0.16164748
-0.0065670032 0.016613593 0.16336411
-0.0063114357 0.013486556 0.16711599
-0.0064542848 0.0099555776 0.1703887
-0.0079863295 0.0059046326 0.17390876
-0.013836205 1.0557726e-05 0.17470025
-0.015121885 -0.0020746435 0.174005
-0.015329589 -0.0037359861 0.1737885
-0.010402424 -0.0075847623 0.17539255
-0.0031350991 0.032670569 0.14978783
-0.0046889945 0.029372452 0.1522546
-0.0038984357 0.028223325 0.15284061
-0.0041893134 0.026334319 0.15376045
-0.0040611005 0.024467742 0.15661737
-0.0031495064 0.021680973 0.16149011
-0.0035079047 0.01965596 0.16238175
-0.0036101295 0.016674271 0.16460204
-0.0036763693 0.013864169 0.16765858
-0.0037225094 0.0090648634 0.17215759
-0.0039947694 0.00691341 0.17413846
-0.0031335896 0.003939725 0.17638417
-0.0035824559 0.0011280588 0.17672195
-0.0032848986 -0.001264843 0.17798021
-0.003119807 -0.0071837716 0.17898364
-0.0005326402 0.030794892 0.15119828
0.0011919349 0.028868057 0.15267126
-0.00063441653 0.02779768 0.15502703
0.0016939974 0.02660327 0.15657799
0.0016758436 0.023509437 0.15816842
0.0004463894 0.021636976 0.16137114
-0.00037308369 0.019564902 0.16361833
-0.0009913079 0.016737647 0.1652904
-0.0013967423 0.01408105 0.1676057
-0.00082526286 0.0090113692 0.17260458
-0.00040236145 0.0066235373 0.17486095
-0.00022117853 0.0039012833 0.17643596
-2.7597707e-06 0.0016839314 0.17755833
0.00058731134 -0.0014672213 0.17924252
0.0001838469 -0.0056970892 0.17976415
0.0028607091 0.032645438 0.15036124
0.0035854671 0.030797862 0.1522496
0.0042391955 0.028521333 0.15473422
0.005129064 0.025868014 0.15686512
0.0047319303 0.024048474 0.15781924
0.0035462689 0.021300102 0.15909806
0.002861842 0.019818278 0.16156472
0.001386664 0.016736308 0.16567908
0.00068122079 0.013983581 0.16759486
0.003133425 0.0095354309 0.17145175
0.0035043717 0.0071268976 0.17288323
0.0027183176 0.0042408654 0.17542283
0.0031203204 0.0016170194 0.17742172
0.0029914726 -0.0012565563 0.17897026
0.0032969022 -0.0047614216 0.17976809
0.0056829825 0.034167487 0.15001476
0.0058001294 0.032339174 0.15180799
0.0063692005 0.030360004 0.15368554
0.0071421289 0.025808576 0.15672672
0.0065825586 0.02421847 0.1579475
0.0061089462 0.021566126 0.15931998
0.0055727763 0.019245882 0.16159038
0.0042760302 0.017594205 0.16439651
0.0065185647 0.012097741 0.16994047
0.0060034208 0.0095122661 0.17124471
0.0054805698 0.0072034597 0.17276488
0.005814557 0.0045778817 0.17508055
0.0058263578 0.0023885339 0.17708807
0.0057556974 -0.0018586763 0.17920375
0.0064594741 -0.004421663 0.18060625
0.008105916 0.034962725 0.15003918
0.0082695428 0.033255953 0.15182939
0.0086097103 0.03152319 0.15287828
0.0086955177 0.026500141 0.15797095
0.0080231829 0.024202138 0.15900408
0.0072518336 0.021050533 0.1595906
0.0071951388 0.019147627 0.1616592
0.0089396555 0.013341732 0.16856971
0.0081586931 0.011176751 0.16988222
0.0083346376 0.008843841 0.17097783
0.0084445104 0.0072937235 0.1729036
0.0080576492 0.00532276 0.17489843
0.0076610437 0.0027578508 0.17762272
0.0097778952 -0.0022905811 0.17887861
0.009311242 -0.004455376 0.1804211
0.010527763 0.035113443 0.15055522
0.010760271 0.033486865 0.15154062
0.010805651 0.03086034 0.15448542
0.009916625 0.026981657 0.15849461
0.0092268288 0.024162924 0.15898339
0.0092825545 0.020744178 0.15979752
0.0089268945 0.018202949 0.16289629
0.010802872 0.012996373 0.16759011
0.010324975 0.010813187 0.16923419
0.010869222 0.0088683143 0.17042755
0.011447581 0.0071956115 0.17295595
0.0097493688 0.0056182803 0.17456774
0.010169874 0.0026582584 0.177568
0.013375307 -0.0028123732 0.17635101
0.013331555 0.035475604 0.1504619
0.014155977 0.033460423 0.15155552
0.012965265 0.028961429 0.15846397
0.014026535 0.026263988 0.16010949
0.011935796 0.024260618 0.15970644
0.012139429 0.019696124 0.16140549
0.01213305 0.014568134 0.16614573
0.013373177 0.012719259 0.16651829
0.01301401 0.010597246 0.16878448
0.012340937 0.0091159493 0.1701771
0.013730489 0.007624011 0.17268841
0.011087023 0.0059733628 0.17435543
0.012046805 0.0026007455 0.17673364
0.014170436 -0.0022619781 0.17436101
0.017047068 0.035377402 0.15048118
0.018567365 0.033682968 0.15485273
0.01683466 0.02910234 0.15805502
0.01548792 0.023731926 0.16097674
0 0 0 1 0 0 0 1 0 0 0 1 0 0 0 0 0 239 1 0 0
