ply
format ascii 1.0
comment PCL generated
element vertex 239
property float x
property float y
property float z
element camera 1
property float view_px
property float view_py
property float view_pz
property float x_axisx
property float x_axisy
property float x_axisz
property float y_axisx
property float y_axisy
property float y_axisz
property float z_axisx
property float z_axisy
property float z_axisz
property float focal
property float scalex
property float scaley
property float centerx
property float centery
property int viewportx
property int viewporty
property float k1
property float k2
end_header
-0.030576006 0.032342512 0.14694521
-0.029585253 0.03001802 0.14717877
-0.028525846 0.028038342 0.14933783
-0.027415343 0.026229009 0.15156406
-0.026422869 0.023907518 0.1536164
-0.027457016 0.021376751 0.1574634
-0.033095144 0.013594572 0.16178565
-0.033596985 0.011193886 0.16322684
-0.033029169 0.0081962449 0.16408688
-0.032448843 0.0054687168 0.16469961
-0.033813667 0.0030776532 0.16672657
-0.035626102 -0.0002130741 0.16888717
-0.036701132 -0.0030938166 0.16896772
-0.028614936 0.032680009 0.14613336
-0.027057314 0.030034417 0.14706366
-0.025974328 0.027647637 0.14829543
-0.024897691 0.025898365 0.15012479
-0.024218947 0.023785084 0.15261859
-0.024949443 0.02079875 0.15502053
-0.025871763 0.016724156 0.15956941
-0.029114425 0.012143316 0.16162948
-0.029790437 0.008740061 0.16279377
-0.028473118 0.0046834787 0.1641615
-0.027650828 0.0011071499 0.16618581
-0.031542003 -0.00069097854 0.16783388
-0.033779979 -0.0040469975 0.17001751
-0.029109571 -0.0080410475 0.1713383
-0.025576748 0.032914888 0.14569969
-0.023365233 0.030596754 0.14695375
-0.022935515 0.028363595 0.1479169
-0.022665344 0.026303636 0.14978905
-0.021872479 0.023787741 0.15202311
-0.022466708 0.020695921 0.15548925
-0.023539413 0.016763963 0.15856713
-0.024821553 0.012823369 0.16038936
-0.025810441 0.0098604271 0.1613557
-0.025885291 0.0048826486 0.16406518
-0.024119144 -0.00041194327 0.16809051
-0.026209367 -0.0038839781 0.16805148
-0.026636509 -0.0066391286 0.17045116
-0.025628624 -0.0074404906 0.17184062
-0.025467046 -0.0093398299 0.17313433
-0.019984294 0.03341084 0.14732093
-0.020297309 0.031256694 0.14794315
-0.020336781 0.029241996 0.14829716
-0.020235671 0.026896561 0.15044178
-0.019896561 0.023878183 0.15151314
-0.019935044 0.021697683 0.1547496
-0.021403437 0.017206281 0.15822968
-0.02121067 0.013725058 0.15949321
-0.021837365 0.01107517 0.16146225
-0.021930778 0.0027193041 0.16640739
-0.02222885 -0.0013532789 0.16777146
-0.023485074 -0.0036893471 0.16899565
-0.02409788 -0.0054635755 0.17036456
-0.023710841 -0.0066937362 0.17155915
-0.023542946 -0.0084576989 0.17375022
-0.016491719 0.033744443 0.14841148
-0.017321106 0.031494986 0.14870475
-0.017441159 0.029582947 0.14889294
-0.017404333 0.026135586 0.15111704
-0.017500417 0.023673644 0.15236138
-0.01795787 0.021812309 0.15486076
-0.01877689 0.017621422 0.15852629
-0.018935557 0.014497187 0.15989961
-0.019367969 0.011411862 0.16219357
-0.020077076 0.0023725398 0.16720226
-0.020242022 -0.00039660919 0.16966134
-0.020818828 -0.0026308827 0.17085734
-0.021790536 -0.0047922144 0.17057817
-0.021336643 -0.0058370777 0.17230906
-0.020198744 -0.0084574046 0.17319636
-0.013355997 0.033156045 0.14903927
-0.013832957 0.031201089 0.14920665
-0.014185366 0.028371651 0.15063395
-0.014505318 0.025738051 0.15193833
-0.015201822 0.023794234 0.15310076
-0.015694356 0.02190773 0.15475149
-0.015948445 0.019660093 0.15885141
-0.01670949 0.015115616 0.16035107
-0.016997105 0.011071808 0.16341417
-0.018613338 0.0038081864 0.16732305
-0.019742437 -0.00064252637 0.17021202
-0.019909589 -0.0024360246 0.17082831
-0.019951191 -0.0036214124 0.17128237
-0.019829821 -0.0057671741 0.17183641
-0.018083988 -0.0075322133 0.17140487
-0.011084451 0.032934248 0.14903082
-0.011266719 0.030543687 0.14989913
-0.011570703 0.027976448 0.15132514
-0.012317344 0.025478346 0.15272838
-0.012112283 0.023925861 0.15382771
-0.012099406 0.02230919 0.15575741
-0.010311643 0.019298945 0.15799029
-0.012666819 0.016435126 0.1596829
-0.013278444 0.012060642 0.16408202
-0.013533974 0.0077672172 0.16743736
-0.018555189 7.9758858e-05 0.16951676
-0.018569918 -0.0016515474 0.17034459
-0.018814264 -0.0037145629 0.17074546
-0.018427962 -0.0048711845 0.17079605
-0.016199607 -0.0068800538 0.17089678
-0.0083578387 0.032792486 0.14942607
-0.0095184371 0.030006209 0.1508625
-0.0095728887 0.027778778 0.15204847
-0.0091102058 0.026212374 0.15279151
-0.0087913433 0.024306992 0.15363322
-0.007992628 0.022469483 0.15701112
-0.0079442784 0.019154545 0.1591409
-0.0083681298 0.016187973 0.1609287
-0.0089514162 0.013519955 0.16486329
-0.0086459061 0.010389689 0.16975456
-0.016394679 0.00072937331 0.17020155
-0.017019678 -0.0013372637 0.17075746
-0.017242497 -0.0022631232 0.17119996
-0.016384024 -0.0037736001 0.17103034
-0.014705474 -0.0059434487 0.17169303
-0.0052363328 0.032779295 0.14953004
-0.0075949407 0.028847575 0.15226144
-0.0076440093 0.027984658 0.15248938
-0.0067642294 0.026511794 0.15353039
-0.0065078293 0.024313472 0.15560317
-0.005057977 0.021764444 0.15975498
-0.0057254196 0.019613439 0.16051669
-0.0064751208 0.016428063 0.16240256
-0.0063628755 0.013491745 0.16666037
-0.0064951126 0.010058067 0.17033839
-0.0077891992 0.0056347405 0.17316341
-0.013493347 0.00047513525 0.17145346
-0.014736722 -0.001689448 0.17110024
-0.014865318 -0.0033787449 0.17111459
-0.0098376814 -0.0070536481 0.17364767
-0.0029875694 0.03230007 0.14972176
-0.0045240796 0.02929374 0.15223046
-0.0037357216 0.028355021 0.15308999
-0.0040284218 0.026474742 0.153961
-0.0039129872 0.024502356 0.15657033
-0.0030648748 0.021507848 0.16083543
-0.0034509955 0.019505946 0.16172202
-0.0035739343 0.016507769 0.16402121
-0.0038031803 0.013791743 0.16734438
-0.003698074 0.0091765802 0.17228942
-0.003899361 0.0068282885 0.17397946
-0.0029805235 0.0037976049 0.17602022
-0.0033498383 0.00095124001 0.17612894
-0.0030600494 -0.0012754523 0.17741698
-0.0031986129 -0.0069802254 0.17888801
-0.00054429576 0.030742891 0.15147611
0.0011591552 0.028843151 0.15294881
-0.00052117422 0.027705921 0.15521939
0.0018105863 0.026223239 0.15626411
0.0018123372 0.023462817 0.1583546
0.00045361251 0.021671724 0.16132976
-0.0004421515 0.019538516 0.16338366
-0.0010238929 0.01670021 0.16498153
-0.0015355505 0.014073847 0.16740933
-0.00074276887 0.0091420878 0.17286651
-0.00028419218 0.0067608319 0.17518176
-0.00010196455 0.003974386 0.17657362
0.00014083154 0.0017438905 0.17757203
0.00062909262 -0.0013874212 0.17934626
0.00022809746 -0.0055973786 0.17982943
0.0027455182 0.032647487 0.15065151
0.0035285016 0.030782267 0.15248662
0.0042769574 0.028418979 0.15482736
0.0052178437 0.025736222 0.15688628
0.0048245392 0.024098655 0.15813981
0.0037425854 0.021636361 0.15970892
0.0029039516 0.020077916 0.16196407
0.0012646848 0.016867036 0.16568838
0.00053164933 0.01411741 0.16757004
0.003409446 0.0093953228 0.17161241
0.0037887471 0.0071777748 0.17330766
0.0029414373 0.0044469177 0.17591214
0.0032672973 0.0017557846 0.17780587
0.0030454949 -0.0011175002 0.17932549
0.0033661893 -0.0046107699 0.18015008
0.0055780369 0.034061834 0.15013625
0.0057371152 0.03228702 0.15196939
0.0063618086 0.030297074 0.15380228
0.0072205034 0.025708996 0.15687551
0.0066246004 0.024352696 0.15833604
0.0061839838 0.022009021 0.16021073
0.0055838395 0.019687679 0.16236255
0.0041423077 0.017909033 0.16491048
0.0067200633 0.012090868 0.1703964
0.0062823193 0.0094777588 0.17165875
0.0057825753 0.0072827735 0.17331904
0.006056902 0.0047757765 0.17578654
0.0059905578 0.0025498015 0.17772414
0.0057721217 -0.0015970604 0.17993408
0.0063975025 -0.0041337973 0.1814234
0.0080408985 0.034658145 0.14990209
0.0082333013 0.033065058 0.15178998
0.0085705072 0.0313931 0.15290681
0.0087267393 0.026562175 0.15800227
0.0079935919 0.024517892 0.15944995
0.007297623 0.021661961 0.16074854
0.0071079559 0.019804627 0.16277207
0.0091591645 0.013530229 0.16939926
0.0084270397 0.011322589 0.17061283
0.0086825732 0.0090265665 0.17181151
0.0087184003 0.0075926911 0.17384201
0.0082898373 0.0056096609 0.17583221
0.0077243778 0.002995661 0.17848594
0.0099214455 -0.0017275644 0.1803243
0.0093200766 -0.0039431537 0.18175872
0.010526929 0.034543224 0.15009326
0.010756735 0.033003699 0.15118203
0.01082935 0.030583926 0.15424173
0.0099461889 0.027090698 0.15843533
0.0091912402 0.024483537 0.1595
0.0092204129 0.021726763 0.1614954
0.0085771885 0.019263703 0.16451076
0.011071114 0.013434188 0.16897438
0.010656353 0.01111658 0.17035373
0.011287891 0.0091061471 0.17155576
0.011750585 0.0075541437 0.1741946
0.009987277 0.0060382988 0.17576444
0.010187061 0.0031588667 0.17888065
0.013958331 -0.002000666 0.17845064
0.013393815 0.034427907 0.14953634
0.014182228 0.032389063 0.15072916
0.013025418 0.028914252 0.1580717
0.013957622 0.02661301 0.1603221
0.011845545 0.024690028 0.16029823
0.011811245 0.021225428 0.16381134
0.012171957 0.015520713 0.16825247
0.01363681 0.013874046 0.16896267
0.013285815 0.011357335 0.17071714
0.012684307 0.0095716352 0.17167844
0.013973181 0.008100546 0.17418419
0.011301841 0.0064895041 0.17574184
0.012153706 0.0033456536 0.17848462
0.015044475 -0.0014236477 0.176612
0.017150294 0.033767756 0.14914733
0.018806051 0.032552943 0.1535911
0.01689079 0.028826572 0.15782233
0.015241809 0.024530036 0.16213223
0 0 0 1 0 0 0 1 0 0 0 1 0 0 0 0 0 239 1 0 0
