ply
format ascii 1.0
comment PCL generated
element vertex 239
property float x
property float y
property float z
element camera 1
property float view_px
property float view_py
property float view_pz
property float x_axisx
property float x_axisy
property float x_axisz
property float y_axisx
property float y_axisy
property float y_axisz
property float z_axisx
property float z_axisy
property float z_axisz
property float focal
property float scalex
property float scaley
property float centerx
property float centery
property int viewportx
property int viewporty
property float k1
property float k2
end_header
-0.030770378 0.032157034 0.14678782
-0.02974006 0.02984249 0.14697611
-0.028632017 0.027759222 0.1490306
-0.027495824 0.025813902 0.15112036
-0.02644727 0.02333102 0.1529161
-0.027471827 0.020746345 0.15672471
-0.03301039 0.013613372 0.16219173
-0.033515774 0.011274492 0.16374642
-0.032955546 0.008334564 0.16475135
-0.032346673 0.0056393389 0.16544257
-0.033787813 0.0030514481 0.16707866
-0.035701044 -0.00055920909 0.16864976
-0.036647972 -0.0035475313 0.16830018
-0.028825253 0.032541972 0.14595686
-0.02721858 0.029931366 0.14687993
-0.026069431 0.027553504 0.14807604
-0.024941856 0.025742391 0.14980465
-0.024207728 0.023372266 0.1519696
-0.024855839 0.020295609 0.15435812
-0.025723917 0.016408145 0.15919526
-0.029027661 0.0122141 0.16216917
-0.029723302 0.0089209192 0.16365661
-0.028319744 0.0048336801 0.16516508
-0.02757562 0.0011192876 0.16720288
-0.031488873 -0.00065249327 0.16841453
-0.033819668 -0.0044456474 0.16963179
-0.029305415 -0.0077037523 0.17274639
-0.025791699 0.032809038 0.14545137
-0.023538932 0.030503666 0.1466725
-0.023085775 0.028306048 0.14768358
-0.022746999 0.0262491 0.14953738
-0.021846391 0.023562735 0.1514813
-0.022388367 0.020323945 0.15490767
-0.023386478 0.016436074 0.15811059
-0.024680687 0.012790453 0.16065373
-0.025704106 0.0099495715 0.16206598
-0.025745871 0.0048604454 0.16497548
-0.024116134 -0.00037816312 0.16905178
-0.026600452 -0.0034537527 0.16955152
-0.026910057 -0.00625965 0.1717418
-0.025783099 -0.0072216932 0.17283911
-0.025587155 -0.0092556467 0.17381102
-0.020068685 0.033208795 0.14660928
-0.020392457 0.0311071 0.14739046
-0.020451099 0.029121382 0.14786503
-0.020298975 0.026844483 0.15008077
-0.019870058 0.023784755 0.15106995
-0.019906256 0.021529902 0.15425308
-0.021249874 0.016944546 0.15773831
-0.021067597 0.013549652 0.1593444
-0.021709409 0.011097041 0.1615916
-0.021946523 0.0027211427 0.16710266
-0.02241726 -0.0012216272 0.16859803
-0.023790631 -0.0033314161 0.17009547
-0.024359381 -0.0051268619 0.17146039
-0.023894366 -0.0064882445 0.1723789
-0.023595743 -0.0085213035 0.1742536
-0.016575539 0.033639506 0.14765041
-0.017389117 0.031392477 0.1480806
-0.017505087 0.02948609 0.14838482
-0.017474106 0.026144736 0.15074968
-0.017498922 0.023679415 0.15200445
-0.017934876 0.021770447 0.15450107
-0.018615145 0.01746301 0.1579928
-0.018772386 0.014339585 0.15951902
-0.019267451 0.011420439 0.1620529
-0.020180697 0.0024720354 0.16793078
-0.020317549 -0.0002944266 0.17037636
-0.020883121 -0.0025216998 0.17159724
-0.021983443 -0.004581654 0.17131549
-0.021431103 -0.0057871141 0.17291179
-0.02034449 -0.0085414723 0.17345104
-0.013450232 0.033207178 0.1485254
-0.013864022 0.031231731 0.14865237
-0.01428865 0.028469324 0.15033498
-0.014563144 0.02579236 0.15156087
-0.015204461 0.023820801 0.15276974
-0.01564558 0.021865219 0.15445305
-0.015901221 0.019654362 0.15848987
-0.016565438 0.014997127 0.1598859
-0.016938033 0.011104858 0.16317888
-0.018659709 0.0038574105 0.16786516
-0.019803058 -0.00055851816 0.17089792
-0.019998919 -0.0023443352 0.17151916
-0.020083856 -0.0035076453 0.1719645
-0.019978533 -0.0056917346 0.17236707
-0.0183009 -0.0074783294 0.17186698
-0.011178798 0.033155955 0.14884861
-0.011316576 0.030701231 0.14953676
-0.01167087 0.028054982 0.15093078
-0.012369841 0.025445906 0.1521869
-0.012114046 0.02382018 0.15331332
-0.01206435 0.022246169 0.15549816
-0.01046373 0.019405833 0.15800995
-0.012720041 0.016548434 0.15959491
-0.01326257 0.012101425 0.16375384
-0.013521626 0.0078143636 0.16724166
-0.01863363 0.0001168979 0.17014258
-0.018696224 -0.0016108634 0.17096446
-0.018975614 -0.0036021331 0.17135608
-0.018602882 -0.0047672302 0.17134508
-0.01640908 -0.0068459334 0.171451
-0.0085256398 0.033157788 0.14965269
-0.0096719833 0.030177077 0.15070763
-0.0096987383 0.027841384 0.15170464
-0.0092420829 0.026203206 0.15234581
-0.0089467214 0.024233891 0.15309826
-0.0081435973 0.022354767 0.15666512
-0.0080596274 0.019110275 0.15885265
-0.0084641557 0.016143607 0.16055863
-0.0088623399 0.013536782 0.16434371
-0.0083383759 0.010503832 0.16886716
-0.016459337 0.00058712187 0.17063978
-0.017147014 -0.0013734543 0.17137337
-0.017406929 -0.0022469691 0.17188059
-0.016563559 -0.0037270912 0.17178828
-0.014915186 -0.0059552467 0.17230858
-0.005413943 0.033050641 0.1497409
-0.0078002312 0.028942803 0.15213661
-0.0078087994 0.028014714 0.15220048
-0.0069215666 0.026420994 0.15306665
-0.0066518341 0.024146941 0.15507673
-0.0050033187 0.021524033 0.15914917
-0.0056569315 0.019345479 0.15982889
-0.0063989148 0.016219635 0.16175552
-0.0061871991 0.013437595 0.16597708
-0.0061495099 0.010071226 0.16916007
-0.0073743849 0.0054903575 0.17075555
-0.013601285 0.00032657813 0.17182015
-0.014916509 -0.0017974777 0.17176589
-0.015082754 -0.003422122 0.17198823
-0.010071824 -0.0071825301 0.17407703
-0.0031725971 0.032490391 0.14976582
-0.0047467048 0.029340936 0.15210974
-0.0039159912 0.028253654 0.15261997
-0.0041989787 0.026329964 0.15340421
-0.0040326407 0.024314582 0.15598117
-0.0029242833 0.02099013 0.1598172
-0.0032816648 0.018898945 0.16047926
-0.0034118278 0.016149241 0.16303058
-0.003594747 0.013664062 0.16653147
-0.0033172078 0.0089341654 0.17071545
-0.0035755902 0.0065269358 0.17190814
-0.0027406951 0.0033862568 0.17392622
-0.0032470166 0.00072931475 0.1744756
-0.0030957398 -0.0013411181 0.17623471
-0.0031187471 -0.0070936889 0.17822984
-0.00063787994 0.030243821 0.1505872
0.0011335987 0.028320303 0.15191856
-0.00057739695 0.02749325 0.15443943
0.0019754102 0.025900768 0.15519585
0.0019767503 0.02297836 0.1570738
0.00057975092 0.020862458 0.15992887
-0.00022282741 0.018653397 0.1617741
-0.00079638808 0.016154686 0.16368033
-0.0013051332 0.013811934 0.1664032
-0.00036151148 0.0086617982 0.1712354
-1.0682498e-05 0.0061659766 0.17327027
0.00013405511 0.0034590827 0.17467602
0.00025975608 0.0013890441 0.17598252
0.00060816528 -0.0015711435 0.17825276
0.00027102028 -0.0057757199 0.17899477
0.0026678233 0.03194214 0.14920057
0.0035128158 0.030191913 0.15113576
0.0043267021 0.028092757 0.15373974
0.0053971908 0.025532074 0.15607993
0.0049940399 0.023771288 0.1571316
0.0039366726 0.021083441 0.15853116
0.0030486833 0.01939355 0.16070621
0.0015434404 0.016191773 0.16418047
0.00078539061 0.013716203 0.16637915
0.0038832638 0.0089029633 0.17044751
0.0041978196 0.0066353022 0.17207463
0.0032235458 0.0038939463 0.17444219
0.0033465512 0.0013549362 0.176544
0.0030298384 -0.0013192515 0.17841268
0.0033421316 -0.0047231619 0.17955582
0.0055009769 0.033245094 0.14838453
0.0057248422 0.031622861 0.15036003
0.0063964003 0.029788513 0.15236413
0.0073744282 0.025744781 0.1564309
0.0067471527 0.024180921 0.15764755
0.0062921257 0.021661004 0.15932822
0.005667699 0.019177299 0.16135861
0.0042737266 0.017197613 0.16354842
0.0071760542 0.011789541 0.16969898
0.0067127873 0.0091257403 0.1708671
0.0062325629 0.0068805367 0.17247149
0.0063060536 0.0043949792 0.17493668
0.0060281525 0.0023089843 0.17700167
0.0056619081 -0.0016244899 0.17947127
0.0061489237 -0.0040087593 0.18124878
0.0079554468 0.03373114 0.14794262
0.0082247891 0.032306284 0.1499476
0.0085797869 0.030714845 0.1511972
0.0086205173 0.026632398 0.157857
0.0079090986 0.024390193 0.15900624
0.0073382948 0.021349343 0.15994556
0.0071722758 0.01935338 0.16182953
0.0096245361 0.013166472 0.16865921
0.0088543771 0.010981599 0.16988675
0.0091112107 0.0086297076 0.17105648
0.0091137458 0.0072256606 0.17318162
0.0085107852 0.00529759 0.17524876
0.0076417536 0.002912329 0.17805372
0.0097073345 -0.0011769797 0.1809857
0.0089742737 -0.0034089559 0.1823485
0.010428299 0.033606075 0.1480515
0.01068446 0.032180034 0.14928071
0.010784846 0.030219309 0.15305929
0.0097496239 0.027194628 0.15847453
0.0091282148 0.024427954 0.15916453
0.0092517035 0.021321546 0.16064648
0.0086363992 0.018651325 0.16347697
0.011525747 0.012816655 0.16791072
0.011077374 0.010626998 0.16947335
0.011806273 0.0086424816 0.17092568
0.01210908 0.0074193268 0.17390046
0.010186294 0.0058416314 0.1754304
0.0099848341 0.0033543806 0.17890424
0.014081243 -0.0010720986 0.18023582
0.013257934 0.033588842 0.14758098
0.014104301 0.031820949 0.14908995
0.012830372 0.029129876 0.1583304
0.014034268 0.026384234 0.15985771
0.011771877 0.02459834 0.16005048
0.011953418 0.020470928 0.1626987
0.012628812 0.01460005 0.16674843
0.014101361 0.012780937 0.1672198
0.01376842 0.010594561 0.16946445
0.013174629 0.0090528969 0.17088571
0.014336322 0.0080158273 0.17387761
0.011472267 0.0064320914 0.17557485
0.011955923 0.0037694515 0.17893378
0.015498264 -0.00059997302 0.17858765
0.01704007 0.033232372 0.14748041
0.018670309 0.032806374 0.1523886
0.016952619 0.028866969 0.15730856
0.015500631 0.023992941 0.16106766
0 0 0 1 0 0 0 1 0 0 0 1 0 0 0 0 0 239 1 0 0
