ply
format ascii 1.0
comment PCL generated
element vertex 239
property float x
property float y
property float z
element camera 1
property float view_px
property float view_py
property float view_pz
property float x_axisx
property float x_axisy
property float x_axisz
property float y_axisx
property float y_axisy
property float y_axisz
property float z_axisx
property float z_axisy
property float z_axisz
property float focal
property float scalex
property float scaley
property float centerx
property float centery
property int viewportx
property int viewporty
property float k1
property float k2
end_header
-0.030886203 0.032024499 0.14692844
-0.029770946 0.029738214 0.14709024
-0.028649546 0.027670516 0.14910744
-0.027526312 0.025771413 0.15123433
-0.026445508 0.023504972 0.15318826
-0.027529173 0.020783501 0.15675065
-0.033046067 0.012989546 0.16056903
-0.033555798 0.010489573 0.16179286
-0.032920126 0.0075104358 0.16250378
-0.032208987 0.0048463815 0.16292173
-0.033566378 0.0021397225 0.16426033
-0.035300694 -0.0016783122 0.16539763
-0.035919622 -0.0046894574 0.16481365
-0.028926229 0.032488845 0.14618386
-0.027243679 0.029891774 0.14706936
-0.026042415 0.027516907 0.14821647
-0.024935385 0.025739575 0.14999309
-0.024239428 0.02360487 0.15240826
-0.024796318 0.020528896 0.15457913
-0.025744848 0.016366927 0.1588939
-0.028996293 0.011728101 0.16071562
-0.029634565 0.0082849972 0.16173024
-0.02814921 0.0043647131 0.1628225
-0.02717316 0.00073509297 0.16447215
-0.031045407 -0.0015148332 0.165281
-0.033198617 -0.0054090391 0.16643131
-0.029063102 -0.0079666274 0.16988435
-0.025884872 0.032854289 0.14580531
-0.023581602 0.030548578 0.14701776
-0.023080548 0.028331179 0.14795664
-0.022745913 0.026250813 0.14976931
-0.021898195 0.023752874 0.15188715
-0.022368785 0.020628292 0.15526004
-0.023371357 0.016621433 0.1581699
-0.02460793 0.012594866 0.15972523
-0.02557659 0.0095801549 0.1606053
-0.025604881 0.0047162799 0.16296713
-0.023682805 -0.00056626037 0.16662221
-0.025793737 -0.0040335124 0.16662829
-0.026524222 -0.0065799784 0.16921191
-0.025630234 -0.0073642437 0.17070337
-0.025562642 -0.0092788721 0.17200391
-0.020239944 0.033448052 0.14729473
-0.020518778 0.031283412 0.14795384
-0.020513318 0.029254274 0.14832495
-0.020353105 0.026920978 0.15046272
-0.01990737 0.023988031 0.15148708
-0.019968791 0.021769915 0.15468229
-0.021281578 0.017207183 0.15798503
-0.021007763 0.013661545 0.15896581
-0.021639911 0.010914862 0.16066067
-0.021609502 0.002743094 0.16541657
-0.021499144 -0.0014012053 0.16639519
-0.023103002 -0.0037288184 0.16775261
-0.023973562 -0.0054109246 0.1693214
-0.023678249 -0.0066348519 0.17055777
-0.023650577 -0.0084461467 0.17273365
-0.016750524 0.033883896 0.14836825
-0.017548932 0.031624891 0.14870377
-0.017636564 0.029706698 0.1489373
-0.01758006 0.026448555 0.15140241
-0.017577808 0.02396078 0.1525514
-0.018075095 0.022012401 0.15493606
-0.018660564 0.01754361 0.15804774
-0.018779697 0.014391899 0.15921713
-0.019252008 0.011190323 0.16117707
-0.019749051 0.0024527076 0.16632362
-0.020011907 -0.00033242485 0.16868304
-0.020676732 -0.0026065838 0.16975626
-0.021661974 -0.0047623254 0.16971254
-0.02134937 -0.0057531511 0.17149238
-0.020286394 -0.0084451148 0.17244431
-0.013645249 0.033248182 0.14906085
-0.014087539 0.031365979 0.14928068
-0.014484215 0.028738059 0.15110821
-0.014742212 0.026188467 0.15243605
-0.015351709 0.024205141 0.15348306
-0.015797582 0.022196742 0.1549063
-0.015887016 0.019482575 0.15843378
-0.01656626 0.014873805 0.15942556
-0.016961422 0.010714303 0.16222925
-0.018393725 0.0038052946 0.16641666
-0.019584442 -0.00057952781 0.16928415
-0.019794129 -0.0023646259 0.16988854
-0.019917026 -0.0035398123 0.17052028
-0.019822929 -0.0056622149 0.17118528
-0.018096479 -0.0074776923 0.17094941
-0.011387151 0.03295901 0.14908057
-0.01161913 0.030662114 0.15014355
-0.011944908 0.028368402 0.1518549
-0.012610451 0.025783442 0.15315013
-0.012331584 0.024205295 0.15415506
-0.012213391 0.022476811 0.1559031
-0.01052525 0.019229289 0.15789637
-0.01266535 0.016117917 0.15901004
-0.013235101 0.011487174 0.16292135
-0.013605283 0.0072727222 0.1663744
-0.018418156 9.0640446e-05 0.16859552
-0.018506642 -0.0016605206 0.16939139
-0.018747915 -0.0036864458 0.17006117
-0.018367374 -0.0048190998 0.17025743
-0.016180655 -0.0068614967 0.17059389
-0.0086782658 0.032814816 0.14953035
-0.0098980684 0.030154217 0.15119417
-0.0099399704 0.028081775 0.15257461
-0.0094499672 0.026412746 0.15315217
-0.0091096163 0.024398291 0.15381375
-0.0083257416 0.022473268 0.15713125
-0.0081133498 0.01893246 0.15879367
-0.0082926666 0.015646758 0.16015981
-0.0087395823 0.012795695 0.16386138
-0.0086704036 0.010165433 0.1691757
-0.016204858 0.00065416953 0.1694701
-0.016909035 -0.0014128092 0.16983481
-0.017192435 -0.0022778842 0.17033789
-0.016359305 -0.0037342375 0.17063022
-0.014737536 -0.0059019867 0.17145889
-0.005623606 0.03267673 0.14959243
-0.0079730283 0.029013723 0.15264994
-0.0080153709 0.028158873 0.15288572
-0.0070974478 0.026581943 0.15375446
-0.0068319044 0.02431676 0.15572187
-0.0051699053 0.021537727 0.15945673
-0.005774233 0.019254802 0.15992925
-0.0063282396 0.015786853 0.16153763
-0.0062972312 0.012930073 0.16582817
-0.0065526403 0.0098905191 0.16990639
-0.0079900054 0.0060213115 0.1733855
-0.01333712 0.00032301867 0.17109756
-0.014610028 -0.0017536046 0.1705821
-0.014793101 -0.0033729954 0.17068373
-0.0099670067 -0.0070544104 0.17358838
-0.0033903925 0.032112289 0.14968088
-0.0049371696 0.029191034 0.15231894
-0.0040973718 0.028430942 0.1533266
-0.0043597105 0.026526116 0.15413831
-0.0042232811 0.024522638 0.15666588
-0.0030550223 0.02108464 0.16019778
-0.0033952391 0.018948875 0.16073118
-0.0034852589 0.015973365 0.16325273
-0.0038335659 0.013370506 0.16669734
-0.0037633742 0.0089715142 0.17185463
-0.0040565385 0.0068877996 0.17386228
-0.0031425511 0.0038636408 0.17586356
-0.0035591477 0.0010190541 0.17601062
-0.0032516553 -0.0012308781 0.17729458
-0.0034099987 -0.0069562187 0.17882884
-0.00083250296 0.030816717 0.15147226
0.00098084367 0.029158873 0.1529953
-0.00075260166 0.027927032 0.1554597
0.0018664742 0.026413472 0.15620118
0.0018963404 0.023265054 0.15771937
0.00048704052 0.020976923 0.1603695
-0.00038693735 0.018778704 0.1622256
-0.00098317908 0.016292315 0.16420123
-0.0015741584 0.013872944 0.16691612
-0.0008332525 0.0087146079 0.17215158
-0.00038482234 0.0066028722 0.17463998
-0.00023031635 0.0038279356 0.1760488
2.900126e-06 0.0016562399 0.17713802
0.00037819264 -0.0013818517 0.17915411
-8.0260019e-05 -0.0055623241 0.17980526
0.0024772508 0.032835789 0.15031482
0.0033539259 0.03103769 0.15221931
0.0042136665 0.028753527 0.15473938
0.0053226668 0.025815932 0.1568695
0.0049124667 0.024032932 0.15781264
0.0038865749 0.021133605 0.15888819
0.002968241 0.019461527 0.16111121
0.0013392232 0.016434764 0.16477455
0.000533032 0.01394438 0.16704878
0.0033162171 0.008719692 0.17055252
0.0036789102 0.006716561 0.17256291
0.002738554 0.0043814206 0.17556383
0.003017883 0.0017822975 0.17762531
0.0027278571 -0.0011019792 0.17923024
0.0029741456 -0.0045723626 0.18018329
0.0052955151 0.034109328 0.14941245
0.0055510327 0.032450031 0.15137741
0.00625929 0.030545443 0.15336269
0.007331444 0.025848702 0.15707392
0.0066868351 0.024351878 0.15833421
0.0062575713 0.02172634 0.15976459
0.0056102904 0.019180808 0.161708
0.0041448795 0.017337393 0.16402206
0.0066564674 0.011682201 0.16949376
0.0061879852 0.0090253288 0.17078343
0.0056759017 0.0069072931 0.17270538
0.0057686092 0.0047504264 0.17558499
0.0055838902 0.0028909335 0.17789324
0.0053607267 -0.0015930078 0.17995916
0.0059160097 -0.0041028503 0.18151969
0.007749497 0.034566861 0.14888652
0.0080496427 0.0330979 0.15087274
0.0084241061 0.031502716 0.1521101
0.0086813299 0.026663542 0.15835565
0.0078994241 0.024535764 0.15966669
0.0073004048 0.021437364 0.16041788
0.00713814 0.019305641 0.16213612
0.0090956679 0.013040728 0.16841201
0.0083273733 0.010805687 0.16971591
0.0085422499 0.0085296836 0.17100193
0.0085883811 0.0072280234 0.17329973
0.0080734408 0.0054837321 0.17553966
0.0073145544 0.0032875512 0.17853029
0.0094154617 -0.0018656347 0.18029672
0.0087618176 -0.0039894055 0.18183704
0.010228976 0.034323446 0.14883029
0.010498459 0.032863703 0.15001515
0.010719094 0.030652253 0.1536565
0.0098601459 0.027187064 0.15885611
0.0091551421 0.024561515 0.15976283
0.009212465 0.021398345 0.1611411
0.0086176498 0.01849285 0.16370845
0.011015979 0.012700418 0.16774912
0.010532579 0.010507229 0.16927721
0.011261221 0.0085260756 0.17084056
0.011637317 0.0073416219 0.1738307
0.0097715529 0.0058162538 0.17546648
0.0097931027 0.0032799626 0.17885053
0.013375583 -0.0024962272 0.17823704
0.013027774 0.033995118 0.14800856
0.013859981 0.03202733 0.1493172
0.013006533 0.028942185 0.15831107
0.014135287 0.026305307 0.15986399
0.011798353 0.024651432 0.16053967
0.011924577 0.020378269 0.16301017
0.012237905 0.014478326 0.16667746
0.013704943 0.01281838 0.16741042
0.013263763 0.010632277 0.16959035
0.012636985 0.0090201832 0.17089742
0.013841725 0.0079849716 0.17379381
0.011111132 0.0062660538 0.17542635
0.01179212 0.0032469744 0.17840429
0.014420229 -0.0020493011 0.17641051
0.01673742 0.033083864 0.14734896
0.018761907 0.032193258 0.1518598
0.0170414 0.02842465 0.15691397
0.015547623 0.023987371 0.16118675
0 0 0 1 0 0 0 1 0 0 0 1 0 0 0 0 0 239 1 0 0
