ply
format ascii 1.0
comment PCL generated
element vertex 239
property float x
property float y
property float z
element camera 1
property float view_px
property float view_py
property float view_pz
property float x_axisx
property float x_axisy
property float x_axisz
property float y_axisx
property float y_axisy
property float y_axisz
property float z_axisx
property float z_axisy
property float z_axisz
property float focal
property float scalex
property float scaley
property float centerx
property float centery
property int viewportx
property int viewporty
property float k1
property float k2
end_header
-0.031258605 0.0316943 0.14658648
-0.030167829 0.029489946 0.14733005
-0.029026657 0.027840896 0.14992882
-0.02791905 0.026273064 0.15250286
-0.026799249 0.02405685 0.15558793
-0.027425023 0.021679411 0.15996358
-0.033354167 0.014429173 0.16548017
-0.033850025 0.012143052 0.1671059
-0.033338934 0.0091953762 0.16802005
-0.032679673 0.006525273 0.1684164
-0.033979915 0.0038814263 0.16975138
-0.035834286 0.00046665483 0.17171028
-0.037022695 -0.0023819727 0.17181733
-0.029304722 0.031959739 0.1458054
-0.027642602 0.029576316 0.1474324
-0.026458599 0.027450323 0.14918128
-0.025412295 0.025950255 0.15132548
-0.024623115 0.023670711 0.15434144
-0.025149383 0.021095196 0.15721577
-0.025804443 0.017113077 0.16195442
-0.029537445 0.012766838 0.16508713
-0.030342443 0.0095127225 0.16681416
-0.028758382 0.005457731 0.16785771
-0.028211534 0.0015944648 0.16882528
-0.031562854 0.000201306 0.17048539
-0.033927057 -0.0033688564 0.17290206
-0.029383771 -0.0056681004 0.17495179
-0.026276994 0.032197732 0.1455915
-0.024011921 0.030169681 0.14764212
-0.023558825 0.028160617 0.14892261
-0.023307778 0.026420482 0.15111253
-0.022336861 0.023990571 0.15374531
-0.022706233 0.020916842 0.15737295
-0.023548421 0.017106164 0.16066213
-0.025228037 0.013354778 0.1634687
-0.026385576 0.010331189 0.16480795
-0.026545668 0.0053300303 0.16722329
-0.024316741 -0.00040556377 0.17008273
-0.026760524 -0.0025675271 0.17088471
-0.027074527 -0.0050257463 0.17337725
-0.026030852 -0.0062753763 0.17404842
-0.026109673 -0.0084444219 0.17471462
-0.020748381 0.032945555 0.14759958
-0.021000503 0.030917594 0.14851719
-0.021023771 0.028971197 0.14915821
-0.020960921 0.027045367 0.15167959
-0.020497954 0.024337174 0.15333299
-0.020283733 0.022171091 0.15658315
-0.021547761 0.017499214 0.16009077
-0.021525828 0.014150854 0.16220017
-0.022098411 0.011204572 0.16461897
-0.021954034 0.0025223682 0.16842583
-0.021864539 -0.0016343541 0.16907503
-0.02367512 -0.0031455872 0.1710484
-0.024467854 -0.0045809168 0.17241533
-0.024104804 -0.0060229739 0.17307241
-0.024014719 -0.0081565389 0.17478125
-0.017216559 0.033424463 0.14817373
-0.018063981 0.031248767 0.14895526
-0.018166434 0.029381225 0.14955224
-0.018058628 0.026500512 0.15241633
-0.018074896 0.024251241 0.15410092
-0.018390045 0.022762934 0.15675481
-0.018968809 0.018016091 0.16000614
-0.019230464 0.014818322 0.16238333
-0.019661663 0.011155484 0.16536114
-0.019535637 0.0020908094 0.16898461
-0.01992625 -0.00056516129 0.17106259
-0.020684747 -0.0026061281 0.17216568
-0.021910222 -0.004482253 0.17178209
-0.021499893 -0.0058671818 0.17319831
-0.020662989 -0.0085007623 0.17394197
-0.013894881 0.032678422 0.14846012
-0.014364191 0.030931719 0.14884605
-0.014878925 0.028191635 0.15140171
-0.015150099 0.026064619 0.15319201
-0.015719421 0.024422847 0.15466805
-0.016119063 0.022722138 0.1563922
-0.016166722 0.020294417 0.16018291
-0.017036475 0.01535295 0.16282879
-0.017421264 0.01043254 0.16689865
-0.018271863 0.003395804 0.16996303
-0.019607933 -0.00086371222 0.17163356
-0.019902006 -0.0025283587 0.1721172
-0.020045629 -0.0036399413 0.17255227
-0.0200349 -0.0058421642 0.17273006
-0.01815073 -0.0073705344 0.17213015
-0.011554843 0.032283094 0.14855534
-0.011920346 0.029939389 0.14962417
-0.012384081 0.027496049 0.15156107
-0.013092658 0.025412358 0.15370439
-0.012707247 0.0240996 0.15498686
-0.012423659 0.022719879 0.15687546
-0.010831859 0.019614045 0.15940206
-0.013236377 0.016981326 0.16189852
-0.013858082 0.011211745 0.16828449
-0.014519472 0.0069650547 0.17199263
-0.018473413 -0.00018423403 0.17143157
-0.018735545 -0.0019154859 0.17208289
-0.018984122 -0.0037162262 0.17213711
-0.018564148 -0.0047865589 0.17196091
-0.01624934 -0.0065441346 0.1721476
-0.008934577 0.03203164 0.14941518
-0.010282016 0.029103493 0.15052648
-0.010365135 0.027033653 0.15203615
-0.0098497439 0.025535539 0.15306786
-0.0095985252 0.023868388 0.15443265
-0.0088307671 0.022716459 0.15819541
-0.0085180942 0.019296501 0.16076589
-0.0092748366 0.016514009 0.16372317
-0.0096918717 0.013023634 0.16820686
-0.0085544512 0.010451409 0.17328843
-0.016626377 0.00041767728 0.17369708
-0.017269429 -0.0016150795 0.17309761
-0.017570987 -0.0024858674 0.17316005
-0.016622232 -0.0037263988 0.17271663
-0.01504375 -0.0058703967 0.1734549
-0.0057463539 0.031593081 0.15072395
-0.0084446864 0.027657611 0.15179504
-0.0084043788 0.026940405 0.1522456
-0.0074210241 0.025688587 0.15374885
-0.0074022338 0.02414747 0.15649359
-0.0056287646 0.02171836 0.16096288
-0.0061850138 0.019601295 0.16192895
-0.0072590001 0.016518341 0.1652928
-0.0071825329 0.013372224 0.17000228
-0.0064909086 0.01023925 0.17365268
-0.0069849384 0.0068889591 0.17740661
-0.014115789 9.8927638e-05 0.17602609
-0.015065494 -0.0016116867 0.17444462
-0.015095429 -0.0030815534 0.17368992
-0.010479982 -0.0070582852 0.17559111
-0.0035861202 0.030943077 0.15113115
-0.005477285 0.027916582 0.15232694
-0.0043296674 0.027354354 0.15340175
-0.0047163297 0.025726918 0.15465048
-0.0048909872 0.024440469 0.15777557
-0.0037295474 0.021245914 0.16197616
-0.0040204665 0.019270558 0.16302733
-0.0043983874 0.01638137 0.16688018
-0.0048331809 0.014024446 0.17074634
-0.0033603043 0.0093753105 0.17533869
-0.0031725217 0.0074877669 0.17676529
-0.0023568035 0.0046072267 0.17805183
-0.0031937817 0.0022760874 0.17878224
-0.0027405745 0.00022970949 0.18041414
-0.0029885008 -0.0067610927 0.17941828
-0.00092849729 0.030254968 0.1533054
0.0011519181 0.029060477 0.15511934
-0.000796568 0.027617456 0.15669741
0.0019533418 0.026665563 0.15856586
0.0017476398 0.02367992 0.1604384
-2.0003492e-05 0.021527808 0.16313288
-0.0011486438 0.019232493 0.16497853
-0.0018085318 0.016736276 0.16738588
-0.0025014216 0.014689334 0.17090996
-0.00044683288 0.0091268187 0.1754573
0.00010032485 0.0067179687 0.17653522
7.3455274e-05 0.0041140853 0.17710671
0.0002796161 0.0020793986 0.17821051
0.00087993569 -0.0011936859 0.17991009
0.00011111797 -0.0055284314 0.17974746
0.0028377522 0.032699104 0.15208632
0.0035498627 0.030833002 0.15407033
0.0041993558 0.028659744 0.15691327
0.0051089907 0.025966117 0.15929611
0.0046876916 0.024247587 0.16025682
0.0035412181 0.021695102 0.16181426
0.0026636065 0.020206882 0.16417211
0.00059397914 0.016844025 0.16751765
-0.00030958466 0.014707869 0.17067751
0.0034076096 0.0092669474 0.17309836
0.0037287909 0.0070557133 0.1739904
0.0028386314 0.0044035777 0.17587359
0.0031588168 0.0015274748 0.1775521
0.0030306582 -0.0012660865 0.17908378
0.0031382346 -0.0048455657 0.17939885
0.0056924275 0.033967935 0.1511706
0.0057052961 0.032175407 0.15311983
0.0062070279 0.030212449 0.15517657
0.0069294223 0.025765138 0.159311
0.0063134721 0.024348384 0.16055661
0.0059346356 0.022038868 0.16199426
0.0054454515 0.019843964 0.16432717
0.0038218885 0.018040389 0.16676314
0.0065799309 0.011507927 0.17160717
0.0061333771 0.00905474 0.17264472
0.0055440785 0.0070817498 0.173831
0.0056766765 0.0043126331 0.17530431
0.0056427852 0.0018333471 0.17674537
0.0056566978 -0.0020486009 0.17904322
0.0063576987 -0.0047706673 0.18009049
0.0082596689 0.034349773 0.1509956
0.0083197346 0.032792173 0.15271844
0.0083504207 0.031095494 0.15393627
0.0084653432 0.026266145 0.16017954
0.0076737665 0.024163373 0.16152592
0.006917946 0.021524547 0.16257663
0.0069614169 0.019803092 0.16442637
0.0090262732 0.013036543 0.17069341
0.0082665393 0.010719347 0.171646
0.0084919566 0.0085153664 0.17253178
0.0085181668 0.0070765573 0.17394187
0.008024076 0.004800166 0.17545459
0.0074046752 0.0019436493 0.1775313
0.009968658 -0.002257352 0.17919235
0.0093697598 -0.0045760144 0.18028219
0.010877833 0.034043968 0.15136689
0.010926681 0.032592781 0.15245813
0.010665446 0.03014512 0.15558392
0.0096468171 0.026595555 0.16042212
0.0086868582 0.024077425 0.16132827
0.0087286597 0.021442132 0.16315156
0.0083959112 0.018975591 0.16585532
0.011267735 0.012892204 0.17028961
0.010696217 0.010694046 0.1715007
0.011373841 0.0089163352 0.1725008
0.011628712 0.0068578497 0.1744726
0.0096261129 0.0052048122 0.1754151
0.0097115459 0.0021225826 0.17814595
0.014095352 -0.0024301009 0.17727865
0.014135313 0.034024302 0.15135923
0.014988563 0.032313839 0.15276881
0.012914333 0.028076794 0.1600115
0.014493343 0.025600418 0.16142252
0.011086973 0.0239795 0.16166201
0.011481572 0.020590156 0.16504538
0.012459572 0.014768498 0.16906182
0.014030497 0.013073325 0.16965385
0.013511123 0.010822124 0.17172697
0.01278475 0.0092524868 0.17270841
0.013925488 0.0073837098 0.17474408
0.01085733 0.0056212717 0.17543226
0.011640803 0.0025221696 0.17811418
0.015078161 -0.0016181199 0.17566763
0.018499872 0.033856172 0.15170459
0.019863266 0.03238273 0.15643433
0.01804617 0.027730986 0.15887125
0.015885931 0.023580473 0.1631715
0 0 0 1 0 0 0 1 0 0 0 1 0 0 0 0 0 239 1 0 0
