ply
format ascii 1.0
comment PCL generated
element vertex 239
property float x
property float y
property float z
element camera 1
property float view_px
property float view_py
property float view_pz
property float x_axisx
property float x_axisy
property float x_axisz
property float y_axisx
property float y_axisy
property float y_axisz
property float z_axisx
property float z_axisy
property float z_axisz
property float focal
property float scalex
property float scaley
property float centerx
property float centery
property int viewportx
property int viewporty
property float k1
property float k2
end_header
-0.031804521 0.031855956 0.14745593
-0.030614769 0.029599909 0.14799345
-0.029283317 0.027842788 0.15044591
-0.028004212 0.026264628 0.15295058
-0.026719898 0.02404009 0.15628298
-0.026965611 0.021684835 0.16088413
-0.033129267 0.01411431 0.16697642
-0.033727489 0.011842871 0.16866726
-0.033323724 0.0087507293 0.1696621
-0.032819621 0.0059884316 0.17020449
-0.034187719 0.0035926981 0.17140938
-0.03590215 0.0003490255 0.17323452
-0.037178304 -0.0025859992 0.17299339
-0.029896466 0.03220563 0.14660166
-0.028064022 0.029665206 0.14788388
-0.026756076 0.027430274 0.14946817
-0.025568059 0.025906662 0.15155382
-0.024684895 0.023518061 0.1547274
-0.024971267 0.021120496 0.15803701
-0.025435103 0.017078627 0.16284633
-0.029259821 0.012404749 0.16663375
-0.030128514 0.0090472223 0.16857189
-0.029202921 0.0040870965 0.17059495
-0.028696075 0.0011701166 0.17210692
-0.03139706 0.00062649051 0.17374992
-0.034051839 -0.0036968645 0.17409304
-0.029196313 -0.0067720758 0.17636997
-0.026843658 0.032467943 0.14615074
-0.024342544 0.030175935 0.14765152
-0.023846369 0.028109258 0.14884226
-0.023460519 0.026335523 0.15103078
-0.022437049 0.023893228 0.15403876
-0.022556433 0.020895533 0.1580193
-0.023251737 0.017135799 0.16150652
-0.025060663 0.013204842 0.16452345
-0.026187539 0.010015262 0.16634879
-0.027355364 0.0037190742 0.16993776
-0.025205156 -0.0018904399 0.17170556
-0.027080016 -0.0027800337 0.17328075
-0.027243668 -0.0058563617 0.17451206
-0.026131896 -0.007185752 0.17465015
-0.025988592 -0.0094578629 0.1748376
-0.020961596 0.033048943 0.14749752
-0.021222984 0.030964486 0.14835383
-0.021250721 0.02895258 0.14890447
-0.021075306 0.026874665 0.15138836
-0.020645753 0.024309173 0.15358379
-0.020334829 0.022267044 0.15698808
-0.021397449 0.017575732 0.16083312
-0.021367041 0.014121726 0.16320425
-0.022062574 0.010970709 0.16647525
-0.023541834 0.0013105803 0.17016789
-0.022423375 -0.0024356411 0.16999164
-0.024200821 -0.0039058903 0.17197189
-0.024831913 -0.0051995069 0.17320389
-0.024302643 -0.0066565718 0.17353968
-0.023935027 -0.0089451773 0.17485264
-0.017369872 0.033594865 0.14810386
-0.018266872 0.031382676 0.14876878
-0.018407121 0.029502146 0.14926668
-0.018250909 0.026469463 0.1524653
-0.018262248 0.024326576 0.15427387
-0.018524438 0.022991618 0.15704547
-0.018995766 0.018044893 0.16049936
-0.01914336 0.014779387 0.16333808
-0.019828679 0.010692211 0.16768415
-0.021595936 0.001775442 0.17051622
-0.0213365 -0.00076614972 0.17235628
-0.021549704 -0.0030305665 0.17314018
-0.022272803 -0.0047562583 0.17235529
-0.021745507 -0.0061479653 0.17374513
-0.020532195 -0.0086329207 0.17403533
-0.014104451 0.032726057 0.14883697
-0.01459986 0.031030739 0.14910027
-0.015057381 0.02792873 0.15137395
-0.015340443 0.026030282 0.15334404
-0.015885273 0.024521153 0.15490474
-0.016270319 0.022938559 0.15676095
-0.016241465 0.020468904 0.16040978
-0.017009873 0.015130878 0.16372897
-0.01784949 0.0097752241 0.1696147
-0.0202181 0.0031087999 0.17131171
-0.020935776 -0.00097850722 0.17290552
-0.020800661 -0.0026086054 0.17327815
-0.020705299 -0.0036531873 0.17334978
-0.020278653 -0.0057999506 0.17341718
-0.017956013 -0.0065864599 0.17247222
-0.011837027 0.032160994 0.14898609
-0.012232915 0.02990794 0.15022093
-0.012570826 0.027372116 0.1519448
-0.01329982 0.025511319 0.15415747
-0.012928848 0.024417566 0.15561764
-0.012595916 0.023037443 0.15736553
-0.010749618 0.01948721 0.15865915
-0.013346394 0.016942695 0.16183588
-0.014327328 0.010770022 0.170425
-0.014997799 0.0063808826 0.17416309
-0.02001432 -1.7198285e-05 0.17264594
-0.019817432 -0.0016745388 0.17317985
-0.019630997 -0.003415592 0.17318203
-0.018964112 -0.0042706644 0.17289795
-0.016325206 -0.0054201488 0.17289579
-0.0091971476 0.031726561 0.14963807
-0.01061217 0.029038414 0.15111779
-0.010602037 0.027082829 0.15261967
-0.010101565 0.025738886 0.15375954
-0.0098818894 0.024165055 0.1551507
-0.0088401074 0.022741776 0.15774332
-0.0082786707 0.018623605 0.15938674
-0.0093797846 0.016141398 0.16323771
-0.010020331 0.012843519 0.16814229
-0.0085153272 0.010360345 0.17248325
-0.017344659 0.0012943271 0.17445864
-0.018344363 -0.00097444199 0.17424598
-0.018590571 -0.0019395349 0.17435414
-0.017497094 -0.0028074032 0.17406018
-0.015391347 -0.0047120936 0.17439349
-0.0059502115 0.030935248 0.15044761
-0.0087626986 0.027630009 0.15238649
-0.0086933011 0.026980383 0.15280893
-0.0076413061 0.025685299 0.154091
-0.0074804621 0.024186956 0.15656346
-0.0053635817 0.021229587 0.1594851
-0.0059707542 0.018876282 0.1606103
-0.0073456033 0.016121114 0.16463269
-0.0073556304 0.013001478 0.16939074
-0.0065851836 0.01007217 0.17251079
-0.0069677103 0.0061741839 0.17436491
-0.013722816 0.001719933 0.1758417
-0.01511159 -0.00020118542 0.17493364
-0.015467983 -0.0017129326 0.17472151
-0.010474405 -0.0056182966 0.17580152
-0.0038338585 0.030089853 0.15055127
-0.0057506324 0.027559368 0.15246505
-0.0044218865 0.026954411 0.15320674
-0.004801563 0.025452025 0.15457152
-0.0048273806 0.024241881 0.157392
-0.0035479045 0.020675914 0.16077802
-0.0039272425 0.018597485 0.1619851
-0.004485439 0.015896091 0.16600737
-0.0050727739 0.013527696 0.16980791
-0.0036164811 0.0094026048 0.17423083
-0.0033896498 0.0073927091 0.17504752
-0.0021710438 0.0043679187 0.17562929
-0.0029344589 0.0019897143 0.17588241
-0.0026613781 -5.6979989e-05 0.17789122
-0.0024164296 -0.0064848899 0.17831433
-0.00068391289 0.029211475 0.15159526
0.0015939088 0.028052332 0.1531017
-0.0005011264 0.026647065 0.15535486
0.002067192 0.025581919 0.15688431
0.0017938269 0.023062205 0.15935791
-1.2616232e-06 0.020924615 0.1622705
-0.0012099098 0.018932099 0.16446425
-0.0019018089 0.016358757 0.16677074
-0.0027972111 0.014254945 0.17006223
-0.00067024207 0.0093283495 0.17494956
9.5495969e-05 0.0069301804 0.17584348
0.00039894899 0.0043077292 0.17586304
0.00047182574 0.0021630379 0.17687742
0.00090540177 -0.0010161554 0.17896461
0.00054500758 -0.0053089536 0.17876963
0.0032760589 0.031834975 0.14973964
0.0039859368 0.030026365 0.1518472
0.0044471766 0.027875101 0.15507025
0.0050414037 0.025008949 0.15775256
0.0046868217 0.023532784 0.15905647
0.0036619541 0.021172401 0.16111156
0.002767599 0.019946883 0.16362871
0.00050634413 0.016616909 0.16711795
-0.00057623914 0.014402355 0.17006512
0.0035026788 0.0096831806 0.17372641
0.0038918441 0.0075272294 0.17441545
0.0031287502 0.004916288 0.17588408
0.0033411433 0.0019741426 0.17737493
0.0030900578 -0.0008521229 0.17872982
0.0034236994 -0.0043849363 0.17910434
0.0059908377 0.03342285 0.14903226
0.0060637672 0.031533774 0.15089105
0.0065652109 0.029584447 0.15316722
0.0067723221 0.024836076 0.15770406
0.0061952262 0.023639739 0.1592654
0.0059533394 0.021634271 0.16118279
0.0055797882 0.019687891 0.16379331
0.003842362 0.018170033 0.16648923
0.0063664066 0.011889247 0.17227745
0.0060063889 0.0095542613 0.17342342
0.0055297827 0.007621651 0.17448455
0.0057834918 0.0051304628 0.17612208
0.0058005974 0.0028058884 0.1777705
0.0056448621 -0.0013900767 0.17933287
0.0063290489 -0.0040476522 0.18053426
0.0084941089 0.034046754 0.14911295
0.0085473303 0.032391224 0.15065792
0.0086608585 0.030622456 0.15188736
0.0082998602 0.025494328 0.15830606
0.0076012509 0.023665978 0.16009361
0.0069095055 0.021208797 0.16178739
0.0070837401 0.019588912 0.16377284
0.0087293601 0.013442761 0.1711406
0.0080678724 0.011167753 0.1722641
0.0083782068 0.009117269 0.17333405
0.0085048806 0.0079558529 0.17487882
0.0080755604 0.0058265412 0.17652865
0.007497834 0.0031515099 0.17881697
0.0099641308 -0.0010060584 0.18063231
0.0092223343 -0.0034125955 0.18161233
0.011139252 0.033860065 0.14955895
0.011180601 0.032366864 0.15056066
0.010763793 0.029668283 0.15353417
0.009451895 0.025892166 0.1584332
0.0085648606 0.023550207 0.15986209
0.0087835407 0.02099691 0.16214438
0.008554887 0.018802904 0.16506216
0.011100152 0.012849682 0.17013559
0.010538736 0.011006571 0.17168595
0.011276295 0.009294128 0.17272173
0.011666519 0.007759972 0.17522845
0.0096158087 0.00632879 0.17653647
0.0097005321 0.0035523383 0.1795419
0.014409125 -0.00094189239 0.17922854
0.014515825 0.034052808 0.1497836
0.015385002 0.03229532 0.15112346
0.012664948 0.027376004 0.15790533
0.014427473 0.024854325 0.15986697
0.010882569 0.023490764 0.16017558
0.011763246 0.020024257 0.16372278
0.012386426 0.014330445 0.16826108
0.013800676 0.012211923 0.16837774
0.013416856 0.010487678 0.17101181
0.012721986 0.0093498854 0.17250037
0.014043274 0.0079722973 0.17486179
0.010816574 0.0067955502 0.17647426
0.011652226 0.0040156059 0.17950927
0.015493575 -0.00014014954 0.17770562
0.019046001 0.033840414 0.15032503
0.020296881 0.031410031 0.15492344
0.018131468 0.026452208 0.15710758
0.015908549 0.022326015 0.16173892
0 0 0 1 0 0 0 1 0 0 0 1 0 0 0 0 0 239 1 0 0
