ply
format ascii 1.0
comment PCL generated
element vertex 239
property float x
property float y
property float z
element camera 1
property float view_px
property float view_py
property float view_pz
property float x_axisx
property float x_axisy
property float x_axisz
property float y_axisx
property float y_axisy
property float y_axisz
property float z_axisx
property float z_axisy
property float z_axisz
property float focal
property float scalex
property float scaley
property float centerx
property float centery
property int viewportx
property int viewporty
property float k1
property float k2
end_header
-0.025063336 0.03506257 0.14718845
-0.024854545 0.032722965 0.1472671
-0.024975678 0.03065246 0.1488397
-0.025074949 0.028358109 0.15032603
-0.025013914 0.026048997 0.15208958
-0.025726104 0.023663674 0.15573816
-0.02713133 0.021780787 0.16148782
-0.027537843 0.019447275 0.16383912
-0.027598727 0.016772455 0.16484693
-0.027506694 0.013975724 0.16609663
-0.027661173 0.011281851 0.16729733
-0.027939551 0.0086691389 0.16944881
-0.028090971 0.0060226019 0.16976291
-0.022727171 0.035104603 0.14663248
-0.022456389 0.032785036 0.14757091
-0.02254652 0.030680977 0.14905642
-0.022551978 0.028465005 0.15049638
-0.022496358 0.026084209 0.15210666
-0.022915363 0.02366402 0.15472455
-0.02358711 0.021123644 0.15869173
-0.024068041 0.018989554 0.16096951
-0.024246231 0.016501563 0.16313182
-0.024413858 0.013788143 0.16455507
-0.024512053 0.011244569 0.16616015
-0.025063213 0.0085850861 0.1687745
-0.025522351 0.0059453808 0.17148073
-0.02556587 0.0034157995 0.17429383
-0.019976078 0.035102677 0.14677125
-0.019906862 0.033008058 0.14871931
-0.019968901 0.030717904 0.14966242
-0.020085331 0.028509494 0.15110151
-0.020052753 0.026310066 0.15229098
-0.020335268 0.023886114 0.15548563
-0.021089805 0.021341544 0.1591353
-0.021277536 0.018925264 0.16076599
-0.021371996 0.016574072 0.16251238
-0.021723174 0.013961283 0.16488518
-0.021861125 0.011331876 0.16861142
-0.022013653 0.0080526238 0.17060062
-0.022687839 0.0052104495 0.17324053
-0.022187253 0.0023459361 0.17390589
-0.022144608 -0.00070121128 0.17484595
-0.017168639 0.034988422 0.14773263
-0.017374536 0.032885976 0.14908381
-0.017422248 0.030670673 0.14950502
-0.017525438 0.028814461 0.15177189
-0.017582953 0.026646774 0.15271296
-0.017835381 0.024191126 0.15548426
-0.018438369 0.021679729 0.15952493
-0.018341327 0.01896221 0.16028993
-0.01857136 0.016594259 0.1626752
-0.018531814 0.013799842 0.16620685
-0.019052517 0.010705804 0.17035232
-0.019196751 0.0079317437 0.17159013
-0.019777996 0.0052642073 0.17418888
-0.019525247 0.0024840573 0.17540771
-0.019754659 -0.00032214617 0.1766907
-0.014481664 0.035150822 0.14802277
-0.01470492 0.032929033 0.14903748
-0.014583288 0.030650342 0.14935775
-0.015121618 0.028986147 0.15202682
-0.015109544 0.026806032 0.15381539
-0.015375164 0.024403881 0.15594055
-0.015603485 0.021854706 0.16016467
-0.015644949 0.019146705 0.1605186
-0.015852628 0.016656896 0.16281582
-0.015809564 0.013621413 0.16653195
-0.015543013 0.010748456 0.17015135
-0.01632857 0.0082381191 0.17311077
-0.01707417 0.0056589902 0.17670463
-0.017132996 0.0026588843 0.17749301
-0.016464243 -0.0007189351 0.1764791
-0.012202439 0.035458539 0.1481811
-0.012153314 0.033201031 0.14935787
-0.012196703 0.030997518 0.15060055
-0.012379566 0.028909124 0.15267882
-0.012557093 0.026853982 0.15404181
-0.012635817 0.024310805 0.15590419
-0.012788134 0.021794677 0.15922995
-0.012860346 0.019240851 0.16060142
-0.0130056 0.016554283 0.16258307
-0.013090922 0.013546458 0.16719505
-0.013498113 0.010476074 0.17251541
-0.014140278 0.0083481269 0.17548227
-0.014311946 0.0057477411 0.17832409
-0.014374365 0.0027915337 0.17787288
-0.012684446 -0.0012012539 0.17602605
-0.0099086054 0.035513069 0.14781262
-0.0098324213 0.033488058 0.14923823
-0.0098034544 0.031330973 0.15139301
-0.0099846842 0.028633296 0.15282309
-0.0096583841 0.026473437 0.15442531
-0.0098857209 0.024090683 0.15624209
-0.0098046707 0.021545304 0.15914309
-0.0098867891 0.019091634 0.15952416
-0.010044336 0.016496476 0.16263177
-0.010385555 0.01406425 0.16709153
-0.010716063 0.010225833 0.17321138
-0.010965087 0.0083385063 0.17606157
-0.011237385 0.0054853787 0.17706574
-0.010958858 0.0025226581 0.17682275
-0.010479866 -0.00078006997 0.17701302
-0.0072399504 0.035653058 0.14790902
-0.0073764054 0.03343435 0.14941725
-0.0073809498 0.031280544 0.15176788
-0.0070665451 0.028718784 0.1525823
-0.0068811593 0.026456315 0.15408048
-0.0071239746 0.02435769 0.15725572
-0.0072687296 0.021857843 0.16047952
-0.0070350794 0.018990122 0.16079509
-0.0071764826 0.0165266 0.16364004
-0.0076761181 0.013960981 0.16798873
-0.0074834647 0.010174937 0.17291512
-0.0081611481 0.0082129231 0.17593233
-0.0084045725 0.0057586785 0.17701942
-0.008373173 0.0028986773 0.17817664
-0.0089704925 0.00049922656 0.18037593
-0.0047549387 0.035694513 0.1480072
-0.0048335041 0.033059627 0.14952824
-0.0047534467 0.031260759 0.15141746
-0.0043800375 0.028961042 0.15359601
-0.0044718892 0.026809279 0.15601864
-0.0046029449 0.024797251 0.16051878
-0.00474079 0.022189934 0.16155796
-0.0046341703 0.019627612 0.16268864
-0.0047402126 0.016971637 0.16530862
-0.0050010877 0.014495416 0.16903412
-0.004950169 0.01122182 0.17373742
-0.005084503 0.0087539135 0.17655711
-0.0053666183 0.0059866994 0.17756069
-0.0055722794 0.0032807353 0.17840971
-0.0050064549 0.00034271542 0.18178485
-0.0023058208 0.035846498 0.14855039
-0.0023068369 0.033072993 0.14937834
-0.0018877251 0.030885518 0.15109828
-0.0017300164 0.028655784 0.15301393
-0.0017261733 0.026703717 0.15596429
-0.0019250433 0.024900625 0.16030611
-0.0020189162 0.022416592 0.16170458
-0.0021194124 0.020042198 0.1640937
-0.0018693537 0.017599661 0.16662663
-0.0021778485 0.01486047 0.17104685
-0.002099097 0.011669911 0.17446293
-0.0018693034 0.0094496878 0.17708482
-0.0019804649 0.0066554574 0.17850243
-0.002093859 0.0036993602 0.17857152
-0.0013898097 0.00048858294 0.18277037
-0.00052776682 0.034003999 0.14888872
-0.00012346712 0.031787787 0.15018624
2.0739095e-05 0.02989077 0.15260248
0.00097727031 0.028689116 0.15456037
0.0010119717 0.026597256 0.15739031
0.00089462596 0.024706304 0.1599661
0.00083721988 0.022771902 0.16286221
0.00067217316 0.020465905 0.16507511
0.00072399544 0.017882776 0.16728647
0.00073169998 0.015021715 0.17126337
0.00081990316 0.012043275 0.17417362
0.0010735759 0.0093324026 0.17635082
0.0010139634 0.0064499518 0.17749923
0.0010277635 0.0035561062 0.17870986
0.0012144774 0.00044081305 0.18118346
0.0020856711 0.034388203 0.14892107
0.0022274193 0.032364205 0.15071769
0.0025937269 0.030437028 0.1526975
0.0035725201 0.028685234 0.15527122
0.0036794774 0.026747759 0.15758327
0.0036690335 0.024687167 0.15981603
0.0035531728 0.022494789 0.16153687
0.0035314905 0.020148931 0.16498543
0.0034155976 0.017970985 0.16758208
0.0038925018 0.015071924 0.17076585
0.0039893556 0.012083357 0.17336193
0.0037835224 0.009179716 0.17468131
0.0037691817 0.0063415333 0.17540079
0.0038484049 0.0034816642 0.17794287
0.0039251186 0.00025704521 0.17897537
0.0048729745 0.034719136 0.1488228
0.0048659928 0.032892518 0.15075134
0.005147432 0.030986082 0.15254323
0.0058757807 0.028928749 0.15538514
0.0061864201 0.026904505 0.15857293
0.0063558747 0.02462101 0.16071241
0.0062609343 0.022121541 0.16216841
0.0061567803 0.019840728 0.16419145
0.0069443597 0.017262204 0.16682318
0.0069233701 0.014819652 0.17122467
0.0065980358 0.011663186 0.17247801
0.0066734538 0.0091753602 0.17410566
0.0065789656 0.0066798376 0.17617424
0.0069545009 0.0031793083 0.17784259
0.0071324795 2.3742969e-05 0.17973405
0.007367352 0.035115942 0.1489625
0.0074552265 0.033321749 0.15111642
0.0078198258 0.031206485 0.15218291
0.0089045586 0.029240791 0.15698016
0.0088923406 0.02688049 0.15990581
0.0089218179 0.024365041 0.16133225
0.0088971267 0.022138102 0.16330647
0.0099165002 0.019329803 0.16596846
0.0098261898 0.016980413 0.16786888
0.0096018286 0.01435249 0.17078553
0.0096252328 0.011644126 0.17168026
0.0093405554 0.0095290765 0.17354429
0.0092306826 0.0067577022 0.17678256
0.010482575 0.0023195983 0.17966971
0.010460609 -0.00065667037 0.18128714
0.0099814972 0.035379596 0.14928938
0.010315904 0.033475064 0.15082265
0.010769568 0.031511094 0.15363425
0.011583788 0.029518783 0.15783364
0.011605154 0.026850468 0.16008176
0.011670829 0.024397846 0.16139752
0.011297039 0.021907775 0.16404092
0.012494871 0.019286137 0.16638014
0.012346406 0.016738662 0.16838868
0.012381906 0.014075683 0.16971466
0.012685421 0.011439153 0.17109264
0.011856609 0.0097020948 0.17321691
0.012475012 0.0062745926 0.17725956
0.013692645 0.0019210521 0.17877759
0.012633413 0.03546571 0.14846991
0.013129232 0.033419039 0.15024981
0.013647732 0.031737849 0.15474848
0.014333578 0.029044339 0.1587925
0.014314774 0.026749015 0.16023152
0.014363145 0.024337124 0.16178323
0.014365605 0.021426639 0.16537902
0.015057603 0.019197783 0.16669609
0.014991224 0.016718417 0.16822259
0.014878876 0.014122086 0.1696624
0.015357033 0.011415053 0.17107238
0.014329443 0.0097846072 0.1733688
0.015097753 0.0062363069 0.17598788
0.015604047 0.0022851548 0.17603692
0.015370928 0.035572048 0.14794871
0.016071584 0.033716418 0.15055995
0.016014531 0.03130402 0.15510738
0.016560476 0.026777053 0.16042137
0 0 0 1 0 0 0 1 0 0 0 1 0 0 0 0 0 239 1 0 0
