ply
format ascii 1.0
comment PCL generated
element vertex 239
property float x
property float y
property float z
element camera 1
property float view_px
property float view_py
property float view_pz
property float x_axisx
property float x_axisy
property float x_axisz
property float y_axisx
property float y_axisy
property float y_axisz
property float z_axisx
property float z_axisy
property float z_axisz
property float focal
property float scalex
property float scaley
property float centerx
property float centery
property int viewportx
property int viewporty
property float k1
property float k2
end_header
-0.025219291 0.034834813 0.14641997
-0.024978777 0.032530285 0.14653012
-0.025062274 0.030516429 0.14821447
-0.025086939 0.028311258 0.14979245
-0.024902171 0.026314735 0.15167998
-0.025434405 0.024269987 0.15553465
-0.026686938 0.021827772 0.16093628
-0.027134765 0.01913031 0.16286018
-0.027330907 0.016351731 0.16327758
-0.027287763 0.01344216 0.16371754
-0.02743871 0.010626622 0.16440465
-0.027692107 0.0078161843 0.1661219
-0.027722819 0.0051907236 0.16613552
-0.022894721 0.034918275 0.1458029
-0.022559466 0.032607526 0.14671265
-0.022582475 0.030520227 0.14819291
-0.022527546 0.028368078 0.1496805
-0.022431441 0.026047021 0.15132937
-0.022770029 0.023977034 0.15417565
-0.023302715 0.021370035 0.15806426
-0.023796093 0.019005343 0.15980627
-0.024046583 0.016257768 0.16151443
-0.024199223 0.013504334 0.16219467
-0.02416458 0.010831919 0.16323584
-0.024747917 0.007887057 0.16547318
-0.025211263 0.005062676 0.16792788
-0.025201753 0.0021456783 0.17010412
-0.020082952 0.03497906 0.14585477
-0.019958809 0.032925162 0.14776455
-0.019983267 0.030598771 0.1486183
-0.020046376 0.028411837 0.15001275
-0.019983333 0.026102353 0.15126078
-0.02011882 0.023897391 0.15462166
-0.020829376 0.021346238 0.15824983
-0.02101806 0.018854544 0.15965603
-0.021121617 0.016338922 0.16103537
-0.021507896 0.013648005 0.16264194
-0.021519322 0.010567451 0.16560858
-0.021658082 0.0071036303 0.16689618
-0.022410331 0.0041077486 0.1691208
-0.021724142 0.0011691274 0.16980183
-0.021639995 -0.0018398785 0.17109022
-0.017212411 0.03499081 0.14673238
-0.017392579 0.032853708 0.14804284
-0.017402695 0.030632116 0.1484616
-0.017438134 0.02862921 0.15065184
-0.017487558 0.026382238 0.15148823
-0.017618433 0.02388321 0.15428461
-0.018151291 0.021485902 0.15851901
-0.018102735 0.018809047 0.15919818
-0.018333474 0.016305583 0.16126892
-0.01828753 0.013328193 0.16374803
-0.018871771 0.0098934723 0.16683616
-0.018971628 0.0071455017 0.16790546
-0.019586859 0.004375054 0.17032287
-0.019296654 0.0015629506 0.1716374
-0.019617299 -0.0010833789 0.17323293
-0.01445357 0.035125978 0.14682212
-0.01468165 0.03288345 0.1477866
-0.014572702 0.030662771 0.14814718
-0.015010717 0.028728934 0.15076098
-0.014983665 0.026525082 0.15251093
-0.015233875 0.024174886 0.15466508
-0.015313958 0.021506233 0.15905759
-0.015424135 0.018881667 0.15919578
-0.015683049 0.016284568 0.16117278
-0.015612375 0.012930526 0.16399604
-0.015395006 0.010145321 0.16683161
-0.016273664 0.0076299314 0.16971245
-0.017128902 0.0050157919 0.17293212
-0.017206874 0.0020839726 0.1739517
-0.016248614 -0.0013313047 0.17348735
-0.012071675 0.035427097 0.14706501
-0.012058758 0.033113629 0.14800364
-0.012023974 0.030901086 0.14935261
-0.012206028 0.028624171 0.15135202
-0.012426513 0.026655883 0.15272851
-0.012535791 0.024303276 0.15473568
-0.012619547 0.021585256 0.15801843
-0.012662835 0.018960316 0.15912388
-0.012880154 0.016112622 0.16074094
-0.012924328 0.012808513 0.16476245
-0.013407612 0.0099966908 0.16926502
-0.014214172 0.0078492668 0.17196566
-0.014507952 0.0053432728 0.1745127
-0.014401275 0.0023862848 0.1742368
-0.012316498 -0.0016121796 0.17330183
-0.0097165229 0.035650019 0.14715657
-0.0096291117 0.03355597 0.14847744
-0.0096477922 0.031367775 0.15062849
-0.0098120216 0.028525725 0.15178962
-0.0095696328 0.02653008 0.15345679
-0.0097833388 0.024437357 0.15537508
-0.0096137533 0.021747403 0.15795009
-0.0096634915 0.018993363 0.15789813
-0.0099045364 0.01601873 0.16067463
-0.010305515 0.013203803 0.1649366
-0.010577152 0.0099765137 0.17043789
-0.011105418 0.008133621 0.17320861
-0.01126005 0.0052403985 0.17395009
-0.010825596 0.0022813305 0.17400502
-0.010316174 -0.0010206611 0.17457885
-0.0070837126 0.03598664 0.14760251
-0.0072860206 0.033743564 0.14916554
-0.0073116096 0.031452086 0.1513392
-0.0069075646 0.028883759 0.15191022
-0.0067692017 0.026609907 0.15334582
-0.006940362 0.024636019 0.15642123
-0.0069873338 0.021856353 0.15905641
-0.0067227343 0.018828904 0.1589476
-0.0070635895 0.016070379 0.16188999
-0.0076848152 0.013374973 0.16634975
-0.0070882672 0.010421114 0.17136991
-0.0082065575 0.0082351072 0.17401862
-0.0084314086 0.0056922045 0.17482218
-0.0084841438 0.0028300982 0.17579557
-0.0094413022 0.00046749081 0.17803843
-0.0046365233 0.03626192 0.14811321
-0.0047643129 0.033780258 0.14993075
-0.0046805828 0.031683564 0.15132457
-0.0042617531 0.029127184 0.15302964
-0.0043519218 0.026917215 0.15537862
-0.004292943 0.024750052 0.15967064
-0.0044077844 0.021972004 0.16015539
-0.0044638026 0.019266814 0.16104305
-0.0047191153 0.01653469 0.16385666
-0.0049951393 0.014195505 0.16794874
-0.0045214132 0.011236135 0.17308263
-0.0051316735 0.0087552229 0.1756995
-0.0054866909 0.0059318049 0.17600715
-0.0057145045 0.0032296451 0.17643526
-0.0056124916 -0.0002755574 0.17979611
-0.0022932182 0.036539182 0.14891699
-0.002232899 0.033935446 0.14995904
-0.0017770274 0.031280987 0.1508522
-0.0016189491 0.028829677 0.15238664
-0.0016046846 0.026791288 0.15523374
-0.0015679476 0.02470761 0.159436
-0.0016907259 0.022024762 0.16050614
-0.0019984285 0.019508082 0.16267352
-0.001845938 0.017162379 0.16542412
-0.0018995659 0.014803629 0.17077678
-0.0017535347 0.011764178 0.17440861
-0.001830272 0.0094498377 0.176828
-0.0021949627 0.0065932004 0.17773917
-0.0023016483 0.0036156597 0.17730843
-0.0021940067 -0.00029888499 0.18125822
-0.00061894371 0.034737051 0.14945336
-0.00019918859 0.032336727 0.15039715
2.0688396e-05 0.030132949 0.15237342
0.0011057077 0.028562276 0.15376538
0.0012611921 0.026218997 0.15626957
0.0011777293 0.024152683 0.1587318
0.0010974909 0.021847578 0.16118173
0.00085339003 0.019652462 0.16345783
0.0008319302 0.017316261 0.16610505
0.0010763898 0.015031163 0.17122902
0.0012074489 0.012327006 0.17481332
0.0011839282 0.0094835637 0.17668642
0.00094642228 0.0065099755 0.17740947
0.0007400529 0.0034344979 0.17809948
0.00058016658 -1.7150303e-05 0.18009327
0.0020634222 0.035027359 0.14935566
0.0022387395 0.032758996 0.15085614
0.0026434974 0.030546844 0.15251641
0.0038129466 0.028210575 0.15417694
0.0039483719 0.026094815 0.15618762
0.0039297291 0.023836972 0.158236
0.0037437512 0.021495115 0.15971602
0.0037002438 0.019232687 0.16338767
0.003573321 0.017353691 0.16645007
0.0043443507 0.015194873 0.17109635
0.0045355707 0.012526608 0.1744923
0.0040842304 0.0095123844 0.17541663
0.0039624413 0.006653104 0.17582801
0.0036263913 0.003446755 0.17784959
0.0035692756 0.00010782546 0.17844467
0.0048554805 0.035317749 0.14914729
0.0048649474 0.033240784 0.15076099
0.005189958 0.031061228 0.15229508
0.006223877 0.028741481 0.15462141
0.0065042535 0.026312342 0.15740007
0.0066416184 0.023636758 0.15903242
0.006434564 0.021022454 0.16035736
0.0062643904 0.018726811 0.16243108
0.0073006442 0.016426569 0.16642562
0.0074942433 0.015009432 0.17167237
0.0071221404 0.012081989 0.17366306
0.0069948495 0.0095177451 0.17504725
0.0066725551 0.0068389378 0.17682983
0.0066845813 0.0031403964 0.17818218
0.0066738795 -0.00024538464 0.17962608
0.0073882788 0.035577603 0.14923918
0.0075335675 0.033513241 0.15108532
0.0078714779 0.03128618 0.15185943
0.0092056887 0.029036624 0.15676063
0.0091468235 0.026060304 0.15896499
0.0091597121 0.023221178 0.15970954
0.0090713957 0.020690441 0.1612775
0.010349801 0.017844198 0.16474511
0.010257279 0.016006356 0.16718556
0.010112384 0.014191658 0.17106824
0.009999291 0.011623984 0.17246403
0.0095987301 0.009577658 0.17429861
0.0093386406 0.0065495153 0.17718402
0.010125095 0.0018410218 0.1798427
0.0098988982 -0.0012283832 0.1812347
0.010012055 0.035572518 0.14943515
0.01032373 0.033453476 0.15069923
0.010831461 0.031224532 0.15352497
0.011804246 0.029157283 0.15768616
0.011796861 0.026109248 0.15934862
0.011870982 0.02326373 0.15983309
0.011558287 0.020111242 0.16171095
0.012916344 0.017624814 0.16486123
0.012770285 0.015658395 0.16748478
0.012778477 0.013405344 0.16958863
0.012842001 0.010993361 0.17135534
0.012023233 0.0093542216 0.17345446
0.012472966 0.0055503896 0.17722526
0.013380508 0.0012954382 0.17888544
0.012595389 0.035457212 0.14844736
0.013022262 0.033052873 0.14979987
0.013861312 0.031242058 0.15462664
0.014550049 0.028338937 0.15836807
0.014556915 0.025881065 0.15946688
0.014641347 0.023146788 0.16038406
0.014740673 0.019506432 0.16323516
0.015502031 0.017462101 0.16497034
0.015402533 0.01541627 0.16724491
0.015231936 0.013210756 0.16921784
0.015478313 0.010543421 0.17099097
0.014388845 0.0091008591 0.17323406
0.014946177 0.0052042571 0.17560412
0.015311563 0.0016268452 0.17607966
0.015267635 0.035209492 0.14754812
0.016108193 0.033040017 0.14998783
0.016310614 0.030792326 0.15492053
0.016819485 0.025893176 0.15969925
0 0 0 1 0 0 0 1 0 0 0 1 0 0 0 0 0 239 1 0 0
