ply
format ascii 1.0
comment PCL generated
element vertex 239
property float x
property float y
property float z
element camera 1
property float view_px
property float view_py
property float view_pz
property float x_axisx
property float x_axisy
property float x_axisz
property float y_axisx
property float y_axisy
property float y_axisz
property float z_axisx
property float z_axisy
property float z_axisz
property float focal
property float scalex
property float scaley
property float centerx
property float centery
property int viewportx
property int viewporty
property float k1
property float k2
end_header
-0.025240563 0.03469336 0.14579394
-0.024792915 0.032357518 0.14565732
-0.024929207 0.030176373 0.14706695
-0.025025995 0.027955988 0.14861858
-0.024972511 0.02601723 0.15086147
-0.025664475 0.023619123 0.15462026
-0.026984064 0.02065213 0.15980566
-0.027350249 0.017822741 0.16137204
-0.02751272 0.014927059 0.16145165
-0.027489055 0.011890388 0.16117088
-0.027529234 0.0089978343 0.16149321
-0.027770724 0.0059257476 0.16297361
-0.02736038 0.0032929201 0.16285701
-0.022838049 0.03501685 0.1456355
-0.022478566 0.03259353 0.14626659
-0.022508683 0.030393405 0.14747353
-0.022492832 0.028256655 0.14895709
-0.02249624 0.02597191 0.15078576
-0.022906082 0.023605078 0.15343919
-0.023494221 0.020662736 0.15710406
-0.023854503 0.018226607 0.15870017
-0.024036828 0.015266417 0.16004281
-0.024169248 0.012468616 0.1602695
-0.024149176 0.0097531546 0.16106184
-0.024789596 0.0064882874 0.16292144
-0.02511603 0.0033031616 0.16505018
-0.024509363 -0.00016746357 0.16663353
-0.020111624 0.035281986 0.14609832
-0.020039363 0.033003431 0.14761075
-0.020030025 0.030626018 0.14829268
-0.02011532 0.028393367 0.14962195
-0.020062916 0.026079295 0.15079802
-0.020285813 0.023654871 0.15405251
-0.021026473 0.02077142 0.15738121
-0.021088326 0.018184179 0.15855643
-0.021096088 0.01552672 0.15965043
-0.021616863 0.012814915 0.16111742
-0.022070926 0.0096062394 0.16408964
-0.022050595 0.0059006242 0.16511576
-0.022098392 0.0020802224 0.16648583
-0.020985849 -0.00083293481 0.16706762
-0.020606974 -0.0038332657 0.16843539
-0.017352946 0.035208445 0.14708681
-0.01753968 0.032990381 0.14816603
-0.017469235 0.03076048 0.14834917
-0.017552687 0.028599927 0.15036409
-0.017540397 0.026318813 0.15107538
-0.017741119 0.023807969 0.15375969
-0.018381564 0.021076161 0.15786108
-0.018198036 0.018351141 0.15826301
-0.018352222 0.015743004 0.16010991
-0.018835528 0.012870381 0.1628952
-0.019652419 0.0090969661 0.16574472
-0.019462546 0.0061819195 0.16638649
-0.019520542 0.0026913309 0.16798922
-0.018788297 -0.00017314104 0.16914704
-0.019000942 -0.0028446426 0.17092505
-0.014591628 0.03524955 0.14723374
-0.014825956 0.032975547 0.14808694
-0.014736868 0.030803079 0.14830475
-0.015124698 0.028756024 0.15061156
-0.015130464 0.026500806 0.15230614
-0.015365821 0.024139639 0.15438512
-0.015601498 0.021377686 0.15860395
-0.015537662 0.018719938 0.15852018
-0.015778286 0.016063165 0.16036627
-0.016173048 0.012918436 0.16354881
-0.016116787 0.0097350962 0.16569775
-0.016673179 0.006771903 0.1682256
-0.017092817 0.0035621773 0.17073883
-0.016959175 0.00058504229 0.17164366
-0.015778054 -0.0027100926 0.17185169
-0.012214577 0.035311408 0.14722301
-0.012242926 0.03307762 0.14826962
-0.012253587 0.030914532 0.14956465
-0.012360913 0.028699068 0.15144126
-0.012583394 0.026702723 0.15268169
-0.012694338 0.024348553 0.1544968
-0.012799201 0.021683784 0.15773404
-0.012821198 0.018984785 0.15865944
-0.013029016 0.016147995 0.16023968
-0.013452452 0.012914358 0.16437393
-0.01394166 0.009518154 0.16802318
-0.014506068 0.0069634314 0.17022231
-0.014588184 0.004136608 0.17236076
-0.014228915 0.0012112234 0.1721233
-0.012000253 -0.0027151722 0.17190665
-0.0099011203 0.035340168 0.14700501
-0.0098085161 0.033267356 0.14843448
-0.0097867595 0.031218782 0.15064014
-0.010045803 0.028403854 0.15173079
-0.0097370949 0.026375515 0.15312557
-0.0099094883 0.024425991 0.15497206
-0.0097338194 0.02166988 0.1573628
-0.0097816782 0.018974181 0.15736037
-0.010107219 0.016172273 0.16025686
-0.010620084 0.013486913 0.16467948
-0.011080467 0.0098269219 0.16949739
-0.011467435 0.0075428812 0.17182654
-0.011336198 0.0042688791 0.1720235
-0.010680995 0.0013602492 0.17191821
-0.010019569 -0.0019591572 0.17293188
-0.0072036078 0.035605889 0.14730871
-0.0074066222 0.033382606 0.14892767
-0.0074073062 0.031161999 0.15116382
-0.0070890016 0.028644865 0.15149157
-0.0069347778 0.026401175 0.15273675
-0.0071021467 0.024360735 0.15566744
-0.0070597269 0.021567099 0.15812334
-0.0068441988 0.018619165 0.15801343
-0.0072533707 0.016097521 0.16120894
-0.0077957851 0.013553496 0.16571742
-0.0078280875 0.010379228 0.17062421
-0.0086583449 0.0075960117 0.17270742
-0.0086270729 0.0048010335 0.17295179
-0.0082852421 0.0019208496 0.17346287
-0.0089881467 -0.00029082483 0.1758953
-0.0047483006 0.035820778 0.14763598
-0.0048131342 0.033233572 0.14947878
-0.0048343409 0.031292558 0.15100597
-0.0044375523 0.028927138 0.15258616
-0.0045372345 0.026639044 0.15480949
-0.0043686298 0.024347538 0.15867512
-0.0044593117 0.021657724 0.15910821
-0.0045090094 0.019015903 0.16003652
-0.0047632121 0.016363531 0.16294228
-0.0051090596 0.013972126 0.16670112
-0.0051074512 0.010702201 0.17147303
-0.0054023699 0.007869307 0.17407927
-0.0056962548 0.004929564 0.17378013
-0.0056551606 0.0022971921 0.17377496
-0.0053933952 -0.0010929289 0.1779467
-0.0023395964 0.036021415 0.14826734
-0.0022848942 0.033333026 0.14926453
-0.0019747496 0.031216782 0.15061615
-0.0017953004 0.028767034 0.15199006
-0.0017962276 0.026642386 0.15469955
-0.0017203465 0.024279188 0.15858373
-0.0017449124 0.021620067 0.15943171
-0.0019897684 0.019233776 0.16173477
-0.0018412104 0.016732289 0.16441113
-0.0021491311 0.014033312 0.16892119
-0.0021701865 0.01096332 0.17221718
-0.0021184336 0.0085896216 0.17444049
-0.002429775 0.005617321 0.17520522
-0.0023540475 0.0026004105 0.17526953
-0.0020763779 -0.00089289108 0.17971562
-0.0010413346 0.034612194 0.14931455
-0.00066230708 0.032391541 0.15045829
-0.00023289805 0.030141288 0.15212306
0.00096366281 0.028697604 0.15358102
0.0012395803 0.026437294 0.15622838
0.0011043237 0.024110898 0.15838084
0.00095189922 0.021627264 0.16059287
0.00074930536 0.019331742 0.16268077
0.00073407794 0.016831372 0.16501871
0.00078455359 0.013994008 0.16908751
0.00082728191 0.011136817 0.17200248
0.00089447363 0.0083964178 0.1738628
0.00073270104 0.0054956549 0.1748322
0.00068384578 0.0026717291 0.17635725
0.00064546702 -0.00050137931 0.17884779
0.0014300345 0.035177723 0.14945437
0.0017215657 0.032913633 0.15092009
0.0022783156 0.030707531 0.15257603
0.0037978075 0.028517008 0.15426129
0.0039413609 0.026389806 0.15625659
0.0039692638 0.024003532 0.15822805
0.0037509832 0.02158761 0.15964301
0.0035802498 0.01915364 0.16283029
0.0034492335 0.016873371 0.1654228
0.004092054 0.014020077 0.16884954
0.0041337246 0.011108988 0.17145994
0.003866619 0.0082053533 0.17242983
0.0038417536 0.0054172236 0.17323503
0.0036174322 0.0027673002 0.17621179
0.0037594631 -0.00032911784 0.17756562
0.0041454593 0.035525359 0.14916302
0.0042943694 0.033482768 0.15078956
0.0047880714 0.031327255 0.15230666
0.006278778 0.028753217 0.15447323
0.0064541213 0.026651436 0.1574731
0.0065119662 0.024191871 0.15956335
0.0063433456 0.021365169 0.16071303
0.0061702239 0.018998485 0.16252883
0.0075080693 0.016588794 0.1659216
0.0072124312 0.01403832 0.17017317
0.007018018 0.010680202 0.17093398
0.0070041041 0.0080619585 0.17229199
0.0065208324 0.0056197844 0.17421354
0.006732218 0.0027987976 0.17701948
0.0068877647 -0.00021925547 0.17908078
0.0066600507 0.035753418 0.14906606
0.0069644153 0.033796828 0.15094353
0.007419324 0.03160103 0.15178953
0.0092140734 0.029273735 0.15647629
0.0089520589 0.026772622 0.15928046
0.008943052 0.024051215 0.16077168
0.008650817 0.021604139 0.16256192
0.010350555 0.018808253 0.16541965
0.010292616 0.016376693 0.16721772
0.010079741 0.013625665 0.17007577
0.010171731 0.010811578 0.17077026
0.0097472817 0.0085863192 0.17238481
0.0090297898 0.0057885475 0.17546974
0.010258794 0.0023155578 0.17953429
0.010142337 -0.00049983629 0.18131955
0.0092736064 0.035691518 0.14901885
0.0097073941 0.033633742 0.15032645
0.010505415 0.031507965 0.15323108
0.011695771 0.029526716 0.15751156
0.011585885 0.026878595 0.15988675
0.011539885 0.024276631 0.16152248
0.011007488 0.021541663 0.16386169
0.012816494 0.018832559 0.16587466
0.012746566 0.016231824 0.16781782
0.013027135 0.013478193 0.16934341
0.013336977 0.010826658 0.17084551
0.012227871 0.0090905298 0.17279352
0.012161901 0.0058885436 0.17691813
0.013750314 0.0022406057 0.17941387
0.01175454 0.03541182 0.14770694
0.012304225 0.033081315 0.14926848
0.013664125 0.031599116 0.15444182
0.014324607 0.029144689 0.15858479
0.014321408 0.026846107 0.16024314
0.014276488 0.024294492 0.16209529
0.01433632 0.021040283 0.16511172
0.015338311 0.018853409 0.16618739
0.015393497 0.016303224 0.16784394
0.015405883 0.013684985 0.16935827
0.015961478 0.010891143 0.17119044
0.01451372 0.009363099 0.173397
0.014949562 0.0062600067 0.17661133
0.016149469 0.0026560973 0.17731923
0.014316617 0.034959413 0.14654186
0.015376696 0.03300843 0.14913067
0.016091343 0.031414323 0.15500662
0.016530443 0.026999379 0.16059633
0 0 0 1 0 0 0 1 0 0 0 1 0 0 0 0 0 239 1 0 0
