ply
format ascii 1.0
comment PCL generated
element vertex 239
property float x
property float y
property float z
element camera 1
property float view_px
property float view_py
property float view_pz
property float x_axisx
property float x_axisy
property float x_axisz
property float y_axisx
property float y_axisy
property float y_axisz
property float z_axisx
property float z_axisy
property float z_axisz
property float focal
property float scalex
property float scaley
property float centerx
property float centery
property int viewportx
property int viewporty
property float k1
property float k2
end_header
-0.025336927 0.034910318 0.14669581
-0.025093939 0.032543585 0.14664939
-0.025275242 0.030537536 0.14827161
-0.025404483 0.028427346 0.14998733
-0.025320483 0.026166486 0.15223847
-0.026003446 0.023681553 0.15608025
-0.027768105 0.020891707 0.16164768
-0.028066507 0.018631216 0.16395934
-0.027973065 0.015947841 0.16526888
-0.027860254 0.013124472 0.16618867
-0.028155489 0.01033037 0.1667846
-0.028650546 0.0074741505 0.16849688
-0.02871572 0.0048348964 0.16843985
-0.022972671 0.035014607 0.14630058
-0.022722468 0.032599855 0.14700849
-0.022809973 0.030503985 0.1483627
-0.022811301 0.028431917 0.15007716
-0.022844367 0.026072798 0.15201409
-0.023249347 0.023565885 0.15485783
-0.023873543 0.020812709 0.15893228
-0.024416257 0.018470069 0.16133724
-0.024497159 0.016102707 0.16378239
-0.024548069 0.013385539 0.16492908
-0.024776716 0.010594855 0.16573684
-0.025613705 0.0075785276 0.16784698
-0.026181392 0.0046238992 0.17014168
-0.026186395 0.0014850877 0.17242166
-0.020198014 0.035080697 0.14638266
-0.020151107 0.032893989 0.1479779
-0.020217845 0.030600864 0.14889428
-0.02036969 0.028447453 0.15045643
-0.020391239 0.026077816 0.15186916
-0.020635238 0.023678357 0.15545957
-0.021427384 0.021132855 0.15938643
-0.021525363 0.018780688 0.16123743
-0.021527393 0.016515845 0.16322142
-0.021956408 0.013811282 0.1653416
-0.022179043 0.010293447 0.16815725
-0.022891188 0.006646181 0.16925542
-0.023731591 0.0032187223 0.17142542
-0.02300214 0.0002437509 0.17149448
-0.02252965 -0.0028304195 0.17235787
-0.017358975 0.034975272 0.14709599
-0.01759059 0.032829985 0.14831443
-0.017659027 0.030586803 0.14872137
-0.017733216 0.028590372 0.15098821
-0.017849678 0.026223589 0.15192345
-0.018018115 0.023878798 0.15488808
-0.018741591 0.021733804 0.15982348
-0.018669356 0.019113349 0.16103193
-0.01877862 0.016931226 0.1634742
-0.019035747 0.013707046 0.16656762
-0.020093428 0.0097210165 0.16937102
-0.020352025 0.0068057086 0.16988239
-0.020812614 0.0034575011 0.17199247
-0.020251725 0.00060873479 0.17262864
-0.020204607 -0.0021673033 0.17408937
-0.014533067 0.034977999 0.14718263
-0.014854403 0.03272656 0.14811972
-0.014863523 0.030531835 0.14846551
-0.015299233 0.028530011 0.15106596
-0.015321344 0.02635132 0.15292652
-0.015534166 0.024101555 0.15525988
-0.015853748 0.022012005 0.16032329
-0.015962103 0.01940505 0.16089505
-0.016128303 0.017012736 0.16316095
-0.016332669 0.013646189 0.1666043
-0.016748827 0.010329162 0.16919695
-0.01733877 0.0072185332 0.17150423
-0.017965257 0.0041526374 0.17367071
-0.017814526 0.0010515421 0.17415324
-0.016868874 -0.002328949 0.17416085
-0.0121374 0.034942091 0.14698137
-0.012232962 0.032780409 0.14823154
-0.012230954 0.030620852 0.14954771
-0.012423837 0.028329125 0.15155128
-0.012720156 0.026348416 0.15303254
-0.012871007 0.024079941 0.15516862
-0.013009529 0.021847947 0.15899818
-0.013202067 0.019353529 0.16052929
-0.013331868 0.016625727 0.16238602
-0.013485206 0.013496622 0.16701692
-0.01435396 0.0095419949 0.17072983
-0.015024642 0.0071056597 0.17255099
-0.015203724 0.0043610372 0.17474608
-0.015204437 0.0014992831 0.17394596
-0.013319091 -0.002391424 0.17386384
-0.0098359138 0.034769706 0.14640446
-0.0097544473 0.032831881 0.14805959
-0.0097135445 0.030969542 0.15047394
-0.010019072 0.028150974 0.15172009
-0.0097406153 0.026047921 0.15328765
-0.010034903 0.024031926 0.15550266
-0.009868104 0.021581501 0.15822692
-0.010250203 0.018920477 0.1586716
-0.010378049 0.016390963 0.16180402
-0.010469422 0.014055286 0.16640826
-0.011182575 0.0091877421 0.17122103
-0.011715451 0.0072328988 0.17370813
-0.012053313 0.0042646765 0.17422673
-0.011650816 0.0014906769 0.17418008
-0.011215753 -0.0018841084 0.17502494
-0.0071154335 0.034728393 0.14635296
-0.0073113539 0.032838993 0.14837292
-0.00731355 0.030894058 0.15095221
-0.0070196218 0.028402666 0.15148203
-0.0068369349 0.026193125 0.15277928
-0.0071875323 0.024085347 0.15594265
-0.0071373917 0.021360664 0.15861943
-0.0070986473 0.01837125 0.15858948
-0.0073793572 0.016179843 0.16204137
-0.0076337373 0.013924611 0.16673094
-0.0080294833 0.009610665 0.17213574
-0.0091547137 0.0072308686 0.17484635
-0.0095297135 0.0046577835 0.17559698
-0.0095453318 0.0018716916 0.17636275
-0.010458489 -0.00048893894 0.17795032
-0.0045970315 0.034715693 0.1462726
-0.0046973028 0.032679867 0.14886658
-0.00474639 0.031020671 0.15079544
-0.0042951112 0.028718488 0.15256302
-0.0044401023 0.026358176 0.15481555
-0.0042709862 0.024022223 0.15869397
-0.004453613 0.02133646 0.15916042
-0.0045514521 0.01874787 0.1602321
-0.0046948441 0.016329618 0.16344865
-0.0050028339 0.014135468 0.16716711
-0.0054502492 0.010487792 0.1725793
-0.0058178063 0.0075488822 0.17573959
-0.0065595172 0.004599107 0.17626163
-0.0068651643 0.0020388297 0.17679702
-0.0054581445 -0.001306431 0.17980698
-0.0021421404 0.034890793 0.14672203
-0.0021480189 0.032539573 0.14838198
-0.0017693641 0.030936752 0.1505613
-0.0016588538 0.028539836 0.15205887
-0.0016606923 0.026372274 0.1546571
-0.0016857162 0.023834458 0.15815271
-0.0017300064 0.0211701 0.15900944
-0.0018859671 0.018935701 0.16158189
-0.001829449 0.016524374 0.16463703
-0.0023633146 0.014186823 0.16941109
-0.0024676574 0.010965688 0.1731398
-0.0022463757 0.0086597167 0.17550731
-0.0024909226 0.0056777364 0.17691278
-0.0023872156 0.0025839198 0.1770056
-0.0015845629 -0.00094805687 0.18102744
-0.00059507816 0.033893481 0.14861888
-0.00020884421 0.031709328 0.149967
3.3353172e-05 0.029740715 0.15195915
0.0010640641 0.028067051 0.15314604
0.0012549316 0.025846224 0.15562242
0.0011125691 0.023630314 0.15780017
0.00090294745 0.021190807 0.1599697
0.00074195908 0.019193439 0.16243811
0.00075167255 0.016844923 0.1650918
0.00050234364 0.014153857 0.16960441
0.00054262584 0.011296873 0.17275691
0.00071135041 0.0085144332 0.17479664
0.00067016901 0.0056511732 0.17596556
0.00086948118 0.0028110722 0.17755474
0.0011250526 -0.00036886596 0.17998677
0.0019458431 0.034402296 0.14892833
0.0022012999 0.032251678 0.15051936
0.0026426127 0.030092226 0.15229084
0.0038363568 0.027640268 0.15346451
0.0039382423 0.025653597 0.15554044
0.0039648139 0.023464259 0.15761814
0.0037072285 0.021202119 0.15918183
0.0034873036 0.019205665 0.16274744
0.0033667071 0.017104382 0.16558222
0.0037499331 0.014196113 0.16921246
0.0038765899 0.011442706 0.17200515
0.0036076093 0.0084260618 0.17314386
0.0036365055 0.0055990019 0.17398883
0.0037899122 0.0030176796 0.17699802
0.004107275 -3.3321794e-05 0.17847721
0.0047244057 0.034794375 0.14885917
0.004768915 0.032818958 0.15053827
0.0051697209 0.030752992 0.15217771
0.0061592776 0.028221376 0.15400216
0.0064135399 0.026091853 0.1569175
0.0064368178 0.023808869 0.15907289
0.0062151956 0.021166623 0.1604441
0.0060180179 0.019126076 0.16255799
0.0069749234 0.016742473 0.16590676
0.0069323122 0.014095077 0.1698878
0.0065924195 0.010864401 0.17096125
0.0066929283 0.0083197085 0.17259891
0.0063948738 0.005903712 0.1746911
0.0069404403 0.0030961204 0.17745842
0.0073051513 0.00028178448 0.17974429
0.0072983825 0.035162542 0.14898475
0.0074868212 0.033209175 0.15087585
0.0078888135 0.031042639 0.15181446
0.0091133444 0.028624812 0.15583205
0.0089411903 0.026204264 0.15867417
0.0089069484 0.023567978 0.16017133
0.0085629318 0.021243842 0.16206858
0.010025429 0.018766778 0.16507839
0.0098944968 0.016317049 0.16690139
0.0096921185 0.013420356 0.16930899
0.0096778255 0.010687456 0.17021364
0.0093920929 0.0086975675 0.17220758
0.0089785764 0.0060348706 0.17551
0.010512182 0.0028204622 0.1795945
0.01056131 0.00021265366 0.18172155
0.009992958 0.035298657 0.14931828
0.010397169 0.03324452 0.15059485
0.010826339 0.030993186 0.15321429
0.011556674 0.028773909 0.1566039
0.011545364 0.026237804 0.15910429
0.011579616 0.023632187 0.16060257
0.011148505 0.020749968 0.16273628
0.012548086 0.018426875 0.16503534
0.012382166 0.015869224 0.16696861
0.01247238 0.012993637 0.1682211
0.012802183 0.010469348 0.16976126
0.01184592 0.0090222731 0.17214836
0.012193133 0.0060065226 0.17640808
0.01390768 0.0025326372 0.17897552
0.012671668 0.035292372 0.14846171
0.013236879 0.033000968 0.14994703
0.013581817 0.030657388 0.15390959
0.014285158 0.028105401 0.15730137
0.014259607 0.025940724 0.15909672
0.014288391 0.023528684 0.16093387
0.014305504 0.020199496 0.1637837
0.015116929 0.01803381 0.16481423
0.015028088 0.015520186 0.16650397
0.014906451 0.012978244 0.16794035
0.015450259 0.010418906 0.16975349
0.014177249 0.0091704549 0.17231542
0.014879863 0.0061574792 0.17560598
0.015970338 0.0025457444 0.17651409
0.015447233 0.035112664 0.14770171
0.016360167 0.033307739 0.15045114
0.015939837 0.030207738 0.15383247
0.01650008 0.025892377 0.15910001
0 0 0 1 0 0 0 1 0 0 0 1 0 0 0 0 0 239 1 0 0
