ply
format ascii 1.0
comment PCL generated
element vertex 239
property float x
property float y
property float z
element camera 1
property float view_px
property float view_py
property float view_pz
property float x_axisx
property float x_axisy
property float x_axisz
property float y_axisx
property float y_axisy
property float y_axisz
property float z_axisx
property float z_axisy
property float z_axisz
property float focal
property float scalex
property float scaley
property float centerx
property float centery
property int viewportx
property int viewporty
property float k1
property float k2
end_header
-0.027464714 0.034001753 0.14749265
-0.026788786 0.031718958 0.14695112
-0.026273182 0.029457483 0.14784965
-0.02571347 0.027040372 0.14887407
-0.025190094 0.024404714 0.15069923
-0.026264027 0.021310791 0.15384173
-0.02960724 0.016937146 0.1581357
-0.029987985 0.014147321 0.15945359
-0.029679926 0.011246964 0.16034651
-0.029511619 0.0085807331 0.16098268
-0.030038331 0.0054554115 0.16114472
-0.030778682 0.0021068847 0.1609281
-0.030348377 -0.00030702481 0.15953413
-0.025331059 0.034353364 0.14689304
-0.02427127 0.031906132 0.14695093
-0.023609117 0.029608296 0.14731738
-0.023146285 0.027347654 0.14873797
-0.022883499 0.024527652 0.15046227
-0.023393257 0.021375852 0.15229777
-0.024431784 0.018034359 0.15625143
-0.025515091 0.015261928 0.15771388
-0.025662446 0.012251656 0.15915817
-0.025808694 0.0096473144 0.16019051
-0.025937105 0.0067362976 0.16150898
-0.027710481 0.003021477 0.16212331
-0.028408471 -0.00099155004 0.16171439
-0.026250193 -0.0043294663 0.16230987
-0.022373814 0.034577966 0.14661461
-0.021054545 0.032242455 0.14723839
-0.020871788 0.029825797 0.14791285
-0.020856578 0.027603483 0.14935032
-0.020523744 0.024756042 0.15070628
-0.020929111 0.021378849 0.15334326
-0.022042638 0.018150678 0.15639229
-0.022368282 0.015450502 0.15731359
-0.022496033 0.012890219 0.15832779
-0.023168936 0.010080962 0.16011859
-0.023037951 0.0057358318 0.16314664
-0.02435061 0.002293759 0.16403066
-0.024132328 -0.0022926908 0.16354616
-0.02266716 -0.0048006629 0.16392034
-0.021853536 -0.0075114649 0.16484462
-0.018111933 0.034437086 0.1472207
-0.01830063 0.032318421 0.14817347
-0.018323515 0.030135788 0.14840616
-0.018472658 0.027819216 0.15038565
-0.018202165 0.02510903 0.15085481
-0.018351698 0.021963691 0.15324612
-0.019738063 0.018657217 0.15718204
-0.019471817 0.015850995 0.15780833
-0.019747764 0.013465154 0.15923899
-0.0200553 0.0088418759 0.16147965
-0.02116733 0.0045250938 0.16341461
-0.021650523 0.0019693666 0.1649995
-0.021691702 -0.0015492508 0.16519171
-0.020499693 -0.003930192 0.16528489
-0.020181479 -0.0064243875 0.16700937
-0.015062024 0.034527056 0.14738743
-0.015514907 0.032234468 0.14807022
-0.015468827 0.030180626 0.14839584
-0.015966235 0.027604248 0.15096663
-0.015832175 0.025111739 0.15213515
-0.016075416 0.022484854 0.15422134
-0.017154627 0.018985512 0.15845163
-0.017117184 0.016604356 0.15864474
-0.01732236 0.014044091 0.16011144
-0.017449055 0.0090130456 0.16237979
-0.017534189 0.0053155245 0.16406041
-0.018310124 0.0024021484 0.16605569
-0.018644702 -0.00064362679 0.16601875
-0.018306615 -0.0031164244 0.16691428
-0.017056722 -0.0058173654 0.16763745
-0.012115519 0.034484223 0.1474027
-0.012557072 0.032208413 0.14809166
-0.012619807 0.029929699 0.14952321
-0.0128773 0.027663356 0.15152536
-0.013235711 0.025303422 0.15273617
-0.013508943 0.022654947 0.15448853
-0.01401484 0.019938752 0.15816222
-0.014378 0.017130796 0.15903495
-0.014668491 0.014131195 0.16065076
-0.015314519 0.0095072491 0.16380112
-0.0161411 0.0050555845 0.16581827
-0.016542232 0.0025233862 0.16637899
-0.016739378 0.00038311779 0.16776684
-0.016396806 -0.0023725936 0.16752791
-0.014262557 -0.0050412389 0.16729741
-0.0097360192 0.034386851 0.14690706
-0.0096549671 0.032271281 0.14815222
-0.009939502 0.030085819 0.15029369
-0.01044884 0.027429381 0.15186916
-0.010162187 0.025421614 0.15349135
-0.010372556 0.022767425 0.15537703
-0.0099635655 0.019994734 0.15789317
-0.010939523 0.017460855 0.15826465
-0.011100929 0.014163066 0.16090888
-0.01158331 0.011181218 0.16499273
-0.013766433 0.0058549149 0.16675517
-0.013987918 0.0032373276 0.16755015
-0.014163435 0.00049732509 0.16727273
-0.013561018 -0.001528393 0.16709326
-0.01203642 -0.004423643 0.16785654
-0.0069668805 0.034339346 0.14676467
-0.0074061546 0.032141622 0.14852491
-0.0076102708 0.029939206 0.15092169
-0.007383171 0.027672684 0.151712
-0.0072820829 0.025428757 0.15293835
-0.0070660771 0.022969333 0.15608971
-0.0071050283 0.019826468 0.15837125
-0.0072213053 0.016927375 0.15883887
-0.0074309893 0.013868548 0.16146046
-0.0075673936 0.011114104 0.16650537
-0.010466315 0.006280737 0.16810848
-0.011735051 0.003512345 0.16859581
-0.011864183 0.001545659 0.1684317
-0.011109869 -0.00079134916 0.16839568
-0.010921307 -0.0034812249 0.1696666
-0.0042369473 0.034445032 0.14652121
-0.0048217229 0.031579554 0.14909096
-0.0051749647 0.02987434 0.15080896
-0.0047060214 0.027651871 0.15231971
-0.0046673343 0.025211276 0.15442409
-0.0041444772 0.02238759 0.15839964
-0.0046531241 0.02015657 0.15935607
-0.0049186931 0.017313881 0.1603452
-0.0048025139 0.014059865 0.16336188
-0.004869692 0.011775075 0.16693881
-0.0055898386 0.0077371774 0.16941528
-0.0080686798 0.0046453914 0.17062582
-0.0088235671 0.0017991004 0.16958508
-0.0088239368 -0.00039835586 0.16925898
-0.006248326 -0.0045817862 0.17307746
-0.0018378735 0.034399267 0.14689556
-0.0021853426 0.031590834 0.14829661
-0.0019294806 0.029527171 0.14990067
-0.0019901958 0.027205722 0.15169297
-0.0018578836 0.025022708 0.15406826
-0.001934953 0.022398205 0.15864918
-0.0022254256 0.020356763 0.15999681
-0.0023305898 0.017445352 0.16201943
-0.0020345584 0.01464237 0.16462985
-0.0022028401 0.012136872 0.16857691
-0.0025436466 0.0087245805 0.1705801
-0.0025559033 0.0066046119 0.17313214
-0.0032421548 0.0036409986 0.1739485
-0.0025630221 0.00087025628 0.17481735
-0.0025863003 -0.0037901164 0.17761232
-0.0003926197 0.032827951 0.14782348
0.00048775552 0.030741423 0.1489726
0.0001438067 0.028503427 0.15093085
0.0013706388 0.02646951 0.15264401
0.0014758689 0.024339793 0.15559186
0.00097588293 0.022197377 0.15828192
0.00041708007 0.020600723 0.16086757
-3.5766494e-05 0.018073197 0.16318797
0.00015294214 0.015460365 0.16545002
0.00068183721 0.012533176 0.16925587
0.00049010816 0.0093631325 0.17131165
0.00059750531 0.0069636391 0.17382915
0.0004234534 0.0045116008 0.17547888
0.00054968271 0.0019016992 0.17755678
0.00021599031 -0.0018424906 0.17924687
0.0020834005 0.034297634 0.14829467
0.0026772225 0.032191101 0.14981279
0.003277366 0.029901879 0.15166917
0.0043044691 0.026604507 0.15372138
0.0043260455 0.024469934 0.15568095
0.0038575206 0.022383533 0.15775518
0.0032941215 0.020342227 0.15957633
0.0026144236 0.01828403 0.16364282
0.0024427806 0.01581515 0.1661654
0.0039895335 0.012892019 0.1695691
0.0040977374 0.010075352 0.17157251
0.0039423853 0.0069888835 0.17360413
0.0038454831 0.0047351602 0.17556985
0.0032988521 0.002476149 0.1782555
0.0033198423 -0.00070904259 0.17994431
0.0048960056 0.035431687 0.14860412
0.005037202 0.033509921 0.15024941
0.0055881506 0.031389829 0.15171929
0.0063410411 0.026990473 0.1544169
0.0063345386 0.025076572 0.15693861
0.0063377633 0.022650229 0.15881187
0.0059094029 0.020342024 0.16064578
0.0053108837 0.01827429 0.16294023
0.0075881938 0.014845827 0.16757514
0.0070862868 0.012352995 0.17075944
0.006692471 0.0092336126 0.17189904
0.0066534914 0.0068681538 0.17444877
0.0061331857 0.0050436212 0.17676972
0.0062624854 0.002138091 0.1792891
0.0064343177 -0.00043347944 0.18156788
0.0071862168 0.036088835 0.14884071
0.0074761957 0.034275208 0.15064648
0.0080217393 0.032320753 0.15161394
0.0086794375 0.027901236 0.1566807
0.0082096718 0.025439322 0.15875308
0.0079727881 0.022572758 0.15976332
0.0076955645 0.020423576 0.16167887
0.010361525 0.016315669 0.16694836
0.0099676922 0.013838122 0.16883384
0.0098006064 0.011143867 0.17062022
0.0098171169 0.008923972 0.17207417
0.009360658 0.0070573343 0.17444792
0.0082735978 0.0048524141 0.1778091
0.010025773 0.00043207809 0.18087879
0.0093532233 -0.0017672169 0.18283969
0.0095874835 0.036307827 0.14906631
0.010056921 0.034369107 0.15019654
0.010603246 0.031767387 0.15284999
0.010647488 0.028329486 0.15766865
0.010467501 0.025551405 0.15913439
0.010435281 0.022699593 0.16033064
0.0097070793 0.019974032 0.16332811
0.012329376 0.01613418 0.16684474
0.012171487 0.013431415 0.16876182
0.012483101 0.010695305 0.17034325
0.012691776 0.0086281355 0.17257246
0.011632535 0.0072753909 0.17446586
0.011187258 0.0045354892 0.17863297
0.013968104 -0.00051997119 0.18027389
0.011949801 0.036333319 0.14823119
0.012800981 0.034035202 0.14927486
0.012784283 0.030349463 0.15482931
0.013742394 0.027613521 0.15845254
0.013229724 0.025433723 0.15961477
0.013071339 0.022339497 0.16228536
0.013348839 0.018215908 0.16582373
0.014473275 0.016068757 0.1667805
0.014661448 0.013360597 0.16863146
0.014477826 0.011000241 0.17030498
0.015270512 0.0089108925 0.1730675
0.013396788 0.0073600993 0.17485797
0.013701688 0.0042249225 0.17822629
0.015932307 -4.3533801e-05 0.17836353
0.014843665 0.036025211 0.1473767
0.01652848 0.034531586 0.15027936
0.015493967 0.029805329 0.15506747
0.015448933 0.025395293 0.16031021
0 0 0 1 0 0 0 1 0 0 0 1 0 0 0 0 0 239 1 0 0
