ply
format ascii 1.0
comment PCL generated
element vertex 239
property float x
property float y
property float z
element camera 1
property float view_px
property float view_py
property float view_pz
property float x_axisx
property float x_axisy
property float x_axisz
property float y_axisx
property float y_axisy
property float y_axisz
property float z_axisx
property float z_axisy
property float z_axisz
property float focal
property float scalex
property float scaley
property float centerx
property float centery
property int viewportx
property int viewporty
property float k1
property float k2
end_header
-0.027804224 0.03355005 0.14753889
-0.027114209 0.031219264 0.14733525
-0.026545495 0.028970551 0.14855045
-0.025919691 0.026551887 0.14970048
-0.025610685 0.024132872 0.15154219
-0.026896743 0.020905452 0.1545516
-0.030182883 0.0155376 0.15701711
-0.030660681 0.012765913 0.1581609
-0.030093916 0.0097663011 0.1589383
-0.029503604 0.0068524703 0.15904161
-0.03020611 0.0037622575 0.15899967
-0.031597517 0.00080366433 0.15970269
-0.031988408 -0.0017135974 0.15936232
-0.025686178 0.033803992 0.14689256
-0.024588346 0.031324018 0.1473942
-0.023881899 0.028997028 0.14799297
-0.023335582 0.026714731 0.14934503
-0.0232388 0.024312288 0.15111986
-0.023907574 0.021172417 0.153118
-0.024965199 0.017362775 0.15698673
-0.026137149 0.014257613 0.157875
-0.02622675 0.011105656 0.15896323
-0.0258638 0.0081128059 0.15945169
-0.025643652 0.0047843829 0.15985799
-0.028072571 0.0011552449 0.1600517
-0.02986877 -0.0023460123 0.16134417
-0.02731196 -0.0063759843 0.16264933
-0.022723664 0.033916362 0.14667179
-0.021255873 0.031525038 0.14766771
-0.021046013 0.029176418 0.14836659
-0.02109332 0.026945135 0.1498336
-0.020861095 0.024473688 0.15142715
-0.021597547 0.021280624 0.15439783
-0.022638513 0.017604202 0.15724038
-0.022932719 0.014636043 0.15784931
-0.023058278 0.011984763 0.15851511
-0.023405716 0.008768728 0.15998766
-0.023318909 0.0037150164 0.16234829
-0.024845192 0.00011968965 0.162608
-0.024972236 -0.0043703462 0.16370185
-0.023840941 -0.0064753587 0.1649674
-0.023209793 -0.0088197105 0.16643931
-0.018491298 0.033625014 0.14817312
-0.018605439 0.031518552 0.14882638
-0.018582134 0.029407751 0.14889209
-0.018764248 0.027212637 0.15090637
-0.018614136 0.02469169 0.15169629
-0.019109409 0.022052472 0.15453894
-0.020441176 0.018240647 0.15809442
-0.020005483 0.015146029 0.15845443
-0.020224325 0.012589526 0.15960795
-0.020512458 0.0073502846 0.1618263
-0.021876631 0.0027317235 0.16325255
-0.022478458 8.2004961e-05 0.16451956
-0.022702741 -0.0032717353 0.16529576
-0.021743285 -0.0053661759 0.16609766
-0.021446271 -0.0074507669 0.16824323
-0.015547548 0.033854507 0.14898327
-0.015904585 0.031488262 0.14926125
-0.015814761 0.029430127 0.14925806
-0.016311774 0.027094511 0.15174505
-0.01630979 0.024684731 0.15298659
-0.016725434 0.022239687 0.15494323
-0.017841252 0.01861766 0.15930378
-0.017640697 0.01602257 0.15935253
-0.017703669 0.013203248 0.16054383
-0.017882865 0.0074539809 0.16279757
-0.018587021 0.003514213 0.16435187
-0.019279707 0.00060458563 0.16603865
-0.01965069 -0.0023122027 0.16589133
-0.019292051 -0.0044260947 0.16724876
-0.018200334 -0.0069430857 0.1684158
-0.012578958 0.034235567 0.14927626
-0.012932874 0.031762756 0.14968273
-0.012971291 0.029448468 0.15067454
-0.013237243 0.027026379 0.15235075
-0.013762238 0.024828393 0.1535338
-0.014175856 0.022302043 0.15486911
-0.014593613 0.019531393 0.15857638
-0.014886533 0.016599221 0.15951778
-0.014922136 0.013363542 0.16110501
-0.016013928 0.0079451734 0.16364202
-0.017333843 0.0030712357 0.16533066
-0.01763995 0.00066613767 0.16591959
-0.017556867 -0.0011468544 0.16712803
-0.017383795 -0.0038006536 0.16723987
-0.015375207 -0.0063873492 0.16714369
-0.01021913 0.034454878 0.1487969
-0.010119963 0.032216482 0.14962554
-0.010285868 0.029722262 0.15115753
-0.01073419 0.026832528 0.15226276
-0.01049668 0.024776677 0.15343679
-0.010859576 0.022254474 0.15542777
-0.010128404 0.019455979 0.15777089
-0.011261439 0.016978171 0.15833792
-0.011217707 0.013697099 0.16123641
-0.011646506 0.01037109 0.16494046
-0.015087424 0.0037617013 0.1645844
-0.015060723 0.0014025157 0.1658144
-0.01541386 -0.0012006122 0.16638619
-0.014997468 -0.0031388067 0.16630051
-0.013152285 -0.0058205323 0.16687688
-0.0074159224 0.034516152 0.14862068
-0.0078968005 0.032037161 0.15002684
-0.0079987552 0.029435765 0.15144654
-0.0077554677 0.027217731 0.15166512
-0.00758436 0.024784056 0.15253539
-0.0074753896 0.02247989 0.15614241
-0.0073135048 0.019590661 0.15830922
-0.0074130669 0.016652836 0.1584297
-0.0075923479 0.013535593 0.16116384
-0.0071786125 0.010202456 0.16578521
-0.012218326 0.0043227756 0.16449368
-0.013106199 0.001784704 0.16571379
-0.013092778 -8.3561854e-06 0.1660562
-0.012371816 -0.0023014138 0.16612607
-0.011573706 -0.0046078321 0.16790102
-0.0046515316 0.034423254 0.14773358
-0.0053364853 0.031298507 0.15039192
-0.0057192976 0.029388977 0.15108341
-0.0051100925 0.027061839 0.15200409
-0.0049667759 0.024461741 0.15390703
-0.0043633357 0.021977656 0.15835297
-0.004889566 0.019868057 0.1591398
-0.0051132841 0.016860677 0.15969509
-0.0047938293 0.013497787 0.16271801
-0.004603893 0.01065351 0.1659537
-0.0052037914 0.0061288509 0.16745825
-0.0091764955 0.003416355 0.16604127
-0.010173886 0.00051987334 0.16565825
-0.010082518 -0.0016953119 0.1657936
-0.0068664602 -0.0059263897 0.17080483
-0.0022908798 0.034089696 0.14764096
-0.0028735264 0.03135797 0.14903401
-0.0021738966 0.02906435 0.14995757
-0.0023517883 0.026680877 0.15136035
-0.0021361986 0.024385659 0.15372385
-0.0021379609 0.021881601 0.15857294
-0.0024426046 0.019878235 0.15981194
-0.0023998511 0.01687601 0.16125903
-0.0020341452 0.013684088 0.16332735
-0.001847917 0.010670112 0.16769472
-0.0020217488 0.0072625885 0.16928007
-0.0019885686 0.0047726668 0.17156583
-0.0028391494 0.0018510555 0.17187561
-0.0024159609 -0.00072149414 0.17282762
-0.0027075608 -0.0057150018 0.17548762
-0.00033935628 0.032303721 0.14813271
0.00083500915 0.030332297 0.14900459
0.00024579512 0.028010782 0.15078512
0.0019027905 0.02595396 0.15254176
0.0018810995 0.023832111 0.15565825
0.0010082801 0.02169122 0.15829547
0.00034798766 0.019895611 0.16056725
8.2099388e-05 0.01692464 0.16209657
0.00023217256 0.0140226 0.16363215
0.00099519908 0.01102229 0.16835269
0.00096082938 0.0078246128 0.17019993
0.0010334119 0.0050849067 0.17223538
0.00081782887 0.002503047 0.17358632
0.00087239675 -0.00018092821 0.17559594
0.00045795119 -0.0041322079 0.1768427
0.0022036321 0.034191113 0.14840218
0.0029431311 0.031988326 0.14978847
0.0036804832 0.029472893 0.15150693
0.0048488011 0.026078418 0.15398909
0.0047774562 0.024161721 0.15583444
0.0040097935 0.022057386 0.15770952
0.0033617506 0.020012032 0.15937348
0.0026007337 0.017045997 0.16258234
0.0024906294 0.014119273 0.1640292
0.0044065523 0.011277596 0.16861415
0.0046478864 0.0084138196 0.17018481
0.0045230142 0.0051417849 0.17202723
0.0043750987 0.0025608372 0.17383376
0.0036140133 0.00020909161 0.17630692
0.0036368812 -0.0030694229 0.17777006
0.0050833342 0.035506628 0.14846748
0.0053064465 0.033444423 0.15006173
0.005911774 0.031170825 0.15147944
0.0068182321 0.026239878 0.15438324
0.0066876966 0.02461203 0.15680493
0.0063742544 0.022600394 0.15901913
0.0058639152 0.020099539 0.16074745
0.0051573594 0.0176952 0.16245945
0.0078751901 0.013539892 0.1671392
0.0074647716 0.010914601 0.16973722
0.0073732841 0.0078888908 0.17087598
0.0074010896 0.0052779592 0.17339335
0.006809534 0.0031875933 0.17541689
0.0062998985 0.00014667063 0.17790546
0.0063755265 -0.0024159253 0.18003534
0.0074736536 0.036312379 0.14845797
0.0078371009 0.034342274 0.15020786
0.0083955461 0.032320958 0.15109564
0.0088633252 0.027371416 0.15607624
0.008229319 0.025467932 0.15857263
0.0077622915 0.022666225 0.1600748
0.0074840337 0.020278942 0.16181107
0.010544152 0.015069364 0.16660789
0.010122741 0.012597173 0.16835146
0.010216136 0.010170683 0.16998839
0.010490884 0.0080424594 0.17162971
0.01004195 0.0060510659 0.17385405
0.0086640781 0.0035312278 0.17690413
0.0097799366 -8.7127257e-05 0.1808342
0.0089115687 -0.00241601 0.18212453
0.010001092 0.036617782 0.14856356
0.010502605 0.034620341 0.14948812
0.011096695 0.031465191 0.15186764
0.010605326 0.028057348 0.15698984
0.010211486 0.025663877 0.15906967
0.010162485 0.022836065 0.16062166
0.0094172172 0.01980943 0.16344124
0.012484956 0.0151325 0.16657379
0.012397494 0.012528418 0.16852027
0.012832033 0.010272707 0.17019819
0.013224944 0.0086086234 0.17266794
0.011962876 0.0069307163 0.17447264
0.011071129 0.0043278388 0.17854342
0.013932791 0.00056309853 0.18184221
0.01248512 0.036854494 0.14771909
0.013423639 0.034531597 0.14850658
0.013211838 0.029772026 0.1544107
0.013917382 0.027748002 0.15803526
0.013084228 0.025689438 0.15934594
0.012913729 0.021968774 0.16232157
0.01350941 0.017178489 0.1656945
0.014600849 0.015273836 0.16674033
0.014804317 0.012858059 0.16872066
0.014607799 0.010825406 0.17038804
0.015494116 0.0095142405 0.17338067
0.013385238 0.0075787767 0.17514825
0.01332398 0.0048664911 0.17900325
0.016230822 0.001640646 0.1805834
0.015497508 0.036771748 0.14688359
0.017514538 0.034998216 0.14963926
0.015927017 0.029714176 0.15472928
0.015499178 0.025756525 0.16000722
0 0 0 1 0 0 0 1 0 0 0 1 0 0 0 0 0 239 1 0 0
