ply
format ascii 1.0
comment PCL generated
element vertex 239
property float x
property float y
property float z
element camera 1
property float view_px
property float view_py
property float view_pz
property float x_axisx
property float x_axisy
property float x_axisz
property float y_axisx
property float y_axisy
property float y_axisz
property float z_axisx
property float z_axisy
property float z_axisz
property float focal
property float scalex
property float scaley
property float centerx
property float centery
property int viewportx
property int viewporty
property float k1
property float k2
end_header
-0.024477787 0.034705706 0.14563009
-0.024298923 0.032358341 0.14581446
-0.024509568 0.030446326 0.14769448
-0.024708375 0.028342664 0.14955829
-0.024866875 0.026267579 0.15153249
-0.025507318 0.024161689 0.15563138
-0.026595689 0.022131698 0.16094196
-0.027185064 0.019884536 0.16354549
-0.027318845 0.017249381 0.16453846
-0.027307712 0.014302394 0.16570643
-0.027457485 0.011491901 0.16681425
-0.027834969 0.0088123651 0.1687022
-0.02784487 0.0060287607 0.16869061
-0.02202264 0.034702547 0.14514427
-0.021874601 0.032475028 0.14619799
-0.022064485 0.030489435 0.14806812
-0.022168214 0.028357282 0.14963281
-0.022277908 0.026129447 0.15148494
-0.022704758 0.024027683 0.15448095
-0.02329739 0.021619257 0.15859112
-0.023719445 0.019333513 0.16100943
-0.024039559 0.017052665 0.16327199
-0.024202149 0.014282408 0.16474354
-0.024302071 0.011440233 0.1659845
-0.024933681 0.0088782879 0.16845247
-0.025380431 0.0060559423 0.17063354
-0.025387391 0.0034198447 0.17339431
-0.019410476 0.034876648 0.14547855
-0.019524598 0.032837126 0.14750972
-0.019574635 0.030573692 0.14843385
-0.01971571 0.028426118 0.15010333
-0.01977428 0.026239397 0.15157591
-0.020126026 0.024133179 0.1549716
-0.020736214 0.021673227 0.15907644
-0.021008831 0.019213052 0.16093116
-0.02112818 0.01697609 0.16285549
-0.021474505 0.014402889 0.16537575
-0.021757275 0.011421451 0.16823818
-0.021820335 0.0083675785 0.17046964
-0.022201249 0.005640713 0.17287195
-0.022115909 0.0027429394 0.17369133
-0.022090904 -0.00039277674 0.17412466
-0.016838379 0.035021137 0.14662872
-0.017091267 0.032939598 0.14807826
-0.017006937 0.03059628 0.148395
-0.01723787 0.02870054 0.15084833
-0.017282447 0.026525583 0.1520604
-0.017593376 0.024241488 0.1550376
-0.018092852 0.021953354 0.15946965
-0.018130189 0.019158877 0.16026939
-0.018361242 0.016798185 0.16276999
-0.018389121 0.014121136 0.16619976
-0.018754276 0.010925086 0.17013468
-0.018905029 0.0081348047 0.1713914
-0.019481568 0.005661211 0.17410077
-0.019527115 0.0027117392 0.17523955
-0.019777361 -0.00026535022 0.17606424
-0.014219194 0.035061419 0.14663531
-0.014492129 0.03294884 0.14798859
-0.014350258 0.030591624 0.14828064
-0.014775196 0.028849479 0.15113279
-0.014824484 0.026726611 0.15310074
-0.015037374 0.02451501 0.15548286
-0.015387802 0.022242725 0.16030623
-0.015368675 0.019374548 0.16054314
-0.015592939 0.01676921 0.16293973
-0.015561732 0.014003725 0.16628589
-0.015452486 0.010776374 0.16970851
-0.016109878 0.0082870526 0.1727857
-0.016868507 0.0056904159 0.17657365
-0.017007263 0.0026732213 0.17729189
-0.016480837 -0.00056232314 0.17592464
-0.011869984 0.035248857 0.14683819
-0.011978615 0.033048321 0.14810836
-0.011964527 0.031019138 0.1496661
-0.01206062 0.028914079 0.15194862
-0.012200829 0.026808426 0.15350769
-0.012363691 0.024485838 0.15572497
-0.012569956 0.022297757 0.1594023
-0.012637578 0.019528603 0.16073383
-0.012768214 0.016772348 0.16269194
-0.012878263 0.013953306 0.16698794
-0.013271932 0.010797827 0.17226543
-0.013894993 0.0084605226 0.17533007
-0.014023732 0.0056800912 0.17789331
-0.014214672 0.0027268906 0.1774123
-0.012935121 -0.001029517 0.17516114
-0.0095450487 0.035259522 0.14679128
-0.0095205065 0.033273596 0.148146
-0.0094630038 0.031284656 0.15046787
-0.0096739633 0.028759673 0.15230833
-0.0095099136 0.026547238 0.1539695
-0.0096512465 0.024397042 0.15617132
-0.009647999 0.022127725 0.15928286
-0.0097112441 0.019333439 0.15966009
-0.0099029345 0.016630637 0.16268511
-0.010312104 0.014267405 0.16708989
-0.010576068 0.010663823 0.1729138
-0.010916792 0.0084311916 0.17593521
-0.010950836 0.0053675817 0.17642196
-0.010933652 0.0024568082 0.17616226
-0.010533287 -0.00070197193 0.1756953
-0.0069132629 0.03543577 0.14705561
-0.0070383255 0.033305861 0.1485839
-0.0070300302 0.031174729 0.15077505
-0.0068847514 0.028600767 0.1517563
-0.0068446416 0.026354782 0.15338917
-0.0069328775 0.024534438 0.1568944
-0.0070304228 0.021981535 0.15992695
-0.0069297622 0.019072548 0.16003655
-0.007234558 0.016567653 0.16329984
-0.0077552306 0.014154311 0.16776741
-0.007584332 0.010375447 0.17213808
-0.0080769742 0.0081776874 0.17554845
-0.0082264356 0.0054964824 0.17676789
-0.0080848848 0.0025228648 0.17710203
-0.0083192503 -3.1030606e-05 0.17925926
-0.0044530858 0.035324112 0.14721397
-0.0044874297 0.033141516 0.14899664
-0.0044086925 0.031199288 0.15063567
-0.0042007361 0.028758209 0.15275092
-0.0043020775 0.026703905 0.15532584
-0.0043273638 0.024905568 0.15993558
-0.0043707783 0.022148319 0.16089535
-0.0044340431 0.019422386 0.16182093
-0.0047210045 0.016832542 0.16478428
-0.0049572997 0.014436223 0.16842262
-0.0049102055 0.010970679 0.17255878
-0.0051624221 0.0086937081 0.17600331
-0.005241151 0.005859619 0.17722648
-0.0053030481 0.002810685 0.17750761
-0.0047858423 -0.00029419622 0.18021785
-0.0019551448 0.035311848 0.14750703
-0.0020253251 0.032924909 0.14875887
-0.0017214518 0.030515628 0.15021995
-0.001614517 0.028414914 0.15222521
-0.0016205917 0.026517516 0.15501276
-0.0016002503 0.025041217 0.15973999
-0.0017003567 0.022266472 0.16097927
-0.0018817629 0.019655805 0.16331849
-0.0018384247 0.017355992 0.16586164
-0.0020360288 0.014558159 0.17009702
-0.0020585996 0.011499363 0.17343205
-0.0020622741 0.0093664136 0.17626917
-0.0020954551 0.0066710473 0.17785607
-0.001988193 0.0036108207 0.17787293
-0.0015943751 1.0347397e-05 0.18141623
6.7215791e-05 0.03359342 0.14758885
0.00032199023 0.031271607 0.14882365
0.00047241096 0.029172378 0.15077588
0.0010310146 0.028339524 0.15340145
0.001060881 0.026639624 0.15661529
0.0010597404 0.02476763 0.15928887
0.0010377648 0.022380503 0.16169444
0.00083899812 0.019895297 0.16387202
0.00086669141 0.017529231 0.16630653
0.0010078524 0.01480418 0.1704188
0.00080051762 0.012040065 0.17359258
0.00095271523 0.0094485488 0.17585264
0.00090383895 0.0065898164 0.17703164
0.00097211316 0.003650693 0.17833732
0.0012233529 0.00043231266 0.18051438
0.0025949113 0.034013472 0.14808974
0.0026761347 0.031785917 0.14963923
0.0030003404 0.029569449 0.15104628
0.0037154967 0.028114682 0.15378067
0.0037396499 0.026360018 0.15652584
0.0037482628 0.024350327 0.15881293
0.003697668 0.022031398 0.16030917
0.0036921427 0.019749438 0.16366099
0.0036547761 0.017581955 0.16670713
0.0039915033 0.015052243 0.17062302
0.0038199038 0.012415447 0.17383108
0.0038539558 0.0094964588 0.17464182
0.0039252592 0.0066175042 0.17514129
0.0039459001 0.003800153 0.17787422
0.0041810181 0.00056962925 0.17883709
0.0052146935 0.034243792 0.14777674
0.0052235294 0.032209754 0.14959754
0.0055575944 0.030010886 0.15101963
0.0062526255 0.02833445 0.15403943
0.0062025408 0.026595052 0.15774393
0.0062236954 0.024521137 0.15995659
0.0062273648 0.022221183 0.16162622
0.006212296 0.019948829 0.16365698
0.0069675324 0.017776707 0.16698645
0.0068250699 0.01513255 0.17172784
0.0067505753 0.012228669 0.1733184
0.0068061855 0.0096227136 0.17423929
0.0066884728 0.0067718239 0.17601053
0.0070863552 0.0036675066 0.17827605
0.0071491213 0.00038637628 0.18015911
0.0075964374 0.034706172 0.14832711
0.0077341027 0.032697115 0.15047771
0.0080675092 0.030343153 0.15087338
0.0091144629 0.028748181 0.15603147
0.0088787824 0.026868938 0.15931652
0.008889501 0.024627296 0.16067119
0.0085941302 0.022883629 0.16350153
0.0097555267 0.020576663 0.16698614
0.0097161448 0.017990239 0.16868593
0.0096523874 0.015158359 0.17154165
0.0097701568 0.012311656 0.17250742
0.0095504019 0.009965674 0.17369005
0.0094875628 0.0066386601 0.17671874
0.010303493 0.002597749 0.17996246
0.010216082 -0.00043662687 0.18154708
0.010150132 0.034953021 0.1484644
0.010385308 0.032916442 0.15006486
0.010556022 0.030689679 0.15246886
0.011747829 0.028927954 0.15697242
0.0115941 0.02684908 0.15953076
0.011692657 0.024771975 0.16078882
0.011183407 0.022833534 0.16379274
0.012407565 0.020621087 0.16743796
0.012427384 0.017988335 0.16921866
0.012553495 0.015119841 0.17042406
0.012677474 0.012170617 0.17162305
0.012122258 0.0099785812 0.17336519
0.012659827 0.0061009778 0.1771816
0.013540171 0.0019296848 0.17901613
0.012772441 0.035055097 0.14750668
0.013087863 0.032946639 0.14946179
0.013646831 0.031236589 0.15404679
0.014167547 0.029353486 0.15867245
0.014186328 0.027217932 0.16008821
0.014366997 0.024982793 0.16136797
0.014398401 0.022627605 0.1652098
0.015082388 0.020496052 0.16742106
0.015192557 0.017985508 0.16907336
0.015271123 0.015234725 0.1703864
0.015415872 0.01223642 0.17139114
0.014863211 0.0097875567 0.17366432
0.01536134 0.0059218765 0.17569429
0.015475391 0.0023104467 0.17581114
0.015391245 0.035059702 0.14674838
0.015628442 0.033042904 0.14963165
0.016007697 0.031499468 0.15503915
0.01642956 0.027610084 0.16047443
0 0 0 1 0 0 0 1 0 0 0 1 0 0 0 0 0 239 1 0 0
