ply
format ascii 1.0
comment PCL generated
element vertex 354
property float x
property float y
property float z
element camera 1
property float view_px
property float view_py
property float view_pz
property float x_axisx
property float x_axisy
property float x_axisz
property float y_axisx
property float y_axisy
property float y_axisz
property float z_axisx
property float z_axisy
property float z_axisz
property float focal
property float scalex
property float scaley
property float centerx
property float centery
property int viewportx
property int viewporty
property float k1
property float k2
end_header
-0.055968966 0.028016631 0.18739434
-0.056899365 0.025143115 0.18972053
-0.05751827 0.021752276 0.19216125
-0.058008097 0.018027844 0.1939456
-0.058076207 0.014858059 0.19512685
-0.052139211 0.032754436 0.18332401
-0.052853554 0.030960821 0.18411045
-0.053223729 0.028300416 0.18506496
-0.053560667 0.025633382 0.18676367
-0.054313514 0.022495072 0.18954481
-0.055285055 0.018376617 0.19187823
-0.056123365 0.014634589 0.19366941
-0.056505941 0.01112193 0.19492362
-0.055805147 0.0074582752 0.19663192
-0.049008891 0.035528198 0.18077222
-0.049451049 0.033671409 0.1814682
-0.049625155 0.031153522 0.18204325
-0.049869109 0.028302509 0.18313448
-0.050230917 0.025681341 0.18526989
-0.051071335 0.022450354 0.18832079
-0.051493555 0.018948359 0.18982746
-0.05259705 0.015205354 0.19143619
-0.053330742 0.010872698 0.19409285
-0.052814689 0.0049252375 0.19809619
-0.052293841 -0.000723976 0.19897674
-0.051847294 -0.0044927793 0.19973847
-0.046807028 0.036462665 0.17943782
-0.046733622 0.034057118 0.18050978
-0.046570927 0.031364642 0.18156946
-0.046611659 0.028309943 0.18283382
-0.047108743 0.025570322 0.18446356
-0.047854867 0.022473361 0.18701218
-0.048154861 0.019140683 0.18822406
-0.048828207 0.01548945 0.19005814
-0.049961217 0.010371516 0.1931747
-0.049200825 0.0030784388 0.19634452
-0.048825253 -0.0022622247 0.1974877
-0.048683755 -0.0054316772 0.20018113
-0.04922498 -0.0077737863 0.20253207
-0.050943837 -0.0085744802 0.20430961
-0.043902878 0.039221749 0.17892905
-0.044083014 0.037241541 0.17981367
-0.043952655 0.034742404 0.18102528
-0.043741286 0.031983014 0.18244736
-0.043796115 0.029064009 0.18367332
-0.044194773 0.02594302 0.18453871
-0.044897038 0.022512522 0.1862198
-0.045169242 0.01919158 0.1870133
-0.045503389 0.015456966 0.18861344
-0.046196215 0.0097469343 0.19168101
-0.04646254 0.0031692879 0.1943801
-0.045831673 -0.0024224729 0.1964539
-0.045633603 -0.0046497597 0.20041734
-0.046357952 -0.0066250437 0.20302206
-0.048767615 -0.008908215 0.20559125
-0.050940223 -0.011310867 0.20941836
-0.052218542 -0.012620018 0.21387352
-0.0524536 -0.014034491 0.21735355
-0.04135596 0.040258627 0.17909555
-0.041355584 0.037848666 0.18059264
-0.041171134 0.035353981 0.18187979
-0.041117225 0.032849882 0.18316647
-0.041358277 0.029832156 0.18429875
-0.041434176 0.026358869 0.18540071
-0.041869044 0.022601258 0.18626904
-0.042016789 0.019103454 0.18654843
-0.042564921 0.015240218 0.18765911
-0.042927034 0.010481467 0.1901343
-0.043394655 0.0038648655 0.19283894
-0.042750623 -0.0010006496 0.19481452
-0.042244036 -0.0036010784 0.19905213
-0.042542215 -0.0062943958 0.20249601
-0.045409422 -0.0091190077 0.20653225
-0.048042182 -0.010737905 0.21068029
-0.049265519 -0.012299793 0.21477094
-0.050261647 -0.014122137 0.21816221
-0.050630938 -0.016467631 0.22210947
-0.050193716 -0.018663976 0.22528824
-0.03804341 0.042638369 0.17813468
-0.038348615 0.040969316 0.17971422
-0.038457997 0.03853707 0.18137267
-0.03841332 0.036230039 0.18273653
-0.038293906 0.033563506 0.18432941
-0.038534619 0.030405296 0.18545446
-0.038395479 0.026938263 0.18605834
-0.038678322 0.022919368 0.18690565
-0.039002884 0.019327622 0.1872447
-0.039034009 0.015497109 0.18789767
-0.039600886 0.01079745 0.18991266
-0.040542174 0.0051712845 0.19240455
-0.03972527 0.00055403379 0.19396052
-0.038909268 -0.0025754857 0.1969799
-0.039243679 -0.0056172744 0.20255022
-0.042152319 -0.0093836384 0.20747177
-0.044836119 -0.010523671 0.21136364
-0.045821346 -0.012064149 0.2154576
-0.046701424 -0.014493155 0.21886469
-0.046699513 -0.017149994 0.22180511
-0.046896707 -0.019817699 0.22454453
-0.046640936 -0.021952093 0.22701402
-0.035032701 0.043143712 0.17858151
-0.035118449 0.041556872 0.18009345
-0.035210002 0.039132722 0.18199387
-0.035439827 0.036771651 0.1836118
-0.034938749 0.033721544 0.1848202
-0.034971446 0.030165499 0.1862331
-0.035176128 0.026908526 0.18727638
-0.035526764 0.02336782 0.18813331
-0.036050655 0.019641755 0.18850337
-0.036093809 0.015687287 0.18951775
-0.036691405 0.011114256 0.19096193
-0.037642363 0.0059258579 0.19319195
-0.037620038 0.0021525647 0.19475856
-0.036679056 -0.0014383871 0.19710335
-0.036767568 -0.0050742417 0.20257731
-0.039634977 -0.0094381273 0.20832911
-0.041549709 -0.010722848 0.21201465
-0.042176712 -0.012400673 0.21592496
-0.042589188 -0.015021891 0.21897726
-0.042662974 -0.017797785 0.22168867
-0.042470936 -0.020472208 0.22378744
-0.042644877 -0.023123944 0.22635476
-0.031395383 0.043726467 0.17930207
-0.031458803 0.042013194 0.18038508
-0.031524826 0.039454874 0.1822111
-0.03156196 0.036741022 0.18467484
-0.031738393 0.033577058 0.18601424
-0.031713497 0.030175228 0.18767901
-0.031728767 0.026914977 0.18891339
-0.031978857 0.023574427 0.18979608
-0.033023842 0.020202633 0.18980074
-0.033232808 0.016011614 0.19077501
-0.033664949 0.011546547 0.19210073
-0.034863021 0.0063580344 0.19458975
-0.035067156 0.0027276343 0.19651431
-0.034750115 -0.00026696324 0.19896592
-0.035539202 -0.004306748 0.20473713
-0.037322953 -0.0081502562 0.20930947
-0.038496792 -0.010443053 0.21258865
-0.039146509 -0.012540412 0.21641755
-0.039173454 -0.015068888 0.21953809
-0.039004412 -0.017773969 0.22199219
-0.038796064 -0.020551926 0.22343008
-0.03901371 -0.023365118 0.22583191
-0.02798746 0.044188842 0.17978258
-0.027833508 0.042379569 0.18087788
-0.027878191 0.039782558 0.18275204
-0.028306415 0.036895532 0.18603241
-0.028794972 0.033736814 0.18780851
-0.028728694 0.030550379 0.18926893
-0.028458653 0.027364312 0.18995775
-0.02818392 0.024319893 0.19102645
-0.028286111 0.020833289 0.19219005
-0.029878249 0.016788781 0.19280705
-0.031043649 0.010918783 0.1939178
-0.031659126 0.0067371484 0.19657615
-0.031042133 0.0034506323 0.19906552
-0.031150004 5.9141141e-05 0.20242964
-0.032272708 -0.003097913 0.2069706
-0.033861365 -0.0065591605 0.21049339
-0.035182979 -0.0095021576 0.21364419
-0.036458001 -0.011823777 0.21764961
-0.035771362 -0.014480279 0.22032098
-0.035577722 -0.017143162 0.22283976
-0.035368972 -0.020230191 0.22455753
-0.034883637 -0.023568753 0.22764355
-0.034023244 -0.026060864 0.23008196
-0.024511151 0.044383958 0.18063909
-0.02455103 0.04275053 0.18171741
-0.024341799 0.040074572 0.18327507
-0.024889484 0.037414085 0.18620718
-0.025787953 0.03437217 0.18870184
-0.025716385 0.03111897 0.19039685
-0.025361609 0.028059157 0.191245
-0.02498976 0.024661815 0.1927586
-0.02463555 0.021547658 0.19444999
-0.025794065 0.017766856 0.19552222
-0.026569717 0.012501391 0.19769144
-0.026793415 0.0080653122 0.19925696
-0.02702282 0.0042160144 0.20166691
-0.027694449 0.00090028619 0.20486639
-0.029017998 -0.0020400395 0.20844217
-0.030440234 -0.0052037826 0.21211238
-0.031702228 -0.0081533855 0.21549053
-0.032454956 -0.010383496 0.22003344
-0.031663079 -0.013373711 0.22198045
-0.031504899 -0.016543828 0.22516015
-0.030903894 -0.019957464 0.22722469
-0.030629801 -0.023409266 0.229057
-0.030441565 -0.027021334 0.2309369
-0.021301035 0.044771608 0.18106934
-0.021272771 0.043045744 0.18210854
-0.021216746 0.04032271 0.18341272
-0.021223759 0.037785374 0.18521659
-0.022037383 0.034967087 0.18892469
-0.02236373 0.032023795 0.19146076
-0.022163954 0.028913936 0.1928699
-0.021766061 0.025705745 0.19455753
-0.022025721 0.022076329 0.1964291
-0.022932352 0.018097403 0.19827065
-0.023243265 0.013644137 0.20000345
-0.02326563 0.009501067 0.20183259
-0.023881502 0.0054924968 0.20392063
-0.024430096 0.001884748 0.20690393
-0.025745099 -0.0011737434 0.21033885
-0.026833475 -0.0041853194 0.21371844
-0.027611308 -0.0071999538 0.21732259
-0.027235206 -0.010020122 0.22201726
-0.027506849 -0.012929561 0.2240151
-0.027012713 -0.016166098 0.22737244
-0.026608149 -0.019900739 0.22857219
-0.026400544 -0.023638139 0.22976071
-0.026608644 -0.027207805 0.23200901
-0.018531647 0.042953733 0.1828807
-0.018099286 0.040650863 0.18431623
-0.018113699 0.037890546 0.18547705
-0.018408529 0.035073772 0.18880084
-0.018906374 0.032354493 0.19189222
-0.01898532 0.029524015 0.19364189
-0.018983496 0.026385587 0.19601157
-0.019450665 0.022308785 0.19785312
-0.020028846 0.018326124 0.19989812
-0.020201692 0.014288443 0.20181461
-0.020201815 0.010449596 0.20355117
-0.020753765 0.0067069768 0.20642295
-0.021314876 0.0029733519 0.20871863
-0.022353821 -0.00070750387 0.21271843
-0.023064712 -0.0038539974 0.21596202
-0.023533702 -0.0070484714 0.21914364
-0.02318581 -0.0097410306 0.2233749
-0.023222409 -0.012847734 0.22504674
-0.023253594 -0.016202861 0.2278738
-0.022537904 -0.019822223 0.22894655
-0.022522729 -0.02352176 0.22907789
-0.022844231 -0.027556077 0.23369355
-0.015286071 0.040817417 0.18493639
-0.01508793 0.038120296 0.18642348
-0.015144619 0.035217851 0.18892226
-0.015271832 0.03243272 0.19187321
-0.015454688 0.029662957 0.1941528
-0.01555148 0.026595036 0.1975784
-0.016557787 0.022129083 0.19992428
-0.016662614 0.018443961 0.20170708
-0.016790496 0.014853534 0.20304382
-0.016885044 0.011121297 0.20460936
-0.017379692 0.0075356192 0.20804901
-0.017513908 0.0047435104 0.21113378
-0.018366145 0.0010592213 0.21451972
-0.019487984 -0.0034147976 0.21777938
-0.019938158 -0.0067353733 0.22138879
-0.019589894 -0.0094922623 0.22457699
-0.019320579 -0.012827948 0.22592904
-0.019343944 -0.016301943 0.22861627
-0.018887632 -0.019778723 0.22918195
-0.018732779 -0.023615548 0.23072588
-0.019105775 -0.028307173 0.23732089
-0.012496615 0.038074411 0.18769823
-0.011961609 0.035639133 0.18967816
-0.011964026 0.032686163 0.19246808
-0.01199669 0.029857935 0.19499245
-0.012257541 0.026611749 0.19821037
-0.012954319 0.022644397 0.20151426
-0.012952 0.01916397 0.20337243
-0.013096458 0.015526232 0.20465475
-0.013811311 0.011724248 0.20666912
-0.013816386 0.0083801784 0.2099272
-0.014179098 0.0053972257 0.21249805
-0.014373192 0.0024284825 0.21563798
-0.015597557 -0.0027650206 0.21904737
-0.016235523 -0.0062029483 0.22262767
-0.016061235 -0.0090470612 0.22509083
-0.015587476 -0.01219043 0.22717345
-0.015711488 -0.015458292 0.23001769
-0.015509983 -0.019352604 0.23136491
-0.015173407 -0.023798116 0.23448361
-0.015534576 -0.028606882 0.24053818
-0.0095952358 0.035277873 0.19073863
-0.008908106 0.033034511 0.19342072
-0.0088011129 0.030193355 0.19633691
-0.009000849 0.027032722 0.19946137
-0.0095120799 0.023689272 0.20272441
-0.0096001718 0.020104736 0.2050868
-0.0096239764 0.016527837 0.20691353
-0.010363351 0.012605657 0.20885235
-0.010276026 0.0090074828 0.21101692
-0.01032791 0.0058491668 0.21396713
-0.010198159 0.002791821 0.21683265
-0.010488892 -0.0011836658 0.2198534
-0.011855125 -0.0053060818 0.22337833
-0.011529432 -0.0082615372 0.22592564
-0.011568825 -0.011510997 0.22881404
-0.011906854 -0.015137637 0.2316145
-0.011937735 -0.018920809 0.23375054
-0.011611732 -0.023842687 0.23734616
-0.012017298 -0.027604163 0.24152768
-0.0058529298 0.032852139 0.19633888
-0.0058353692 0.030490927 0.19866593
-0.0059470963 0.027348965 0.20202293
-0.0062233815 0.024141148 0.20442933
-0.0063400092 0.020740956 0.20631422
-0.0062481398 0.01679807 0.20825981
-0.0065050195 0.012890968 0.209815
-0.0064896587 0.0094444891 0.21152885
-0.0064996695 0.006210559 0.21434323
-0.0066958875 0.0029381528 0.21739841
-0.0066692354 -0.00063533848 0.22045876
-0.0067785447 -0.0045750979 0.22368057
-0.0070352992 -0.0081581026 0.22682554
-0.0076393499 -0.011637808 0.22942704
-0.0078882957 -0.015078771 0.23179556
-0.0080607729 -0.018772051 0.23510978
-0.0083289556 -0.022691201 0.23740201
-0.0034637055 0.032491587 0.19857095
-0.0027928124 0.030501137 0.19998445
-0.0026762071 0.027368095 0.20251088
-0.0026906417 0.024216207 0.20463209
-0.0027141524 0.020822162 0.20627818
-0.0029619834 0.016954143 0.20849144
-0.0030287243 0.013117964 0.21046807
-0.0028771751 0.0095663369 0.2121104
-0.0029462385 0.0064638518 0.21471611
-0.0030127186 0.0030962958 0.21724448
-0.003111569 -0.00067215652 0.22120538
-0.0029632533 -0.0043147211 0.2232331
-0.0032516492 -0.0081797084 0.22648241
-0.0036140892 -0.011617093 0.22882138
-0.0045042657 -0.014695917 0.2310275
-4.61085e-05 0.02993618 0.20097442
0.00061977527 0.027593926 0.20296887
0.0005093356 0.024309736 0.20473172
0.00068610185 0.02111127 0.20626225
0.00056523253 0.017221883 0.20781986
0.00055851246 0.013462164 0.20956248
0.00053943531 0.0099652875 0.21188158
0.00054494076 0.0066970224 0.2144444
0.00078715902 0.0033773656 0.21605799
0.00062360644 -0.00025109426 0.22007069
0.00097915146 -0.0039984435 0.22260143
0.00018090822 -0.0077157272 0.22579756
-0.0011248407 -0.010639556 0.22888488
0.0034437033 0.027376516 0.20386337
0.0038509804 0.024671372 0.20467497
0.0041716401 0.021419255 0.20600878
0.0040138559 0.01728406 0.20718224
0.0040158131 0.013509018 0.20860086
0.0038836852 0.010118308 0.21059279
0.0035473325 0.0065951571 0.21390748
0.0032584367 0.0035730898 0.21576591
0.0031082057 -5.0420935e-05 0.21918835
0.0031757869 -0.0029798083 0.22182979
0.0056497985 0.024631094 0.20513956
0.0062530455 0.02114217 0.20587984
0.0061454452 0.017363289 0.206789
0.0060364115 0.013152239 0.20879586
0 0 0 1 0 0 0 1 0 0 0 1 0 0 0 0 0 354 1 0 0
