ply
format ascii 1.0
comment PCL generated
element vertex 354
property float x
property float y
property float z
element camera 1
property float view_px
property float view_py
property float view_pz
property float x_axisx
property float x_axisy
property float x_axisz
property float y_axisx
property float y_axisy
property float y_axisz
property float z_axisx
property float z_axisy
property float z_axisz
property float focal
property float scalex
property float scaley
property float centerx
property float centery
property int viewportx
property int viewporty
property float k1
property float k2
end_header
-0.056651149 0.026461631 0.18862695
-0.057242129 0.023625562 0.19072953
-0.057921041 0.020318199 0.19323729
-0.058389742 0.016772291 0.19498889
-0.058174834 0.013638631 0.19623564
-0.052933831 0.03108706 0.18450934
-0.053562701 0.029294755 0.18520604
-0.053989615 0.026624722 0.18621814
-0.054295264 0.023950901 0.18773752
-0.054930501 0.020953692 0.19051273
-0.055804674 0.017055361 0.19301431
-0.056633681 0.013046786 0.19505046
-0.056783639 0.0097148269 0.19626287
-0.055652369 0.0058694752 0.19836383
-0.049878806 0.033938963 0.18199372
-0.050257139 0.032138191 0.18264315
-0.050456621 0.029609803 0.18314695
-0.050589025 0.02680386 0.18398021
-0.051002994 0.023960793 0.18574972
-0.051733129 0.020799212 0.18883644
-0.052097704 0.017440721 0.19073932
-0.053122211 0.013795565 0.19258714
-0.053806048 0.0094305631 0.19534613
-0.052785546 0.0031685184 0.1998049
-0.051896874 -0.0025134245 0.20073044
-0.05086356 -0.0066808672 0.20165184
-0.047860522 0.034904536 0.18072869
-0.047686994 0.03248667 0.18156134
-0.047463723 0.029866926 0.18231843
-0.047374692 0.026850995 0.18330768
-0.047955737 0.023943139 0.1848167
-0.048506688 0.020724457 0.18733501
-0.048670109 0.017534742 0.18883947
-0.049371406 0.013968307 0.19106178
-0.050345145 0.0088320179 0.19404739
-0.048899744 0.0012288452 0.19790426
-0.048401199 -0.0043947138 0.19884942
-0.048290089 -0.0074773044 0.20156851
-0.049127199 -0.0097682597 0.20305641
-0.050730858 -0.01086355 0.20416172
-0.045004744 0.037619855 0.18005705
-0.045040984 0.03557422 0.18070179
-0.044807591 0.033003226 0.18168017
-0.044567809 0.030331874 0.18281698
-0.044649575 0.027404349 0.18377115
-0.045229036 0.024285799 0.18461472
-0.045699198 0.020855105 0.18638043
-0.045838796 0.017591998 0.18750608
-0.045980778 0.014014335 0.18929388
-0.04634618 0.0079786219 0.19244863
-0.046304166 0.0013227565 0.19560426
-0.04558865 -0.0045584184 0.19781753
-0.045445297 -0.0065769823 0.20177862
-0.046409871 -0.0084812092 0.20378745
-0.048916105 -0.011349641 0.20505312
-0.050988205 -0.014534327 0.20793708
-0.052282911 -0.01625224 0.21216941
-0.052897673 -0.018264527 0.21605058
-0.042510815 0.038668659 0.17987625
-0.042259332 0.036057521 0.18106474
-0.041957192 0.033535078 0.18203892
-0.041880809 0.030985277 0.18300751
-0.042231981 0.028036194 0.18394142
-0.042412598 0.024627965 0.18488514
-0.042741667 0.020878669 0.1858359
-0.042841885 0.017438805 0.18646696
-0.042991288 0.013676018 0.18817601
-0.043176256 0.008730107 0.1905898
-0.043324444 0.0019095623 0.19360156
-0.042629253 -0.00285079 0.19629426
-0.04226109 -0.0050723846 0.20076625
-0.042703211 -0.0077708401 0.2036839
-0.045666475 -0.01139725 0.20616582
-0.048444036 -0.013986009 0.20937835
-0.049845692 -0.015897868 0.21315159
-0.050954357 -0.017802656 0.21643402
-0.051383484 -0.019551784 0.22085533
-0.050861727 -0.020942129 0.22467092
-0.039252911 0.04133895 0.17847034
-0.039428361 0.039522365 0.17989251
-0.039299149 0.036830179 0.18126704
-0.039097719 0.034286659 0.18230467
-0.03889887 0.031427279 0.1833052
-0.03915808 0.028303174 0.18449917
-0.039205797 0.024904763 0.18507347
-0.03957453 0.020984195 0.18562876
-0.039775606 0.017423484 0.18634085
-0.039460465 0.013692588 0.18782231
-0.039929502 0.0091009242 0.19017132
-0.040557798 0.0031696376 0.19287556
-0.03960846 -0.0013710146 0.19532745
-0.039192174 -0.0036218225 0.19886136
-0.039605692 -0.0065276618 0.20415018
-0.042653594 -0.011445737 0.20712288
-0.045546889 -0.013616922 0.21025296
-0.04665323 -0.015455173 0.21400444
-0.047571626 -0.017825378 0.21741775
-0.047460727 -0.01972794 0.22112885
-0.047477175 -0.021908119 0.22426723
-0.047157954 -0.023698304 0.2269654
-0.03601975 0.041749913 0.17846021
-0.035989176 0.04008719 0.17979054
-0.035852838 0.037495926 0.18130992
-0.035986044 0.034687795 0.18246755
-0.035310797 0.031519238 0.18363726
-0.035281796 0.028077593 0.18516806
-0.035535596 0.024897315 0.18616149
-0.036057271 0.021390121 0.18682805
-0.036607165 0.017777074 0.18755554
-0.036503199 0.014036585 0.18913504
-0.036986195 0.0094096567 0.19087696
-0.03755559 0.00370875 0.19308773
-0.037591934 0.00020517844 0.19517231
-0.036891323 -0.0026255252 0.19858222
-0.037362166 -0.0062604356 0.20399062
-0.040186413 -0.011303888 0.20844746
-0.042073995 -0.013439486 0.21125354
-0.043064874 -0.01541575 0.21481775
-0.043494977 -0.017904783 0.21809053
-0.043304835 -0.020132249 0.22135152
-0.043066017 -0.022427035 0.22383119
-0.042996611 -0.024625208 0.22659127
-0.031982619 0.042401504 0.17901835
-0.031989709 0.040677998 0.18009137
-0.031930856 0.038048964 0.18182568
-0.031877879 0.035046205 0.18399374
-0.032015547 0.031641416 0.18523173
-0.031839725 0.028272711 0.18665279
-0.03175452 0.025033744 0.18785864
-0.032080993 0.021785835 0.1888994
-0.033507373 0.018525768 0.18890432
-0.033664379 0.014436411 0.19026257
-0.033909246 0.0099096149 0.19171961
-0.034728803 0.0039346982 0.19423349
-0.034996666 0.0006253749 0.19660145
-0.034951761 -0.0018662045 0.19989289
-0.036222335 -0.0060068402 0.20503855
-0.037951902 -0.0098781828 0.20925187
-0.039367858 -0.012760236 0.21207857
-0.040047117 -0.015234208 0.21566141
-0.03991358 -0.017738204 0.21883102
-0.03961065 -0.020101916 0.22155443
-0.039306179 -0.022454021 0.22334293
-0.039310757 -0.024826925 0.22603633
-0.028310735 0.042948 0.17966023
-0.028086774 0.041209314 0.18079501
-0.028093792 0.03864947 0.18279725
-0.028510822 0.035445973 0.18572417
-0.028938266 0.031967569 0.18718435
-0.028703822 0.028642774 0.18827865
-0.028332807 0.025491683 0.18903191
-0.027945276 0.022502344 0.19011787
-0.028264418 0.019199561 0.19159573
-0.03034316 0.015501833 0.19217455
-0.031187441 0.0090967799 0.19360068
-0.031599954 0.0042826217 0.19630578
-0.031318281 0.0012361255 0.19894136
-0.031771243 -0.0020299419 0.20215447
-0.032943077 -0.0053195516 0.20675494
-0.034542844 -0.0087545151 0.21048361
-0.036052901 -0.012067967 0.21309747
-0.037301522 -0.015043493 0.21691491
-0.036529776 -0.017448146 0.21901557
-0.036028069 -0.019499259 0.22179231
-0.035680596 -0.022125652 0.22390236
-0.034967467 -0.024923818 0.22733495
-0.033697993 -0.026899274 0.22991817
-0.024615958 0.043191809 0.18059376
-0.024697097 0.041565556 0.18169124
-0.024418831 0.038982004 0.18331765
-0.025017586 0.036332089 0.18603314
-0.025941417 0.032696363 0.18803139
-0.025653161 0.029255848 0.189522
-0.02516472 0.026243007 0.19044921
-0.024737224 0.02292031 0.19205515
-0.024312235 0.020107128 0.19373034
-0.025800098 0.016677996 0.19465263
-0.026718194 0.011241877 0.19657175
-0.027302567 0.0062937052 0.19857331
-0.027651737 0.0025528721 0.20095643
-0.028304517 -0.00089860527 0.20427491
-0.029650262 -0.0041024312 0.20805232
-0.031040644 -0.0073802839 0.21196064
-0.032276604 -0.010883163 0.21515809
-0.033261232 -0.01399329 0.21892688
-0.032383356 -0.016526058 0.22025032
-0.031707186 -0.018923186 0.22347276
-0.030810375 -0.02170912 0.22569744
-0.030522287 -0.024511583 0.22794941
-0.030185767 -0.027810737 0.22991124
-0.021398803 0.043630444 0.18092546
-0.02131197 0.041951433 0.18197709
-0.021336799 0.039322361 0.18339294
-0.021302391 0.036997832 0.18532071
-0.022127232 0.033649635 0.18860534
-0.022328241 0.030302741 0.19076699
-0.022030769 0.02726792 0.192224
-0.021558562 0.024144387 0.19402651
-0.02177842 0.020682249 0.19573559
-0.022780932 0.017032458 0.19697134
-0.023221804 0.012378197 0.19867395
-0.023590159 0.0082282554 0.2006854
-0.024437455 0.0041543343 0.20317958
-0.025067471 0.00040037569 0.20621431
-0.02639731 -0.0029148026 0.20962588
-0.027549205 -0.0059628673 0.21329214
-0.028519429 -0.0094031366 0.21687123
-0.028465902 -0.012617959 0.2209197
-0.028518602 -0.015653489 0.22316338
-0.027585983 -0.018029636 0.22613056
-0.026762115 -0.020729244 0.22696187
-0.026508944 -0.023924099 0.22856659
-0.026514431 -0.02750276 0.23093908
-0.018536283 0.041985616 0.18269175
-0.018111773 0.039850168 0.18426737
-0.018195422 0.037241608 0.18569899
-0.018483376 0.034209676 0.18880895
-0.01887783 0.030869566 0.19143546
-0.018849889 0.02798555 0.19308861
-0.018673765 0.024910586 0.19540907
-0.019193737 0.020950114 0.19696584
-0.019769665 0.01709976 0.19859426
-0.020109136 0.012972073 0.20038161
-0.020470113 0.0092509296 0.20243518
-0.021457884 0.0057476438 0.20553152
-0.022039013 0.0018518572 0.20817873
-0.023110172 -0.0021608497 0.21197931
-0.023980502 -0.0049961191 0.21516077
-0.024611393 -0.0082423287 0.21814762
-0.024510419 -0.011583349 0.2222113
-0.024526063 -0.014709281 0.22446387
-0.023881758 -0.017445717 0.22706127
-0.02282168 -0.020240871 0.22754496
-0.022751275 -0.023756064 0.22817411
-0.02292037 -0.027643111 0.23262228
-0.015246076 0.040082742 0.18485001
-0.015117906 0.037501749 0.18651603
-0.015246162 0.034461148 0.18894057
-0.01518489 0.03126945 0.19143502
-0.015195641 0.028342806 0.19343318
-0.015377442 0.025241526 0.19679178
-0.016500415 0.02084768 0.19882965
-0.016567601 0.017059406 0.20042375
-0.01680672 0.013534349 0.20168081
-0.017220529 0.010195349 0.20364678
-0.017947951 0.006840453 0.20751072
-0.017968507 0.0038282759 0.21046196
-0.018847346 -0.00021388005 0.21349452
-0.020474399 -0.0043226699 0.21659714
-0.021067554 -0.0080369785 0.22013943
-0.020828865 -0.011032748 0.22296362
-0.020641979 -0.014204316 0.22497122
-0.020242486 -0.017064972 0.22754848
-0.019327238 -0.020189784 0.22783406
-0.019152815 -0.023711966 0.22970641
-0.019394848 -0.02810117 0.23636279
-0.012451665 0.03735514 0.18763816
-0.012016206 0.03491538 0.18942416
-0.011859594 0.03184434 0.19167204
-0.011738131 0.028917659 0.19395293
-0.012421411 0.025741464 0.19715211
-0.013512891 0.021705607 0.20040357
-0.013427597 0.018201906 0.2022557
-0.013461919 0.014639291 0.20367762
-0.01425111 0.010858507 0.20613179
-0.014387771 0.0077133775 0.20961927
-0.01460366 0.0046979943 0.21207696
-0.01445308 0.0013532554 0.21500167
-0.016403129 -0.0037088532 0.21769322
-0.017368063 -0.0073929541 0.22087303
-0.017245628 -0.010387159 0.22306916
-0.016800757 -0.013300308 0.22499362
-0.016691195 -0.016368063 0.22760409
-0.016025344 -0.019874452 0.229233
-0.015712664 -0.023750558 0.23317741
-0.016055163 -0.028293258 0.23949064
-0.0095852287 0.034686178 0.19003904
-0.0087982006 0.032435432 0.19244149
-0.0086214067 0.029552026 0.19527324
-0.0092881657 0.026229069 0.19836228
-0.010186844 0.022852231 0.20177348
-0.010347758 0.01941908 0.20438831
-0.010407295 0.015768657 0.20648256
-0.010850471 0.01194202 0.20867421
-0.010752076 0.00850097 0.21092185
-0.01070219 0.0053153741 0.21374547
-0.010306007 0.0021319885 0.21625796
-0.010616303 -0.0019357793 0.2189012
-0.012399239 -0.0063567013 0.22193074
-0.01231566 -0.0093987752 0.22350985
-0.012380319 -0.012411238 0.22629716
-0.01263485 -0.015848478 0.2293036
-0.012597497 -0.019401282 0.23170996
-0.012200353 -0.023814799 0.23588799
-0.012476321 -0.027361158 0.24039903
-0.0057667377 0.03225939 0.19522564
-0.0058455858 0.029711857 0.19757745
-0.0065300972 0.026146883 0.20070438
-0.0069506252 0.023008617 0.20305526
-0.0071186046 0.019805135 0.20503615
-0.0072271684 0.016063195 0.20774232
-0.0072356951 0.012329498 0.2098445
-0.0070979507 0.0090672439 0.21150582
-0.0068661785 0.0058899173 0.21423119
-0.0069434 0.0024600499 0.21670528
-0.0066672689 -0.0013099841 0.21959344
-0.0069650649 -0.0054016965 0.22316988
-0.0075026373 -0.0088715767 0.22559379
-0.0082116546 -0.012285776 0.22773449
-0.0085683465 -0.015708908 0.23047687
-0.0088415779 -0.019123504 0.23377581
-0.0090216957 -0.022834802 0.23582509
-0.0035573419 0.031699955 0.19742514
-0.0031989266 0.029489186 0.19877453
-0.0035316825 0.025828626 0.20096585
-0.0037434381 0.02247238 0.20246872
-0.0038897367 0.01938572 0.20419958
-0.0040274328 0.016075727 0.20753491
-0.0038716914 0.012626019 0.21014637
-0.0035556252 0.0093348362 0.21197991
-0.0034573115 0.0063354047 0.21447906
-0.0033004419 0.0027717787 0.21652941
-0.0032462694 -0.0014224614 0.22052974
-0.0030808127 -0.0050546387 0.22292238
-0.0037906116 -0.0087770568 0.2260669
-0.0042784377 -0.012040009 0.22809573
-0.0052173245 -0.015237496 0.23036282
-0.0007176614 0.028484365 0.19954985
-0.00046198227 0.025650799 0.20097034
-0.00072978804 0.022182582 0.20212649
-0.00055150245 0.019224703 0.20383248
-0.00065379514 0.015976159 0.2064952
-0.00040882442 0.012879323 0.20920442
-0.00015441953 0.0099924644 0.21180317
-5.470709e-07 0.0069116326 0.21432523
0.00035644337 0.0033723144 0.21578085
0.00036313714 -0.000830259 0.21948819
0.00079058291 -0.0045805983 0.22230697
-0.00022819614 -0.0082308194 0.22570856
-0.0018345207 -0.011067231 0.22848266
0.0021944365 0.024964867 0.20130871
0.0024236182 0.022176174 0.20178059
0.0027710041 0.019195108 0.2031689
0.0028027897 0.016100988 0.20607053
0.0030410991 0.013045868 0.20854409
0.0032710887 0.010204779 0.21085879
0.0029709884 0.0071001695 0.21422109
0.0028587724 0.0040731719 0.21586609
0.0027900939 -0.00049354893 0.21886019
0.0029588875 -0.0034628578 0.22147179
0.0041977395 0.021982405 0.20188075
0.0047513586 0.019035878 0.2033812
0.0050520194 0.016346317 0.20597646
0.005150727 0.012957859 0.20881169
0 0 0 1 0 0 0 1 0 0 0 1 0 0 0 0 0 354 1 0 0
