ply
format ascii 1.0
comment PCL generated
element vertex 354
property float x
property float y
property float z
element camera 1
property float view_px
property float view_py
property float view_pz
property float x_axisx
property float x_axisy
property float x_axisz
property float y_axisx
property float y_axisy
property float y_axisz
property float z_axisx
property float z_axisy
property float z_axisz
property float focal
property float scalex
property float scaley
property float centerx
property float centery
property int viewportx
property int viewporty
property float k1
property float k2
end_header
-0.057395067 0.025926949 0.18729267
-0.058196377 0.022934638 0.18922299
-0.058828097 0.019494787 0.19191718
-0.058968715 0.016101457 0.19437519
-0.05863867 0.013011592 0.19581129
-0.052967358 0.030938342 0.18418202
-0.053824369 0.029046392 0.18458433
-0.054466937 0.02625428 0.18525001
-0.054929405 0.023514953 0.1865848
-0.05578164 0.020259265 0.18929249
-0.056512348 0.016321244 0.19210792
-0.057132017 0.012446841 0.19461203
-0.057209972 0.0091322502 0.19593631
-0.05619875 0.0050702044 0.19763838
-0.049443234 0.033959363 0.18232179
-0.050051711 0.032116633 0.1828739
-0.050409123 0.029602593 0.18329626
-0.050763853 0.026778033 0.18399452
-0.051389761 0.023728976 0.18524458
-0.052453708 0.020267967 0.18786858
-0.052923817 0.016786801 0.18957467
-0.053789228 0.013150953 0.19189425
-0.054271996 0.0088435635 0.19500577
-0.053446338 0.0020162337 0.198642
-0.052625209 -0.0037144301 0.19941582
-0.051516023 -0.0078571942 0.20052703
-0.047325872 0.034826905 0.18093663
-0.047409061 0.032392733 0.18183342
-0.047320567 0.029770995 0.18256456
-0.047484614 0.026763124 0.18359689
-0.048274647 0.023761097 0.18479028
-0.049177777 0.02021528 0.18647976
-0.049476426 0.016848937 0.18774126
-0.050267238 0.013223147 0.189961
-0.050911948 0.008103203 0.19348094
-0.049771465 -9.2818031e-05 0.19631533
-0.049115382 -0.0057702307 0.19753343
-0.04889093 -0.0086992783 0.20043652
-0.049666733 -0.010959498 0.20207268
-0.051279057 -0.012049816 0.20321219
-0.044427853 0.037142284 0.17957677
-0.044551414 0.035173267 0.18040651
-0.044455413 0.032633841 0.18153732
-0.044477519 0.029911792 0.18274583
-0.044761248 0.027029436 0.18367995
-0.04561656 0.023974808 0.18454348
-0.046413854 0.020323124 0.18579908
-0.046713404 0.01687235 0.18654464
-0.046949342 0.013151862 0.18830252
-0.047189102 0.0069645466 0.19157073
-0.04720233 9.549244e-05 0.19389927
-0.046236824 -0.0059105149 0.19646949
-0.046074938 -0.0077344417 0.20058839
-0.047024075 -0.009556314 0.20275761
-0.04953786 -0.01240206 0.20422561
-0.05180186 -0.015101553 0.20762628
-0.053160265 -0.016269041 0.21223257
-0.053569842 -0.017562781 0.21590297
-0.041938975 0.037947688 0.17904986
-0.041801307 0.035400126 0.18046731
-0.041701768 0.032948013 0.18164149
-0.041910551 0.030382056 0.18272646
-0.04247104 0.027527267 0.18375224
-0.042933881 0.024225652 0.1848878
-0.043446571 0.020394906 0.18561764
-0.043683745 0.016776891 0.18584871
-0.043970201 0.012797294 0.18739535
-0.044014428 0.0078051477 0.18988043
-0.044184901 0.00067301781 0.19186449
-0.043388929 -0.004170394 0.19471061
-0.042957418 -0.0061649894 0.19952522
-0.043381061 -0.0087048952 0.20271435
-0.046355557 -0.012288609 0.20546064
-0.049271125 -0.014483618 0.20905079
-0.050678711 -0.01598697 0.21312806
-0.051791534 -0.017590765 0.21662512
-0.051668912 -0.019090947 0.22118212
-0.051130969 -0.020546177 0.22507054
-0.038707335 0.040435754 0.1774212
-0.039031185 0.038655903 0.17891003
-0.039004311 0.036090989 0.18049595
-0.038949877 0.033594385 0.18178664
-0.039068021 0.030774191 0.18303396
-0.039587934 0.027722508 0.18438131
-0.03979541 0.024417106 0.18531504
-0.040250525 0.02051319 0.18589495
-0.0406393 0.016868399 0.18633561
-0.040538181 0.013033474 0.18750228
-0.040841378 0.0082898093 0.18941602
-0.041359924 0.0020979361 0.19140454
-0.040386353 -0.0025980819 0.19380392
-0.039962761 -0.0047174823 0.19752687
-0.040374804 -0.0073295427 0.20322463
-0.043320414 -0.012141258 0.20645399
-0.046561908 -0.014191182 0.20993045
-0.04747685 -0.015736075 0.21388006
-0.048328906 -0.017839171 0.21746373
-0.048069328 -0.019614317 0.22130992
-0.048053674 -0.02173372 0.22451292
-0.047714539 -0.023470525 0.22718897
-0.035507586 0.04096416 0.17778848
-0.035630006 0.039350398 0.17917588
-0.035660967 0.036824182 0.18085568
-0.035997 0.034039047 0.18231201
-0.035614491 0.030892909 0.1839302
-0.035829592 0.027567742 0.185654
-0.036218859 0.024450388 0.18674707
-0.036814988 0.020852888 0.18734927
-0.037654016 0.017233912 0.18772689
-0.037549924 0.013372396 0.18880497
-0.037999172 0.0086483164 0.19018921
-0.038417738 0.0029246598 0.19203895
-0.038352996 -0.000758435 0.19379476
-0.03751513 -0.0035157164 0.19719426
-0.03802995 -0.0069247968 0.20344566
-0.040874593 -0.011979229 0.20803733
-0.042865708 -0.01408003 0.21071449
-0.043823842 -0.015961414 0.21452983
-0.044228818 -0.018270241 0.21795842
-0.043966901 -0.020371594 0.22133338
-0.043703862 -0.022653801 0.22384699
-0.043605547 -0.024759002 0.2266261
-0.031572547 0.041794218 0.17868678
-0.031715032 0.040135942 0.17984016
-0.03181849 0.037583958 0.18176271
-0.032109488 0.034413088 0.18416476
-0.032517746 0.031006947 0.18582352
-0.032461662 0.027742919 0.18736751
-0.032490913 0.024598014 0.18867783
-0.032872915 0.021334939 0.18964602
-0.034519836 0.017900873 0.18912819
-0.034728371 0.013704835 0.189916
-0.034956377 0.0091735851 0.19113345
-0.035570826 0.0032075411 0.1931202
-0.035639614 -0.00025689421 0.19518387
-0.035312079 -0.0027898115 0.19860822
-0.036897112 -0.0065878537 0.20499068
-0.038529336 -0.010603492 0.20911437
-0.03996601 -0.013730364 0.21174392
-0.040676627 -0.016088832 0.21507663
-0.040565461 -0.018416665 0.21854866
-0.040216587 -0.020760845 0.22129963
-0.039891474 -0.023049396 0.22312084
-0.03986077 -0.025204979 0.22581698
-0.027949208 0.042415053 0.17966475
-0.027816214 0.040713571 0.18084742
-0.027958475 0.038183499 0.18288273
-0.028744208 0.034693349 0.18574938
-0.029433459 0.031194409 0.18754679
-0.02934988 0.028019065 0.18889144
-0.029096672 0.025008457 0.18986687
-0.028701749 0.022028083 0.19090822
-0.028810129 0.018580215 0.19186096
-0.031312086 0.014598196 0.19189776
-0.032169759 0.0082473243 0.19274046
-0.0321103 0.0034108451 0.19483361
-0.031341594 0.00020164173 0.19727176
-0.031822782 -0.0031921412 0.20102976
-0.033335045 -0.0062127854 0.20667605
-0.035067264 -0.0094534112 0.21064204
-0.036618132 -0.013165133 0.21300204
-0.038008541 -0.016343907 0.21654667
-0.037262764 -0.018441282 0.21854793
-0.036627457 -0.020356657 0.22121136
-0.03616472 -0.022821048 0.22332945
-0.035366744 -0.025415927 0.22687903
-0.033907682 -0.027133996 0.2295378
-0.024447953 0.04274014 0.18105933
-0.024536189 0.041097391 0.18212131
-0.024343111 0.038398627 0.18371187
-0.025083795 0.035406474 0.18595846
-0.026383983 0.031778533 0.18807964
-0.026232794 0.028552502 0.189987
-0.025738562 0.025617881 0.19102839
-0.025148228 0.022351513 0.19234926
-0.024563165 0.019500762 0.19376554
-0.026136346 0.016162537 0.19478346
-0.027089242 0.01087134 0.19662993
-0.027135635 0.0055895136 0.19751462
-0.02735818 0.0017040962 0.19967575
-0.028184745 -0.0021008374 0.20322031
-0.029810807 -0.0052076327 0.20757137
-0.031357549 -0.008204394 0.21196721
-0.032865036 -0.011997776 0.2152122
-0.033923499 -0.015387433 0.21864653
-0.03303929 -0.017555628 0.21959426
-0.032092374 -0.019894788 0.22242735
-0.031020358 -0.022568094 0.22456682
-0.030772889 -0.025045566 0.22710413
-0.030491661 -0.027637277 0.22970319
-0.021494253 0.043367632 0.18192661
-0.021372579 0.041662917 0.18294273
-0.021349497 0.038912054 0.1841754
-0.021307534 0.036294267 0.18568237
-0.022388279 0.032478325 0.18851443
-0.022700911 0.02949572 0.19093235
-0.022330906 0.026541132 0.19245364
-0.021622567 0.023426957 0.19397438
-0.021746578 0.019990932 0.19552432
-0.022973062 0.016613917 0.19698821
-0.023484871 0.01204814 0.19886065
-0.023595879 0.0077850996 0.2003843
-0.024334559 0.0035280865 0.20234676
-0.024982924 -0.00064096984 0.20529392
-0.026391461 -0.0041599637 0.20887284
-0.027556146 -0.0069492157 0.21294627
-0.028749179 -0.010532565 0.21675557
-0.02922127 -0.013333279 0.22109729
-0.029022541 -0.016627455 0.22250018
-0.027890757 -0.019244844 0.2246466
-0.026897365 -0.02173242 0.22526413
-0.026729474 -0.024358429 0.22754738
-0.026862644 -0.02752623 0.23032418
-0.018748701 0.041764729 0.18396457
-0.018284706 0.039499592 0.18531328
-0.018286631 0.036653455 0.18634482
-0.018656487 0.033149872 0.18881933
-0.019149659 0.029960932 0.19148387
-0.019003835 0.027219212 0.19320278
-0.018603938 0.024153564 0.19532645
-0.018972177 0.020208757 0.19654243
-0.019797156 0.016629212 0.19846804
-0.020313196 0.012680143 0.20050453
-0.020534545 0.0089375442 0.20234938
-0.021443153 0.0052621565 0.20512834
-0.02206726 0.0011835796 0.207608
-0.023053514 -0.0032812902 0.21132813
-0.023926463 -0.0058737681 0.21476485
-0.02464837 -0.0090409974 0.21795066
-0.025151474 -0.012159633 0.22228155
-0.025198834 -0.015509473 0.22413157
-0.024207426 -0.01847313 0.22573
-0.023016265 -0.02112125 0.22578764
-0.023050137 -0.024278799 0.2270574
-0.023116587 -0.02777968 0.2315715
-0.015514064 0.039896131 0.18616593
-0.015262963 0.037043039 0.18736422
-0.015471156 0.033653177 0.18918249
-0.015486393 0.030421436 0.19156528
-0.015405454 0.027666125 0.19371574
-0.015113737 0.024539569 0.19684565
-0.015824491 0.019944413 0.1983034
-0.016201427 0.016444871 0.20015493
-0.016825086 0.013227011 0.20168474
-0.017320046 0.0099356128 0.2036483
-0.017767295 0.0062746503 0.20708779
-0.017955655 0.003687918 0.21012911
-0.019134846 -0.00023024979 0.21349519
-0.020572372 -0.0048887199 0.21653137
-0.02132979 -0.0084784301 0.22023819
-0.021399325 -0.011407522 0.22315423
-0.021392226 -0.014669886 0.22487973
-0.020658717 -0.017837271 0.22624071
-0.019585226 -0.02093808 0.2261969
-0.019391736 -0.024178086 0.2282906
-0.019253576 -0.028629238 0.23501037
-0.012618874 0.036998495 0.18854383
-0.012255414 0.034412403 0.18997321
-0.012192137 0.03139684 0.19197917
-0.01194325 0.028512865 0.1943969
-0.01201984 0.025143355 0.1974079
-0.012695371 0.020866817 0.20013544
-0.012841043 0.017612319 0.20207496
-0.013248211 0.014303552 0.2038459
-0.014178273 0.010548687 0.20607297
-0.014123777 0.0073709697 0.20925793
-0.014628686 0.0046021878 0.21197219
-0.014856581 0.0017965004 0.21533203
-0.016780429 -0.0037323753 0.21811973
-0.017712386 -0.0075309281 0.22128904
-0.017790968 -0.010361029 0.22338736
-0.0173769 -0.013225725 0.22505341
-0.017130708 -0.016439732 0.22703035
-0.016353508 -0.020135066 0.2278686
-0.015802482 -0.024243819 0.23162396
-0.015728975 -0.028820043 0.23780939
-0.0099335061 0.034399007 0.19067308
-0.0091032935 0.03218646 0.19297136
-0.0087877708 0.029337 0.19585125
-0.0089844074 0.026059574 0.19925869
-0.009680368 0.022461137 0.20231546
-0.0099777924 0.019138377 0.20472373
-0.010373066 0.015742024 0.20689902
-0.01071245 0.011798903 0.20868686
-0.010627023 0.0083263544 0.21091218
-0.010688993 0.005251219 0.21394624
-0.010371161 0.0023169236 0.21675947
-0.010645882 -0.001713713 0.2195801
-0.012575285 -0.006343462 0.22241373
-0.012632644 -0.0092305504 0.22384362
-0.012728313 -0.012271094 0.22634503
-0.013012376 -0.015935717 0.22901209
-0.012984528 -0.019628109 0.23080416
-0.012350696 -0.024008431 0.23452675
-0.012307269 -0.0278685 0.23904243
-0.0060341475 0.032221839 0.19578093
-0.0058747861 0.029733378 0.19835725
-0.0060346317 0.026424104 0.2020378
-0.0065298183 0.023057984 0.20414788
-0.0067695379 0.019971777 0.20605047
-0.0070532588 0.016284218 0.20868133
-0.0071302229 0.01239906 0.21036071
-0.0070951441 0.0090769026 0.21191008
-0.0069108033 0.00599577 0.21481194
-0.0069686919 0.0027220675 0.21744201
-0.0066778823 -0.00099976535 0.22047812
-0.0069494424 -0.0053163255 0.2241015
-0.0077282712 -0.0088555012 0.22600648
-0.0085377647 -0.012269257 0.22768211
-0.0090213455 -0.015850373 0.23013827
-0.0093215937 -0.019286735 0.23298039
-0.0092819128 -0.02289173 0.23473483
-0.0037244814 0.031711195 0.19800165
-0.0030380923 0.02937733 0.1992918
-0.0028841551 0.025984908 0.2019255
-0.003148457 0.022747498 0.20377429
-0.0033636177 0.019831249 0.20571586
-0.0038216219 0.016467027 0.208887
-0.0038021798 0.012870187 0.2111748
-0.0035578271 0.0094289668 0.21282053
-0.003557848 0.0065298961 0.21520481
-0.0033107193 0.0030774921 0.21744433
-0.0033031374 -0.00088813785 0.22167398
-0.0029607776 -0.0045761447 0.22421378
-0.0040051648 -0.0086151119 0.22681928
-0.004607223 -0.011990221 0.22829178
-0.0056487685 -0.015357618 0.23017007
-0.00029550225 0.02802567 0.19943179
9.6554635e-05 0.025369693 0.2013749
-0.00017790627 0.022296729 0.20332195
-1.6245482e-05 0.019621026 0.2055905
-0.00040863384 0.016377868 0.20816785
-0.00030660687 0.01309757 0.21057011
-8.7282802e-05 0.010046799 0.21290587
2.0753834e-05 0.0069696894 0.21518491
0.00036917083 0.0035873533 0.21679154
0.00042761199 -0.00014121344 0.22092162
0.00092270656 -0.0037841951 0.22393942
-0.00035857689 -0.0077340137 0.22696905
-0.0021947091 -0.010911914 0.22892068
0.0026312408 0.024524927 0.20160949
0.002918005 0.022058832 0.20295461
0.0032908625 0.01950649 0.20519541
0.0030649039 0.016338132 0.20775093
0.0031918462 0.013120738 0.20990051
0.0033700566 0.010250766 0.21203709
0.0030242524 0.0070090997 0.21514611
0.0028940951 0.004152922 0.21682078
0.0027793169 0.0002903897 0.22044536
0.0029856618 -0.0025304877 0.22321875
0.0046358285 0.021821324 0.20312324
0.0052118511 0.01927601 0.2054574
0.005297869 0.016458411 0.20767832
0.0052522286 0.013014225 0.21027473
0 0 0 1 0 0 0 1 0 0 0 1 0 0 0 0 0 354 1 0 0
