ply
format ascii 1.0
comment PCL generated
element vertex 354
property float x
property float y
property float z
element camera 1
property float view_px
property float view_py
property float view_pz
property float x_axisx
property float x_axisy
property float x_axisz
property float y_axisx
property float y_axisy
property float y_axisz
property float z_axisx
property float z_axisy
property float z_axisz
property float focal
property float scalex
property float scaley
property float centerx
property float centery
property int viewportx
property int viewporty
property float k1
property float k2
end_header
-0.055774096 0.030804336 0.18584625
-0.056771699 0.027822958 0.18770446
-0.057959955 0.024570955 0.18991625
-0.058661807 0.021308232 0.19182514
-0.058762874 0.018009964 0.19333737
-0.05142476 0.035528429 0.18222035
-0.052233972 0.033655722 0.18291506
-0.052691385 0.030933864 0.18427487
-0.05285234 0.027996169 0.18574479
-0.053683959 0.024828367 0.18817143
-0.055168264 0.021643471 0.19106683
-0.055936836 0.018406041 0.1928656
-0.05612836 0.01507484 0.194079
-0.055958558 0.011697709 0.19621415
-0.047710817 0.038486026 0.1804885
-0.048484944 0.036437694 0.18084565
-0.048910983 0.033665568 0.18151629
-0.049298763 0.030995501 0.18304589
-0.049482398 0.028165186 0.18542519
-0.050364442 0.025115583 0.18858983
-0.051017895 0.022057466 0.19065443
-0.052183155 0.019063888 0.19250897
-0.052946407 0.015515111 0.19483171
-0.053242721 0.010617984 0.19861721
-0.052982733 0.0056982376 0.20023933
-0.052857164 0.0021630351 0.20113192
-0.0453857 0.039403372 0.17984624
-0.045588344 0.036673896 0.18045118
-0.045717668 0.033778507 0.18141526
-0.046215452 0.030997535 0.18339011
-0.046567071 0.028586155 0.18593787
-0.047340106 0.025721565 0.1892906
-0.047709003 0.022685146 0.19107287
-0.048513882 0.019616079 0.1932191
-0.049570192 0.015677324 0.19590807
-0.049613852 0.009976726 0.19872078
-0.049724333 0.0050843507 0.2001708
-0.049931124 0.0016586984 0.20216647
-0.050256729 -0.0011746992 0.20511037
-0.051374212 -0.0028204697 0.20828401
-0.042130545 0.041763961 0.17907251
-0.042573456 0.039697763 0.18001774
-0.042759046 0.036965981 0.1811931
-0.042902168 0.034135349 0.18267772
-0.043310441 0.031464782 0.1848062
-0.043773569 0.028820129 0.18713129
-0.04451777 0.026194509 0.1900249
-0.044692088 0.023327596 0.19143245
-0.045192514 0.020245789 0.19360536
-0.045876082 0.015646348 0.19652961
-0.046235975 0.010362371 0.19803774
-0.04655052 0.005306622 0.19941397
-0.046952531 0.0022908812 0.20249382
-0.047387786 -0.0001703701 0.20609133
-0.04869701 -0.0025467966 0.20973118
-0.050028935 -0.0050044744 0.2143812
-0.050693121 -0.0076071532 0.21895818
-0.050248537 -0.010038473 0.22170098
-0.039541364 0.042390283 0.17898507
-0.03971196 0.039782517 0.1804132
-0.039802648 0.037103895 0.18177111
-0.040029205 0.034523249 0.1835873
-0.040459063 0.031817883 0.18556036
-0.040830333 0.029097082 0.1880125
-0.041496072 0.026340879 0.19051582
-0.041598871 0.023364814 0.19185752
-0.042128816 0.020626402 0.19402045
-0.042570189 0.016484689 0.19671133
-0.042953469 0.010864588 0.19808003
-0.043040156 0.0060740635 0.19830832
-0.043242682 0.0026146641 0.20114245
-0.043569379 8.3990271e-06 0.20532928
-0.045273021 -0.002163474 0.21082088
-0.046823338 -0.0045990702 0.21584927
-0.047357295 -0.0075155436 0.2194612
-0.047732603 -0.010477359 0.22215164
-0.04789573 -0.014046275 0.22442715
-0.047780152 -0.01738866 0.22623864
-0.036324631 0.044237029 0.17775637
-0.036527824 0.042512197 0.17928152
-0.036772139 0.039966688 0.18083386
-0.036919311 0.037429728 0.18217506
-0.03704641 0.03490591 0.18436252
-0.037503645 0.032196507 0.18643126
-0.037761558 0.029330628 0.18826485
-0.038379062 0.026520243 0.1910522
-0.03869085 0.023806715 0.19290119
-0.038929965 0.020924136 0.1951786
-0.039495748 0.01681049 0.19776648
-0.039982956 0.011456585 0.19895373
-0.039797433 0.0069641881 0.19731781
-0.039473206 0.0029715514 0.19883028
-0.04013915 0.00011124458 0.20525502
-0.041908275 -0.0018126608 0.21200602
-0.043371651 -0.0043088575 0.21673639
-0.043724474 -0.0074063474 0.21967582
-0.043885384 -0.010813891 0.22169979
-0.044101529 -0.014490454 0.22298473
-0.044504493 -0.018046547 0.22476621
-0.044273686 -0.020866401 0.22667861
-0.033431385 0.044341855 0.17816271
-0.033594016 0.042706732 0.1795907
-0.033753 0.040146671 0.18126826
-0.033946577 0.037626181 0.18270764
-0.033977274 0.035095256 0.18489295
-0.034419451 0.032334395 0.18727206
-0.034892563 0.029491464 0.18941787
-0.035347804 0.026836695 0.19191267
-0.035540514 0.024270391 0.19462094
-0.036071926 0.020857701 0.19684412
-0.03669589 0.016662523 0.19905069
-0.036855053 0.011865212 0.19990084
-0.036699023 0.0076115648 0.19894136
-0.036493219 0.0032548835 0.19881839
-0.03717088 0.00062878436 0.20657955
-0.038894463 -0.0013026847 0.21361691
-0.03956601 -0.004369169 0.21741723
-0.039976045 -0.0075880792 0.21936563
-0.039944921 -0.01123473 0.22067142
-0.040230818 -0.014946299 0.22264922
-0.04032328 -0.018222965 0.22403257
-0.040718351 -0.021428401 0.22592565
-0.030290937 0.044424973 0.17894448
-0.030512707 0.042757925 0.17993617
-0.030667128 0.040179618 0.18189484
-0.030946592 0.037941009 0.18451828
-0.031206129 0.035409886 0.18645477
-0.031339083 0.032475952 0.18881786
-0.031649716 0.029647715 0.19098228
-0.032106057 0.026778242 0.192926
-0.03237066 0.024280198 0.19539319
-0.033032313 0.020819966 0.19796278
-0.033653129 0.016644947 0.19987644
-0.033892471 0.012003749 0.20098065
-0.03378582 0.0077078342 0.20089009
-0.033632439 0.0036707716 0.20125449
-0.034864414 0.0022210332 0.21008627
-0.035716329 -0.00071226968 0.21545213
-0.036061488 -0.0043431339 0.21709524
-0.036447685 -0.0079316832 0.21908782
-0.036432765 -0.01160875 0.2207661
-0.036716972 -0.014979091 0.22282805
-0.036911856 -0.01832361 0.22358783
-0.037238955 -0.021649318 0.22571369
-0.02731462 0.044503849 0.17927217
-0.027317669 0.0427242 0.18047976
-0.027506124 0.040278144 0.18267575
-0.027832333 0.038207825 0.186087
-0.028188016 0.035588223 0.18829367
-0.028378854 0.032694504 0.19009934
-0.028418921 0.029668108 0.19149591
-0.028668717 0.026850706 0.19331771
-0.029006559 0.024014538 0.19590434
-0.029627822 0.020855997 0.19890612
-0.030748988 0.016126912 0.20173116
-0.030788384 0.011853101 0.2029441
-0.03051204 0.0080763772 0.2039597
-0.030653769 0.0050010136 0.20759232
-0.031358983 0.0028735255 0.21210532
-0.032015387 -0.00042751452 0.21532783
-0.032345057 -0.0043930924 0.21683919
-0.032752007 -0.0083195567 0.21897511
-0.033031084 -0.011730054 0.22107856
-0.033397313 -0.014933364 0.22365646
-0.033547454 -0.018406803 0.22491568
-0.033627704 -0.022083485 0.22786865
-0.033207461 -0.024918161 0.23065738
-0.023892963 0.044486251 0.18004191
-0.02407388 0.042913374 0.18126333
-0.024086777 0.040373486 0.18304105
-0.024568694 0.038131244 0.18609339
-0.024947481 0.035741135 0.18875349
-0.02519373 0.032765318 0.19086458
-0.025351953 0.029767066 0.19231479
-0.025551507 0.026785865 0.1945914
-0.025886035 0.024018761 0.19723049
-0.026711104 0.021080766 0.20061509
-0.027244821 0.016808907 0.20371716
-0.027117489 0.012853197 0.20524324
-0.027150266 0.0091010518 0.20724757
-0.027341025 0.0058998847 0.21005499
-0.028075991 0.0032105602 0.21313807
-0.028580386 -0.0002068177 0.21632773
-0.028745817 -0.0043155975 0.21770532
-0.029194744 -0.0084591573 0.21997681
-0.029683849 -0.011762096 0.2219827
-0.029809561 -0.015035435 0.22534142
-0.029530775 -0.018737469 0.22769822
-0.029619439 -0.022530505 0.22989839
-0.029637074 -0.02639173 0.23200245
-0.020794882 0.04486366 0.18060635
-0.020861667 0.043181896 0.18190147
-0.020995062 0.040475968 0.18337974
-0.021155985 0.037912164 0.18528615
-0.021688504 0.035405301 0.1887254
-0.021812879 0.032778341 0.19142285
-0.022105666 0.029929031 0.19345534
-0.022238288 0.027168788 0.19583729
-0.022900915 0.024483921 0.19912167
-0.023605529 0.021125201 0.20239992
-0.02368249 0.017407585 0.20464621
-0.023574749 0.013728869 0.20684694
-0.023781514 0.0098335594 0.20895964
-0.023965677 0.0063796039 0.21163109
-0.024726795 0.0035750491 0.21490683
-0.025080988 0.00015517269 0.21735629
-0.025362248 -0.0039890525 0.21872257
-0.025892897 -0.0080500441 0.2215758
-0.026136151 -0.011761724 0.22274745
-0.026018182 -0.015264828 0.22630462
-0.025982933 -0.019102531 0.22955059
-0.025959302 -0.022929285 0.23098539
-0.026034439 -0.026771287 0.23312335
-0.018191282 0.043118995 0.18296111
-0.017963935 0.040766552 0.18443912
-0.018000506 0.037902273 0.18561625
-0.018351795 0.035070229 0.18865314
-0.018683948 0.0325353 0.19156818
-0.018886579 0.029944761 0.19380942
-0.019209044 0.027420443 0.19677208
-0.019917225 0.024530329 0.20050478
-0.020303713 0.020964824 0.20347229
-0.020333713 0.017414751 0.205754
-0.020125559 0.014121942 0.2078945
-0.020343352 0.010275779 0.21061707
-0.020662582 0.0067576049 0.21273842
-0.021312954 0.0037321707 0.21659628
-0.02152784 5.3439755e-05 0.21841247
-0.022127803 -0.0037815436 0.22013968
-0.022336088 -0.0075616296 0.2235516
-0.022371074 -0.011516302 0.22445504
-0.022532443 -0.015348597 0.2272163
-0.022026544 -0.019173713 0.22992904
-0.022140821 -0.022875829 0.23013408
-0.022286242 -0.026979381 0.23459648
-0.015086567 0.040827651 0.18522671
-0.015115328 0.038023155 0.18668465
-0.015143157 0.035081647 0.18870313
-0.015303695 0.032300416 0.19163814
-0.015566597 0.029765161 0.19420153
-0.015843758 0.027257822 0.19831587
-0.016585864 0.024131835 0.20287645
-0.016705148 0.020805921 0.20505187
-0.016807243 0.017618569 0.20672846
-0.01670322 0.014240879 0.20865181
-0.016993718 0.010425777 0.21170354
-0.017024608 0.0074354201 0.21425371
-0.017439956 0.0040452979 0.2172851
-0.018124662 0.00026649176 0.21947941
-0.018762905 -0.0036955047 0.22222629
-0.018927788 -0.0073479353 0.22525607
-0.018741725 -0.011362151 0.2263539
-0.018624661 -0.015388544 0.22898263
-0.018262217 -0.019294122 0.22950175
-0.018182168 -0.023150515 0.23136704
-0.018377649 -0.027308719 0.23766097
-0.012485825 0.037870232 0.18807372
-0.01196354 0.035187874 0.18964291
-0.01199737 0.032357961 0.19251326
-0.012201069 0.029777721 0.19556934
-0.012561727 0.027079154 0.19919702
-0.013171377 0.024000457 0.2038189
-0.013135219 0.020987723 0.20641765
-0.013225219 0.017710147 0.20846133
-0.013389258 0.014293872 0.21030617
-0.013343557 0.010669156 0.21306875
-0.013603256 0.0075031142 0.21524571
-0.013575103 0.0041850833 0.2177588
-0.014431441 0.00040807712 0.22035934
-0.014995265 -0.0033234584 0.22345033
-0.015200678 -0.0071305279 0.22619405
-0.014797337 -0.011325908 0.22834575
-0.014396572 -0.015447842 0.23024714
-0.014331147 -0.019670628 0.23063082
-0.014271845 -0.023569908 0.23417562
-0.014334366 -0.027834548 0.24045786
-0.0095664263 0.034539718 0.19051617
-0.0088398643 0.032356985 0.19336362
-0.0089108944 0.029819483 0.19669083
-0.0090929894 0.026881939 0.19966488
-0.009594488 0.024168596 0.20378837
-0.0096172411 0.021336449 0.20721589
-0.0095368931 0.018067278 0.20980461
-0.0097796144 0.014462522 0.2116733
-0.0097345645 0.010875757 0.2136077
-0.0097943842 0.0075365752 0.21618479
-0.0097668422 0.0041215862 0.21872944
-0.010137107 0.00042293456 0.22119372
-0.011032285 -0.0034482598 0.22427897
-0.010735642 -0.0072582047 0.22681446
-0.010473163 -0.011251719 0.22912173
-0.010367765 -0.015394834 0.23099603
-0.010366782 -0.019595003 0.23218568
-0.010275292 -0.023952534 0.23619096
-0.010693641 -0.02727369 0.24065162
-0.0055836309 0.031944007 0.19612747
-0.005662743 0.029786663 0.19841599
-0.005856215 0.026695469 0.20150389
-0.0062209684 0.024175951 0.20463192
-0.0062697842 0.02152786 0.20759352
-0.0060802903 0.018056907 0.21060605
-0.0060753445 0.014476313 0.21255101
-0.0059869373 0.01113499 0.21438232
-0.0060186735 0.0077785226 0.21662892
-0.0062924228 0.0041675782 0.21954463
-0.0064463881 0.00046637451 0.22190468
-0.0065879258 -0.0036659047 0.22439995
-0.0065696891 -0.007525926 0.2269467
-0.0065508629 -0.011595501 0.22897193
-0.0063411552 -0.015598688 0.23039785
-0.0063684597 -0.019746685 0.23281278
-0.0067658499 -0.023396248 0.23548274
-0.0030381589 0.031484354 0.19795617
-0.0026122353 0.029699344 0.19930036
-0.0026201524 0.026716167 0.20176215
-0.0028262804 0.023928726 0.20431437
-0.0027307144 0.021367364 0.2073417
-0.0028267102 0.01822531 0.21056616
-0.0026024787 0.014599415 0.21314056
-0.0024158459 0.011148543 0.21487764
-0.0024478976 0.0078150947 0.21724097
-0.0025944971 0.0043730619 0.21943606
-0.0028872157 0.00038419722 0.22277169
-0.0027648096 -0.0034011805 0.22427839
-0.002737032 -0.007525852 0.22648606
-0.0027150337 -0.011287983 0.22774489
-0.0032769919 -0.015099556 0.22912882
-8.1476064e-06 0.029408606 0.20086285
0.00054940983 0.02716583 0.20258249
0.00038806337 0.024153698 0.20449354
0.00069052767 0.021683255 0.20706503
0.00083788595 0.018425202 0.20968196
0.0010751981 0.0148901 0.21196239
0.001083666 0.011399323 0.21459539
0.0010764736 0.0080354502 0.21716565
0.0012308548 0.0045971624 0.21851474
0.00087352027 0.00082933356 0.22192663
0.0012071438 -0.0030599001 0.2238474
0.00051149371 -0.0069007571 0.22583079
-0.00025596065 -0.010390001 0.22790408
0.0034498919 0.027369916 0.20353639
0.0038940145 0.02473253 0.20448624
0.0042137709 0.021999281 0.20673215
0.0044699125 0.018693857 0.20931295
0.0046897558 0.015134631 0.21174206
0.0044851694 0.011830161 0.21380371
0.0040563783 0.0080391346 0.21699804
0.0037569769 0.004979582 0.21835792
0.0035251875 0.0011197845 0.22116968
0.0034943626 -0.0019714211 0.2233814
0.0057137106 0.024977297 0.20505218
0.0065642609 0.021994695 0.20712054
0.0067394711 0.018985828 0.20942064
0.0067292508 0.015136308 0.21219663
0 0 0 1 0 0 0 1 0 0 0 1 0 0 0 0 0 354 1 0 0
