ply
format ascii 1.0
comment PCL generated
element vertex 354
property float x
property float y
property float z
element camera 1
property float view_px
property float view_py
property float view_pz
property float x_axisx
property float x_axisy
property float x_axisz
property float y_axisx
property float y_axisy
property float y_axisz
property float z_axisx
property float z_axisy
property float z_axisz
property float focal
property float scalex
property float scaley
property float centerx
property float centery
property int viewportx
property int viewporty
property float k1
property float k2
end_header
-0.058114942 0.025688473 0.19037229
-0.05901451 0.022745771 0.19249541
-0.060088076 0.019552622 0.19455282
-0.060775973 0.016356533 0.19648778
-0.060570937 0.013643878 0.19811291
-0.053710334 0.030228402 0.18609741
-0.054594912 0.028546689 0.18709293
-0.055182524 0.025909625 0.1884606
-0.055465363 0.023225503 0.19023535
-0.056598872 0.020267969 0.19306487
-0.057788558 0.016770963 0.19538784
-0.058748372 0.013250437 0.19754079
-0.058749449 0.010195325 0.19897613
-0.057528485 0.006678625 0.20152374
-0.049875721 0.032654162 0.18360607
-0.050533932 0.031127995 0.18451397
-0.051020149 0.028835597 0.18546815
-0.05145555 0.026402183 0.18681268
-0.051817726 0.023617785 0.18944143
-0.052890971 0.020413009 0.19260234
-0.05356266 0.017258937 0.19443253
-0.054797977 0.014209361 0.19628036
-0.055694103 0.01048676 0.19915943
-0.054482616 0.0039368146 0.20277296
-0.053212781 -0.0020892888 0.20274813
-0.052169982 -0.0062693143 0.20359007
-0.047744237 0.033280481 0.18247521
-0.04777107 0.031125307 0.18366484
-0.047774266 0.028907154 0.18490931
-0.048098568 0.026480151 0.18685372
-0.048839133 0.024033358 0.19033964
-0.04935126 0.020700993 0.19278063
-0.049668241 0.017712174 0.19436747
-0.050734825 0.014558497 0.1964556
-0.051766925 0.010376016 0.19929138
-0.050126664 0.0017350724 0.19992289
-0.049475946 -0.0041741128 0.20074412
-0.049538314 -0.0071358457 0.2036147
-0.050452307 -0.0092235394 0.20526955
-0.05219854 -0.0099517675 0.20657818
-0.045297083 0.035698578 0.18142837
-0.045158628 0.033823393 0.18232782
-0.045011565 0.031538207 0.18374167
-0.045013323 0.029372619 0.18544029
-0.045312982 0.027037455 0.18735519
-0.046023026 0.024535157 0.18999773
-0.046459973 0.020997539 0.1927686
-0.046694335 0.017987501 0.19387443
-0.047018584 0.014802356 0.19595835
-0.046849471 0.0088132629 0.19839771
-0.047041748 0.0022776364 0.19813597
-0.046446029 -0.0043184841 0.19988583
-0.046739332 -0.0063480297 0.20394932
-0.047829077 -0.0080770841 0.20600213
-0.050518058 -0.01035019 0.20768321
-0.052974164 -0.01235796 0.21128076
-0.054479267 -0.013180995 0.21600439
-0.055053331 -0.014348281 0.21976249
-0.043291759 0.036789529 0.18098679
-0.042741943 0.034437895 0.18253572
-0.042492412 0.032231979 0.18406665
-0.042599931 0.030121312 0.1856643
-0.043169972 0.027832577 0.18738848
-0.043440931 0.024980204 0.18985084
-0.043509495 0.021096742 0.19201083
-0.043693326 0.01773243 0.19303201
-0.043821264 0.014629292 0.19548799
-0.043786716 0.0096958159 0.19754729
-0.043617703 0.0027175208 0.19719122
-0.043387905 -0.0025874896 0.19858058
-0.043490596 -0.0050782971 0.20316109
-0.044223372 -0.0076629096 0.20607555
-0.047347564 -0.010575847 0.20892055
-0.050424241 -0.011936537 0.21275468
-0.052008595 -0.013080992 0.21698792
-0.053292319 -0.014489385 0.22056368
-0.053146664 -0.016212115 0.22521394
-0.052443068 -0.018284559 0.22860049
-0.041148681 0.040061746 0.17898729
-0.040962402 0.038214244 0.18056674
-0.040401757 0.03559139 0.18239695
-0.04001518 0.033387251 0.18407628
-0.039974652 0.031223994 0.18605623
-0.040334575 0.02852161 0.18796468
-0.0403434 0.025338296 0.18970203
-0.040366329 0.021123435 0.19140717
-0.04053694 0.017698662 0.19275483
-0.040363401 0.014638557 0.19503279
-0.040631372 0.010112991 0.19743919
-0.040717062 0.0036209722 0.19756223
-0.040076427 -0.0013240729 0.19835398
-0.040202372 -0.0039010821 0.20154026
-0.041189142 -0.0067293071 0.20678477
-0.044352353 -0.010797024 0.20992814
-0.047739923 -0.011865605 0.21369758
-0.048829757 -0.013048626 0.21785147
-0.049850654 -0.014931772 0.22156361
-0.049631473 -0.017327638 0.22522767
-0.049907032 -0.020121513 0.22795916
-0.049536247 -0.022368105 0.22989164
-0.037737619 0.041186202 0.17858388
-0.037609313 0.03962167 0.18004872
-0.037280053 0.037116762 0.18194324
-0.037144996 0.034458373 0.18409382
-0.036481395 0.031424947 0.18688211
-0.036493894 0.028141916 0.18903154
-0.036806192 0.025156327 0.19041255
-0.03712773 0.021409595 0.19172876
-0.037469551 0.018073048 0.19354206
-0.037478235 0.014633216 0.19582032
-0.038046274 0.010196188 0.19807924
-0.03805583 0.0042501451 0.19829185
-0.038079981 0.00045193746 0.19902493
-0.037787661 -0.0027380509 0.2018775
-0.038803954 -0.0062477845 0.20767255
-0.042013198 -0.010689419 0.21191914
-0.044059958 -0.012089047 0.21452382
-0.045173168 -0.013543877 0.21862985
-0.045772471 -0.015919408 0.22213905
-0.045673676 -0.019022606 0.22495188
-0.045790471 -0.02192238 0.22689603
-0.046020478 -0.024415722 0.22900751
-0.033221312 0.042707708 0.17852403
-0.03326834 0.041137192 0.17983492
-0.03313994 0.038676847 0.18186842
-0.032942329 0.034826465 0.1858297
-0.033228539 0.031157579 0.18861064
-0.033161569 0.028126478 0.1904863
-0.033208877 0.025089866 0.19205122
-0.033468582 0.021962821 0.19349937
-0.034351792 0.018596526 0.19444233
-0.034761254 0.014930918 0.19684219
-0.03527287 0.010597664 0.19886169
-0.035691157 0.004538592 0.19963543
-0.035910934 0.0010427306 0.20100027
-0.03613637 -0.0017915288 0.20405625
-0.037787408 -0.0057921531 0.20944296
-0.039948318 -0.0091737304 0.21425645
-0.041709252 -0.011848398 0.21675675
-0.042374078 -0.014082425 0.21950133
-0.042195864 -0.017359244 0.22232133
-0.041911658 -0.020972665 0.22439349
-0.041875165 -0.023666395 0.22603233
-0.042131975 -0.025911221 0.22842951
-0.028991267 0.043665327 0.17951688
-0.028755913 0.042099409 0.18088812
-0.02882996 0.03966995 0.1831599
-0.029537501 0.035217505 0.18769798
-0.03026871 0.031294871 0.19025008
-0.030218814 0.028254198 0.19193639
-0.030144464 0.025449997 0.19348115
-0.03000349 0.022736326 0.19529015
-0.030091945 0.019459955 0.19745843
-0.031271916 0.015769491 0.19838195
-0.032748342 0.0098652858 0.20033143
-0.033132628 0.0050938791 0.20195261
-0.033030361 0.0021728904 0.20444094
-0.03363017 -0.00088200619 0.20752811
-0.034692001 -0.0046652993 0.2120557
-0.036499776 -0.0083278166 0.2160331
-0.038540021 -0.012015155 0.21850291
-0.040041115 -0.015400002 0.2215703
-0.038788248 -0.019164447 0.22230853
-0.038216282 -0.0216035 0.22453913
-0.037989579 -0.024164967 0.22663453
-0.037541632 -0.026815135 0.23014437
-0.036243584 -0.028611455 0.23294498
-0.025122801 0.044040989 0.18113692
-0.025149895 0.042487554 0.1823788
-0.024979996 0.039806388 0.18419546
-0.025786746 0.036476653 0.18726182
-0.027327789 0.031834859 0.19076714
-0.02738679 0.028706606 0.19304678
-0.027132012 0.026097111 0.19477884
-0.02691018 0.023322331 0.19730292
-0.026291324 0.020795519 0.19944532
-0.027353263 0.017269591 0.20011307
-0.028813161 0.012218031 0.20233002
-0.029513648 0.0076636579 0.20440327
-0.029916529 0.0041652299 0.20682329
-0.030511444 0.00074471079 0.21027544
-0.031665619 -0.0030761012 0.21354391
-0.032888938 -0.0070580672 0.21744737
-0.034603041 -0.011481201 0.22071658
-0.035935711 -0.015892966 0.22336406
-0.034824979 -0.01892362 0.22384202
-0.033826549 -0.021676006 0.22677605
-0.033084378 -0.024321636 0.22894384
-0.032934651 -0.026695739 0.23119549
-0.032448683 -0.029278401 0.23290941
-0.022083385 0.044364106 0.18194745
-0.021842383 0.042687614 0.18301372
-0.021747906 0.039995044 0.18445601
-0.021675982 0.037402287 0.18622936
-0.023384737 0.032873232 0.19073118
-0.024099749 0.029700147 0.19381891
-0.023947123 0.027199673 0.19608591
-0.023453781 0.024599683 0.19877651
-0.023144346 0.021331809 0.20077631
-0.024234269 0.017649086 0.20173645
-0.02510584 0.013257787 0.20424518
-0.025538247 0.009589457 0.2063016
-0.026462486 0.0057440391 0.208758
-0.027292252 0.0021335506 0.21218607
-0.028647453 -0.0017949771 0.21529421
-0.029238213 -0.0055989274 0.21869072
-0.030135062 -0.010929681 0.22216523
-0.031451315 -0.016239917 0.225812
-0.031252872 -0.019442853 0.22785623
-0.030267902 -0.02164902 0.23033516
-0.029444689 -0.023544721 0.23124936
-0.029273454 -0.025734618 0.23283541
-0.029205043 -0.028853299 0.23470268
-0.019061398 0.042520918 0.18384062
-0.018531259 0.040155731 0.18531376
-0.018512158 0.037366167 0.1867481
-0.019358069 0.033872388 0.19047558
-0.020554729 0.030737372 0.19431908
-0.020527313 0.028248001 0.1966915
-0.020324718 0.025658749 0.19969548
-0.02020061 0.02136921 0.20153794
-0.02101648 0.017587787 0.20316456
-0.021717489 0.013842239 0.20551494
-0.022297718 0.010445447 0.20776547
-0.02292919 0.0070217811 0.21054487
-0.023799583 0.003339414 0.21355906
-0.025064474 -0.0012482633 0.21743123
-0.025242532 -0.0051395753 0.22072886
-0.025937872 -0.010018259 0.22373174
-0.027343534 -0.014985462 0.2270965
-0.027666742 -0.018370165 0.22937186
-0.02679636 -0.020667914 0.23158994
-0.025735162 -0.02245562 0.23233768
-0.025585853 -0.025174484 0.23301716
-0.025618305 -0.028913042 0.23665299
-0.01558404 0.040455598 0.18588954
-0.015411627 0.037657842 0.18742934
-0.016063942 0.034317933 0.19044998
-0.01674879 0.031417802 0.19444229
-0.016819589 0.029025266 0.19722712
-0.01654931 0.0265129 0.20155634
-0.017078338 0.021590576 0.20409879
-0.017381832 0.017702503 0.20524354
-0.018153487 0.014256075 0.20643334
-0.018889453 0.011314711 0.20868771
-0.019158244 0.0079456065 0.21223032
-0.018776424 0.0051431889 0.21497907
-0.019787656 0.00068229443 0.21865988
-0.021691473 -0.004968618 0.22310978
-0.023055706 -0.010054197 0.22652544
-0.023455774 -0.013785169 0.2282569
-0.023759402 -0.01725365 0.22978532
-0.023465766 -0.019716552 0.23210551
-0.022658415 -0.021776661 0.23281148
-0.022226676 -0.024878755 0.2341519
-0.021559954 -0.029381802 0.23991391
-0.012684479 0.037678182 0.18838832
-0.01264568 0.035063729 0.19078453
-0.013017558 0.032406274 0.19438837
-0.012892329 0.030031404 0.19747065
-0.013061981 0.026783776 0.20190668
-0.013695228 0.022559803 0.2056798
-0.013835756 0.019081786 0.20726013
-0.014157547 0.015468701 0.20849127
-0.015434386 0.011862216 0.21057516
-0.015273756 0.0086827651 0.21357541
-0.015243733 0.0058634956 0.21613924
-0.014905255 0.0028141071 0.21915427
-0.018044228 -0.0042097112 0.22556473
-0.019550366 -0.0089820903 0.22814053
-0.019894544 -0.012218199 0.22920245
-0.019361181 -0.015030581 0.23010474
-0.01922744 -0.018128932 0.23184672
-0.018986458 -0.021400735 0.23290549
-0.018060723 -0.025281833 0.23648581
-0.017587762 -0.029274954 0.24241443
-0.01034129 0.034957319 0.19193771
-0.0096357204 0.033045545 0.19499244
-0.0092783133 0.030797945 0.19839151
-0.0092516495 0.026752494 0.20267834
-0.0098318057 0.023392888 0.20674875
-0.010143239 0.020278079 0.20913422
-0.010396607 0.016513091 0.21075569
-0.011560163 0.01267325 0.21216545
-0.011320717 0.0091176676 0.2141788
-0.01111116 0.006060774 0.21746849
-0.010702599 0.0033086352 0.22058335
-0.011157312 -0.00091789162 0.22439022
-0.014253217 -0.0075552152 0.22883557
-0.01448864 -0.010794324 0.22963898
-0.014447208 -0.01411083 0.23126857
-0.014968736 -0.017890964 0.23352847
-0.01516062 -0.021325005 0.23491359
-0.014318586 -0.024940297 0.23910825
-0.014095447 -0.028535897 0.2441394
-0.0062707495 0.033182677 0.19747192
-0.0059503391 0.030713562 0.20068131
-0.0055023427 0.02613215 0.20479994
-0.0059990147 0.023195211 0.20733573
-0.0063008857 0.020672735 0.20958422
-0.0067552682 0.016944399 0.21215321
-0.0074363179 0.013043247 0.21360934
-0.0075876215 0.009632756 0.21516404
-0.0072501162 0.006631881 0.21808863
-0.0072312024 0.003556869 0.22102039
-0.0067501953 -0.00039691568 0.22405145
-0.0073653753 -0.0060988064 0.22747754
-0.0088066282 -0.010847554 0.22979607
-0.010059755 -0.014620862 0.23190114
-0.010820257 -0.018126076 0.2341228
-0.011154612 -0.02107165 0.23653436
-0.011203877 -0.023835501 0.23896638
-0.0037280531 0.032550786 0.19982174
-0.0028049098 0.029736185 0.20192017
-0.0022830844 0.025892742 0.20483887
-0.0024592378 0.022931308 0.20692062
-0.0027020564 0.02044799 0.20900406
-0.0034691233 0.016952608 0.21230224
-0.0038775587 0.013433604 0.21442254
-0.0039480655 0.0099933213 0.2161462
-0.0038151124 0.0069879843 0.2181409
-0.0035549444 0.0035683925 0.22048801
-0.003240474 -0.0011921371 0.22437426
-0.0030982564 -0.0057744882 0.22611432
-0.0049268198 -0.010929697 0.22930755
-0.0059501212 -0.014688202 0.2312682
-0.0072867707 -0.018030087 0.23349981
0.00026642717 0.02819588 0.2025103
0.00076615898 0.0254509 0.20452303
0.00050937827 0.02252339 0.20652743
0.0005388307 0.019768553 0.20866218
-1.3230811e-05 0.016541382 0.21125379
-7.6510594e-05 0.013378586 0.2136548
-8.535565e-06 0.010491825 0.21601845
5.8004948e-06 0.0072864834 0.2179189
0.00015176201 0.0037274354 0.21951333
0.00025696473 -0.0010100083 0.22304928
0.00074911339 -0.0056382883 0.22506885
-0.0011422113 -0.010389866 0.22829127
-0.003450192 -0.013926799 0.23092787
0.0032953187 0.024643645 0.2048118
0.0035504031 0.022133376 0.20603447
0.003795854 0.019410567 0.20799764
0.0035059431 0.016187783 0.2106107
0.00352696 0.013137735 0.21285678
0.0035926527 0.010562981 0.21500649
0.0031833216 0.0073006894 0.21785253
0.0028995168 0.0042741522 0.21945213
0.0025500178 -0.0007527275 0.22223765
0.0028030605 -0.0042560063 0.22422327
0.0052509317 0.021820894 0.20601597
0.0056630136 0.018816806 0.20828314
0.0059136604 0.01614151 0.21049269
0.0055942247 0.012959475 0.21304293
0 0 0 1 0 0 0 1 0 0 0 1 0 0 0 0 0 354 1 0 0
