ply
format ascii 1.0
comment PCL generated
element vertex 240
property float x
property float y
property float z
element camera 1
property float view_px
property float view_py
property float view_pz
property float x_axisx
property float x_axisy
property float x_axisz
property float y_axisx
property float y_axisy
property float y_axisz
property float z_axisx
property float z_axisy
property float z_axisz
property float focal
property float scalex
property float scaley
property float centerx
property float centery
property int viewportx
property int viewporty
property float k1
property float k2
end_header
-0.024088008 0.035406232 0.14594032
-0.024121666 0.033043806 0.14608651
-0.024317283 0.030885143 0.14813003
-0.024556985 0.028553059 0.14955382
-0.024769519 0.026401564 0.15117681
-0.025430446 0.024202401 0.15517019
-0.026512025 0.022000536 0.16070013
-0.026903283 0.019408671 0.16291957
-0.027013682 0.016698884 0.163702
-0.026913362 0.013885545 0.16379733
-0.026977593 0.01115882 0.16472727
-0.02714432 0.0084630409 0.16654749
-0.02715197 0.0056399633 0.16697095
-0.021612713 0.035271574 0.14537343
-0.021671426 0.033045027 0.14642195
-0.021831527 0.030912247 0.14834431
-0.021992309 0.028627787 0.14957495
-0.022227619 0.026371574 0.1513219
-0.022701606 0.024179503 0.15442121
-0.023221143 0.021706441 0.15811238
-0.023592629 0.01923204 0.160272
-0.023777196 0.016632115 0.16165142
-0.023906017 0.013846482 0.1627351
-0.023914304 0.011173466 0.16391777
-0.024320673 0.0085227154 0.16658306
-0.024581963 0.0058439285 0.16848078
-0.02492241 0.0031064525 0.17146398
-0.01908683 0.035360627 0.14548938
-0.019281171 0.033373825 0.14802212
-0.019351088 0.030995423 0.14869024
-0.019504443 0.028700737 0.14997432
-0.019606994 0.026313933 0.15084244
-0.020090181 0.02419129 0.15467149
-0.020701213 0.021863855 0.15913691
-0.020916779 0.019271307 0.16058521
-0.021049647 0.016674938 0.16187035
-0.021251358 0.014050948 0.16357672
-0.021489101 0.011442628 0.16636807
-0.021616334 0.0085855145 0.16873169
-0.021755826 0.0056798006 0.17071283
-0.022243144 0.0031142696 0.17275363
-0.022409441 0.00022037083 0.17384881
-0.016557019 0.035508722 0.14655213
-0.0167665 0.033392336 0.14809178
-0.01677453 0.030980416 0.14827989
-0.017015921 0.028863819 0.15062727
-0.017106462 0.026554296 0.15144598
-0.017448612 0.02428342 0.15467553
-0.018053025 0.022042222 0.15950462
-0.018051319 0.019330176 0.15969154
-0.01831954 0.016827913 0.16213012
-0.018500268 0.014256136 0.16498016
-0.018623183 0.011395102 0.1682515
-0.018818397 0.0086483387 0.1697727
-0.019248232 0.0059959884 0.17234221
-0.019659465 0.0033508239 0.17428951
-0.019972276 0.00056674454 0.17560677
-0.014067546 0.035438363 0.14620775
-0.014208814 0.033296544 0.14769211
-0.014193761 0.030905057 0.14766136
-0.014506047 0.028981006 0.15076301
-0.014640799 0.026715191 0.15252049
-0.014875964 0.024418892 0.15507981
-0.015370983 0.022169257 0.15996169
-0.015352062 0.019422406 0.16005585
-0.015579544 0.016941899 0.16241769
-0.015712315 0.014406108 0.16535047
-0.015599842 0.011324769 0.16793919
-0.0161322 0.0088332482 0.17111421
-0.016696291 0.0063117999 0.17445691
-0.016893452 0.0034384066 0.17545678
-0.016773395 0.0003312089 0.17549595
-0.01159051 0.035473309 0.14623922
-0.011698289 0.033272341 0.14759871
-0.011696902 0.031005964 0.14891283
-0.011924135 0.02891827 0.15142453
-0.012066735 0.026713438 0.15300389
-0.012255115 0.024442118 0.15529583
-0.012530915 0.02212525 0.15896861
-0.012551835 0.019397866 0.15959419
-0.012773294 0.016949575 0.16221678
-0.012939967 0.014414861 0.16616289
-0.013001782 0.011322142 0.17018126
-0.013575924 0.0089891469 0.17383513
-0.013803614 0.0062292307 0.17545028
-0.014016123 0.0034257045 0.17640088
-0.01338552 -0.00022044939 0.17429455
-0.0091053173 0.035470456 0.14628005
-0.0092050498 0.033254884 0.14731735
-0.0092412625 0.031327575 0.15003997
-0.0094112875 0.028923646 0.15199642
-0.0093882801 0.026612973 0.15345383
-0.0095689967 0.024389308 0.1558322
-0.0096715512 0.021981604 0.15885462
-0.009699638 0.0191571 0.15881445
-0.0099003352 0.016758474 0.16206585
-0.010329749 0.014554343 0.16686969
-0.010205893 0.01095974 0.17094077
-0.010759656 0.0090293624 0.17458795
-0.010729099 0.0059966785 0.1751623
-0.010937966 0.0032122559 0.17627756
-0.010644173 -9.654423e-05 0.17498791
-0.0066122892 0.035534423 0.14660025
-0.0066771191 0.033392519 0.14789791
-0.0067421361 0.031375937 0.15053251
-0.0066864421 0.029086025 0.15179762
-0.0067120912 0.026647689 0.15292239
-0.0068444042 0.024421468 0.15622045
-0.0070165275 0.021865061 0.15954345
-0.0068316008 0.01904255 0.15961909
-0.007144433 0.016748203 0.16301239
-0.0075199218 0.014335066 0.16722172
-0.0075102039 0.010746011 0.17058986
-0.0078406371 0.0087683974 0.17426452
-0.0079670735 0.0062214448 0.17631628
-0.0080097076 0.0031968344 0.17688364
-0.0084685562 0.00096704153 0.17921591
-0.004130234 0.035645295 0.14714293
-0.004173209 0.033531729 0.14873201
-0.0041600494 0.031587481 0.15064974
-0.0041496623 0.029337775 0.15306617
-0.0041795848 0.026888533 0.15482025
-0.004319055 0.024771458 0.15923162
-0.0043524872 0.022037098 0.16053188
-0.0043121884 0.019390833 0.16138031
-0.0044847061 0.016966067 0.164332
-0.0047272523 0.014443484 0.16787358
-0.0048327674 0.011397775 0.17153461
-0.0048933085 0.0090289805 0.17464064
-0.0049518291 0.0064307917 0.17632207
-0.0050752717 0.0034707286 0.17690364
-0.0045887786 0.00036443665 0.17976312
-0.001610184 0.035686053 0.14736855
-0.001625367 0.033545535 0.14904311
-0.0015215687 0.031542197 0.15052696
-0.0015266797 0.029286651 0.15248927
-0.0015500238 0.026926875 0.1547897
-0.0015886256 0.024845866 0.1590621
-0.001624228 0.02217206 0.160423
-0.0016868976 0.019725047 0.16269514
-0.0016870741 0.017192522 0.1647668
-0.0019182771 0.01455994 0.16903174
-0.0019377532 0.011767987 0.1725924
-0.0019452929 0.0093222316 0.17511329
-0.0019125674 0.0065893643 0.17697419
-0.0018041242 0.0034844794 0.17671828
-0.0013962308 0.00041888098 0.18075232
0.00087190198 0.03583321 0.14795758
0.00087830052 0.033618394 0.14932421
0.00091875088 0.031495471 0.15140508
0.0010827759 0.029276693 0.15328732
0.0010914701 0.027120078 0.15647705
0.0011062274 0.024880016 0.15901393
0.0011082194 0.022407865 0.16096424
0.0010180008 0.019957747 0.1633226
0.0010990563 0.01739388 0.16551156
0.00098642858 0.01470247 0.16904634
0.00088410615 0.012105562 0.17276067
0.0010184932 0.0093007423 0.17423376
0.0010528985 0.0065549552 0.17604372
0.0012104702 0.0036144387 0.17771184
0.0014571951 0.00058405788 0.17992978
0.0033972496 0.035945229 0.14840971
0.003467849 0.033930533 0.15072997
0.0034786274 0.031513389 0.15166683
0.0036937299 0.029162796 0.15379149
0.0037378422 0.027073197 0.1564309
0.0037907637 0.024841808 0.15887497
0.0038284273 0.022276731 0.15985395
0.0038416346 0.019937232 0.16295269
0.003807565 0.017456392 0.16545057
0.0038647619 0.014839449 0.16880248
0.0038895747 0.01213104 0.17219825
0.0039301175 0.0092802644 0.17319432
0.0039744256 0.006454661 0.17388384
0.0040671108 0.0035954076 0.17698778
0.0042342143 0.00057725445 0.17828126
0.0058707097 0.035685889 0.14731091
0.005970567 0.033720981 0.14976616
0.0060393251 0.031488337 0.15129745
0.0062226322 0.029274818 0.15389034
0.0063791983 0.027220346 0.15721913
0.0065023582 0.024911528 0.15922479
0.0065720393 0.022419391 0.16077769
0.0066600121 0.020059576 0.16283773
0.0066936589 0.017404767 0.16490944
0.0067847846 0.014922691 0.16952752
0.0067499597 0.012100518 0.1709145
0.0067037321 0.0092239287 0.1723032
0.0067691803 0.0064331903 0.17409536
0.0070453179 0.0033926878 0.17704673
0.0071523655 0.00024978325 0.17912103
0.0084123975 0.035850327 0.14804065
0.008531658 0.033783089 0.15005131
0.0085337963 0.031347938 0.15055966
0.0090010585 0.029580289 0.15552787
0.0090624038 0.027527204 0.15855533
0.0092060668 0.025103755 0.15990195
0.009297044 0.022698516 0.16210069
0.0094909463 0.02011783 0.16432048
0.0094777169 0.017490076 0.1661633
0.0096071754 0.014800685 0.16909586
0.0095543871 0.011932165 0.1691546
0.0094561633 0.0090939282 0.17072639
0.0097303623 0.0060179615 0.17473117
0.010272988 0.0024461476 0.17790616
0.010203468 -0.00050531095 0.17929704
0.010881083 0.03568314 0.14735705
0.010984439 0.033470057 0.14865986
0.011180983 0.031419426 0.1510286
0.011629292 0.029728413 0.15590626
0.011734012 0.027633829 0.15863404
0.011818057 0.024932498 0.15841553
0.012000063 0.022735506 0.16222878
0.012256794 0.020153591 0.16450036
0.012298005 0.017485291 0.16613533
0.012366853 0.01473471 0.1671672
0.012384433 0.011828627 0.16805971
0.012157562 0.008799403 0.16996047
0.01270035 0.0054151919 0.17424344
0.013118006 0.0018102884 0.17640875
0.013242764 0.035322331 0.14586058
0.013420309 0.033230234 0.14760022
0.013841466 0.031540636 0.15187789
0.014217468 0.029788548 0.15622245
0.014409338 0.027587906 0.15817694
0.014535141 0.025082178 0.15925932
0.014838866 0.022893829 0.16330731
0.014968162 0.020142922 0.16452517
0.015140358 0.017463116 0.16596724
0.01519623 0.014719671 0.16700153
0.015244078 0.011819921 0.1678762
0.015082624 0.0085580219 0.1702003
0.01552497 0.0049338737 0.17305312
0.015050911 0.0017709034 0.17312907
0.01495029 -0.0012747328 0.17434636
0.015333671 0.034795769 0.14392255
0.015634948 0.033078093 0.14735465
0.016213801 0.031789184 0.15300374
0.016696477 0.027770502 0.15815854
0 0 0 1 0 0 0 1 0 0 0 1 0 0 0 0 0 240 1 0 0
