ply
format ascii 1.0
comment PCL generated
element vertex 240
property float x
property float y
property float z
element camera 1
property float view_px
property float view_py
property float view_pz
property float x_axisx
property float x_axisy
property float x_axisz
property float y_axisx
property float y_axisy
property float y_axisz
property float z_axisx
property float z_axisy
property float z_axisz
property float focal
property float scalex
property float scaley
property float centerx
property float centery
property int viewportx
property int viewporty
property float k1
property float k2
end_header
-0.024258088 0.0351501 0.14620702
-0.024217248 0.032754734 0.14611286
-0.024398431 0.03054381 0.14792886
-0.024701945 0.028213218 0.14943567
-0.024993848 0.026126292 0.15162142
-0.025670944 0.023724437 0.15535428
-0.026866628 0.021897061 0.16077787
-0.027234927 0.019534837 0.16301823
-0.027388096 0.016927363 0.16407737
-0.027402511 0.01427088 0.16512363
-0.027568277 0.011511706 0.16594672
-0.027853465 0.0087671718 0.16793889
-0.02789613 0.0059926151 0.16777761
-0.021831697 0.035152633 0.14589553
-0.021781038 0.032868452 0.14666164
-0.021934383 0.030616384 0.14829348
-0.022154434 0.028361283 0.14970773
-0.02240013 0.026194431 0.1514923
-0.022876604 0.023680115 0.15417355
-0.023513414 0.021145074 0.15817158
-0.023844903 0.018958205 0.16028279
-0.024134755 0.016621664 0.16255063
-0.024449321 0.014064261 0.16381933
-0.02455982 0.011426777 0.16489385
-0.024996296 0.0086986264 0.16733533
-0.025195073 0.0059040166 0.16943485
-0.024884839 0.0029067327 0.17146848
-0.01929035 0.035361696 0.14635301
-0.019395554 0.033147473 0.14823419
-0.019468304 0.030780589 0.14889893
-0.019663068 0.028404512 0.15010513
-0.019863039 0.026098372 0.15144764
-0.020312322 0.023752997 0.1548353
-0.020890342 0.021389073 0.15874359
-0.021117005 0.018898433 0.16031319
-0.021312961 0.016531978 0.16214836
-0.021663105 0.01415068 0.16419192
-0.021922149 0.011518438 0.1670126
-0.022119695 0.0086673871 0.16914999
-0.02218904 0.0055900952 0.17100422
-0.02217312 0.0027076656 0.17181286
-0.022032386 -0.0002896176 0.17238374
-0.016687408 0.035500407 0.14764985
-0.016972618 0.033226419 0.1488972
-0.016941857 0.03077554 0.14888148
-0.017168157 0.028583221 0.15088198
-0.017335635 0.026221026 0.15171053
-0.017642705 0.023800293 0.15469547
-0.018208591 0.021580644 0.15923171
-0.018313805 0.018894967 0.15995005
-0.018575598 0.01642511 0.16233435
-0.018733578 0.013983411 0.16495278
-0.019202944 0.011333494 0.1685054
-0.019355431 0.0086190812 0.16982403
-0.019381341 0.0057938267 0.17188162
-0.019453911 0.002956758 0.17321318
-0.019651275 -0.00011067315 0.17435336
-0.014218457 0.035601869 0.14791927
-0.014460003 0.033268843 0.14905375
-0.014363639 0.030909775 0.14878605
-0.014706473 0.02863431 0.15105586
-0.014846823 0.026285045 0.15265596
-0.015081692 0.023898022 0.15514316
-0.015504079 0.021626029 0.16011177
-0.01552585 0.018942241 0.16030572
-0.015724376 0.016258812 0.16240381
-0.015886579 0.013257142 0.16452695
-0.016246548 0.010879417 0.16728505
-0.016413199 0.0084511517 0.17047176
-0.016718822 0.0060071168 0.17396931
-0.016818918 0.0029621392 0.17509384
-0.016485762 -0.00017395437 0.17427097
-0.011828258 0.035677001 0.14786628
-0.01192642 0.033339128 0.14908741
-0.01194595 0.030876338 0.14996819
-0.012078799 0.028437439 0.15154703
-0.012230042 0.026218446 0.15314107
-0.012421845 0.02389729 0.15523416
-0.012695509 0.021515574 0.15898764
-0.012702254 0.019009393 0.16011594
-0.012824319 0.016226737 0.16181599
-0.013001715 0.013076711 0.16497032
-0.013399935 0.010590817 0.16847228
-0.013679287 0.0085076401 0.17218353
-0.013708181 0.0059619206 0.17465208
-0.013940624 0.0030522936 0.1746392
-0.013295424 -0.00047445527 0.1728961
-0.0093398802 0.03567823 0.14755698
-0.009433833 0.033479359 0.14878243
-0.0094548557 0.031016771 0.15086934
-0.0095563782 0.028291583 0.15194404
-0.009512011 0.026087604 0.15359342
-0.009676517 0.023974942 0.15594594
-0.0097033633 0.021553518 0.15852466
-0.009851505 0.019164303 0.15906939
-0.00992293 0.01630049 0.16205822
-0.010307726 0.013410079 0.16579813
-0.010531693 0.010588805 0.16959456
-0.010809054 0.0085644396 0.17278601
-0.010701352 0.0057297763 0.17352608
-0.010732768 0.0029273424 0.17392062
-0.010595163 -0.00029500842 0.17362231
-0.0068366691 0.035631303 0.14739318
-0.0068960502 0.033395022 0.1488301
-0.0069515184 0.031016681 0.15127835
-0.0067778407 0.028447418 0.15178554
-0.0068273009 0.026104162 0.15335011
-0.0069897124 0.024252748 0.15694262
-0.0071203657 0.021744007 0.15970407
-0.0069602723 0.019106245 0.16027631
-0.007169561 0.016573494 0.16307427
-0.0075673717 0.01390723 0.16739029
-0.0073147533 0.010999816 0.16974039
-0.0077748676 0.0084959101 0.17255652
-0.0077827321 0.0057972884 0.17382155
-0.0077512106 0.0029189743 0.17424056
-0.0079429923 0.00090017082 0.17688294
-0.0043496648 0.035504613 0.14752345
-0.0043492215 0.033198457 0.14896801
-0.0042802878 0.031017661 0.15099497
-0.0041625355 0.028596817 0.15281609
-0.0042526582 0.026392283 0.15506509
-0.0044088392 0.024593785 0.15958366
-0.0044341655 0.021992052 0.16075595
-0.0044384692 0.019378064 0.16185986
-0.0045828503 0.016860336 0.16477695
-0.0047105025 0.014437079 0.16879775
-0.0044584498 0.011731319 0.17227295
-0.0047718561 0.0089497427 0.17429367
-0.0048501841 0.0060166568 0.17456193
-0.0048737596 0.0031423876 0.17447115
-0.004910301 -0.00023111445 0.1785446
-0.001855647 0.035430685 0.1477564
-0.0018305266 0.033049855 0.1488796
-0.001593161 0.030514996 0.15025538
-0.0015878747 0.028342452 0.15216734
-0.00153796 0.026247418 0.15458067
-0.0016505012 0.024580052 0.15919122
-0.0017414379 0.022008829 0.16078779
-0.0017483108 0.019575588 0.16301589
-0.0016796901 0.017219799 0.16556548
-0.0017154327 0.014895599 0.17065352
-0.0016492623 0.01210326 0.17381099
-0.001920615 0.0092038838 0.17579897
-0.0020276939 0.0061407904 0.17629321
-0.0017826791 0.0031134272 0.17616852
-0.0018370392 -0.00038222462 0.18012851
0.00068428891 0.034989092 0.14832878
0.00084178033 0.032711178 0.14954896
0.00092461228 0.030402526 0.15117006
0.0011154712 0.028228592 0.15313193
0.0010421703 0.026220739 0.15613241
0.00099112024 0.024272662 0.15876043
0.00099450641 0.022037355 0.16107823
0.0010036115 0.019745398 0.16368361
0.0010568055 0.017466137 0.16633603
0.0011932047 0.015158421 0.17081796
0.001119927 0.012368869 0.17433666
0.0012470167 0.0094292639 0.17571703
0.0011038539 0.0063197501 0.17621389
0.0010606428 0.0032408428 0.17747809
0.001123797 2.0231155e-05 0.17926483
0.0031413808 0.035279196 0.148701
0.0032176755 0.033024076 0.15040717
0.0034129119 0.030631173 0.15164028
0.0037098452 0.028088611 0.15356
0.003718345 0.02603358 0.15592682
0.0036873207 0.024085265 0.15827721
0.0037164956 0.021724649 0.15997143
0.0037619192 0.019582454 0.16356836
0.0037899751 0.017406369 0.16660266
0.004030956 0.015227343 0.17063305
0.0041717873 0.012381642 0.17389293
0.0042501916 0.0094996104 0.17462994
0.0043084715 0.0066213566 0.17477696
0.0040978962 0.0034213325 0.17744282
0.004266772 0.00038933966 0.17823499
0.0057130624 0.035460312 0.14817892
0.0057847505 0.033251531 0.15006414
0.0059717316 0.030960817 0.1518043
0.0061549908 0.028732857 0.15431876
0.0062621031 0.026417533 0.15700307
0.0063434541 0.024220979 0.15914103
0.0064225127 0.021884467 0.16089951
0.0065290905 0.01959938 0.16297792
0.0069230776 0.017035419 0.16613008
0.0068753208 0.015119643 0.17064032
0.0070340587 0.012287782 0.17266677
0.0070518279 0.009430239 0.17381117
0.0070331949 0.0066075819 0.17576367
0.007031451 0.0035026572 0.17840151
0.0069558704 0.00045211747 0.18020453
0.0081612095 0.035818104 0.14899518
0.0083065489 0.033648174 0.15104245
0.0085894652 0.031212324 0.15143295
0.0089485254 0.028950289 0.15567353
0.0087891789 0.026867757 0.15855983
0.0089110835 0.024455145 0.15968761
0.0090312082 0.022002883 0.16195104
0.0097922888 0.019400697 0.16478407
0.0097019924 0.017104065 0.16708973
0.0097122109 0.014931178 0.17036919
0.0099262604 0.012077331 0.1713727
0.0099922698 0.0095211109 0.17308396
0.0097419731 0.0066639185 0.17682035
0.010075785 0.0033784499 0.18112348
0.0099553475 0.00049769675 0.18296479
0.010700592 0.036024775 0.14866589
0.010937112 0.033779804 0.15009587
0.011097359 0.031517789 0.15213035
0.011491358 0.029241486 0.15648468
0.011346471 0.027151003 0.15898126
0.011691052 0.02463566 0.1595438
0.01151188 0.022065295 0.16212457
0.012405735 0.019465795 0.16509901
0.012538952 0.017162101 0.16722721
0.012608605 0.014777025 0.1689302
0.012764251 0.012134539 0.17044689
0.012825191 0.0096560027 0.17305544
0.012751014 0.0066647045 0.17808649
0.013390223 0.0033743889 0.18119222
0.013275694 0.036189605 0.14786512
0.013544496 0.034003638 0.14966409
0.013620393 0.0316929 0.153349
0.014004392 0.029439816 0.15744403
0.014107865 0.027297713 0.15939192
0.014245262 0.024868894 0.16030091
0.014257711 0.022319734 0.1633566
0.014997381 0.019534148 0.16502567
0.015283752 0.017249638 0.16700834
0.015413295 0.014887449 0.16878067
0.015571663 0.012338731 0.17042264
0.015524503 0.0098233847 0.17361714
0.015846647 0.0065542911 0.1771844
0.016134623 0.0036810422 0.17861743
0.016234752 0.00065971201 0.1806905
0.015611812 0.036104448 0.14643355
0.015841715 0.034032214 0.14956805
0.016000228 0.031729005 0.15411761
0.016307058 0.027495528 0.15917033
0 0 0 1 0 0 0 1 0 0 0 1 0 0 0 0 0 240 1 0 0
