ply
format ascii 1.0
comment PCL generated
element vertex 240
property float x
property float y
property float z
element camera 1
property float view_px
property float view_py
property float view_pz
property float x_axisx
property float x_axisy
property float x_axisz
property float y_axisx
property float y_axisy
property float y_axisz
property float z_axisx
property float z_axisy
property float z_axisz
property float focal
property float scalex
property float scaley
property float centerx
property float centery
property int viewportx
property int viewporty
property float k1
property float k2
end_header
-0.02657013 0.033772614 0.14690888
-0.026413577 0.031352405 0.14699711
-0.026165048 0.028894374 0.14848326
-0.026069136 0.026365001 0.1495434
-0.026085937 0.02356902 0.15171584
-0.027013026 0.019928737 0.15437052
-0.030659476 0.014826466 0.15706395
-0.031121103 0.011986497 0.15826674
-0.031132394 0.0090217171 0.15898098
-0.030930886 0.0059604398 0.1592887
-0.031156031 0.0026670257 0.16009723
-0.031603351 -0.00015812123 0.1618824
-0.031800114 -0.0026297092 0.16303809
-0.024292767 0.03381094 0.14626963
-0.023850346 0.03122111 0.14692438
-0.023455279 0.028769275 0.1476067
-0.02340869 0.026375214 0.14907037
-0.023276268 0.024056641 0.1506898
-0.024053648 0.020427262 0.15245272
-0.025147099 0.016288336 0.15623786
-0.026428679 0.013100395 0.15735224
-0.02709257 0.0099584376 0.15848541
-0.027641768 0.0068898392 0.15888885
-0.027694607 0.0037724045 0.15999664
-0.028515344 0.00024376772 0.16166852
-0.029129468 -0.002426242 0.16413641
-0.027383937 -0.0051647564 0.16523758
-0.021358531 0.033968765 0.14612919
-0.020710668 0.03145748 0.14746077
-0.02064372 0.029051332 0.14782512
-0.020671412 0.026529375 0.1493466
-0.020820005 0.023928417 0.15066573
-0.021571446 0.02042708 0.15360717
-0.022583952 0.016572056 0.15641436
-0.023068219 0.013402042 0.15721542
-0.023575371 0.010532829 0.15802316
-0.024852114 0.0073207244 0.15934478
-0.024864601 0.003764502 0.16201656
-0.024731815 0.00072585617 0.16321406
-0.024815943 -0.0022963318 0.16505617
-0.024105465 -0.0048311083 0.16555148
-0.023336081 -0.0074837697 0.16610803
-0.017531376 0.033967786 0.14759701
-0.017938664 0.031682298 0.14842273
-0.018024456 0.029249525 0.14843287
-0.018429955 0.026952857 0.15043657
-0.018406807 0.024085317 0.15081616
-0.018827189 0.0210575 0.15347496
-0.020122185 0.017052457 0.15726581
-0.020199766 0.014008635 0.1577065
-0.020714723 0.010861962 0.15939692
-0.021963615 0.0065887123 0.16174701
-0.022504622 0.003751385 0.16322343
-0.022254016 0.001269355 0.16449748
-0.022321818 -0.0013028097 0.16594629
-0.021805853 -0.0038062413 0.16628258
-0.021055534 -0.00648758 0.1675639
-0.014811236 0.034155838 0.14833626
-0.015303633 0.031779967 0.14895816
-0.015306788 0.029584212 0.148774
-0.015920188 0.026805341 0.15093668
-0.016043168 0.024018507 0.15196177
-0.016404068 0.021195613 0.15409379
-0.017489364 0.017439205 0.15839426
-0.017579464 0.014358833 0.15873344
-0.017865214 0.01153642 0.16050817
-0.018785994 0.0076568695 0.16314992
-0.019399012 0.0047381385 0.16399102
-0.019656338 0.0018589426 0.16601256
-0.019714216 -0.00040896851 0.16613421
-0.01922065 -0.0031864843 0.1670077
-0.018135834 -0.0056041903 0.1678061
-0.012422863 0.034333989 0.14868037
-0.012659862 0.031915639 0.14940563
-0.012951893 0.02918151 0.15010725
-0.013278857 0.026535736 0.15143859
-0.013576128 0.023988068 0.15267748
-0.013793826 0.021443116 0.15423214
-0.014611299 0.018301185 0.15802224
-0.014899665 0.01480933 0.15920742
-0.015005236 0.011798317 0.16142839
-0.016272319 0.0080566052 0.16418137
-0.017540688 0.0048048864 0.16508365
-0.017869702 0.0021586698 0.16606575
-0.017232137 5.2675805e-05 0.16693324
-0.017035898 -0.0025664056 0.16685279
-0.015219137 -0.005142028 0.1674457
-0.009943055 0.034472115 0.1484635
-0.010159159 0.032212105 0.14950061
-0.010434283 0.028988086 0.15119459
-0.010887463 0.026404221 0.15222548
-0.01086407 0.024122467 0.15336075
-0.010987348 0.021660911 0.15576957
-0.010825529 0.019229801 0.15821952
-0.011597588 0.015521157 0.15859574
-0.011406085 0.01243301 0.16184212
-0.012861522 0.0091372421 0.16524172
-0.015340549 0.0053087813 0.16504465
-0.015115663 0.0028104407 0.16609159
-0.014589766 0.00049638411 0.16705886
-0.014042518 -0.0015901754 0.1676565
-0.012841905 -0.0043026069 0.16798435
-0.0074792905 0.034523085 0.1483492
-0.007822019 0.031965706 0.14984182
-0.008044512 0.028942578 0.15188505
-0.0079463581 0.026469558 0.15243672
-0.0078690434 0.024197683 0.15335974
-0.0076932875 0.021706352 0.15720735
-0.0075461729 0.01908271 0.15915363
-0.0073937774 0.016597973 0.15984094
-0.0074619306 0.013188822 0.16188581
-0.0075136228 0.010146132 0.16571121
-0.01046627 0.0059870612 0.16658449
-0.012053148 0.0033187403 0.16763107
-0.011639884 0.0012315256 0.16866294
-0.011083374 -0.00090473599 0.16884513
-0.011018997 -0.0028186927 0.16960236
-0.0048376769 0.03420582 0.14802894
-0.0052852323 0.031421173 0.14998713
-0.0054699462 0.028572304 0.15172021
-0.0052367067 0.02647168 0.15310499
-0.0052104248 0.024128832 0.15462376
-0.0048695197 0.021591466 0.15878871
-0.0048969612 0.019456429 0.16012429
-0.0050530285 0.01681071 0.16106865
-0.004777893 0.013438508 0.16316649
-0.0046080565 0.010143422 0.16664515
-0.005045346 0.0067444677 0.16784576
-0.0076113245 0.0042235013 0.16958033
-0.0086768344 0.0013041254 0.16947551
-0.0085703665 -0.00056105171 0.16945243
-0.0060560456 -0.0047910791 0.17292815
-0.0023707913 0.034017287 0.14825943
-0.0027761343 0.031342782 0.14929619
-0.0024204904 0.028438434 0.15088415
-0.0024321666 0.026133509 0.15249191
-0.0022876214 0.024069555 0.15480421
-0.0023168325 0.021700947 0.15923913
-0.0022517284 0.01971638 0.16076109
-0.0023595414 0.016836327 0.16234411
-0.0020414805 0.013689881 0.16424404
-0.0013772438 0.010077666 0.16773766
-0.0021249752 0.0073743504 0.1686527
-0.0023424479 0.0047960184 0.1710349
-0.0036480164 0.0024448587 0.17166333
-0.0032514499 -0.00043270193 0.17268491
-0.00160029 -0.0050723706 0.17590262
0.00047846284 0.033352941 0.14882532
0.0011232835 0.031260557 0.1498567
0.00061459019 0.028348511 0.15146229
0.001088263 0.026214374 0.15375423
0.001169202 0.023870999 0.15637267
0.00060510822 0.02186233 0.1589027
0.00037267921 0.020045649 0.161319
0.00021625916 0.016997771 0.16314396
0.00041381654 0.014085433 0.16465193
0.0016516702 0.010477815 0.16804515
0.0011461646 0.0076711904 0.16935115
0.00089599268 0.0051339054 0.17131157
0.00030161921 0.0026654331 0.17257941
0.00046241193 -0.00031769043 0.17489533
0.00071118277 -0.0037561904 0.17630403
0.002980297 0.034291621 0.14934051
0.0032888174 0.031899896 0.15072925
0.0036043134 0.029447963 0.15222982
0.0041500088 0.026584106 0.15504469
0.0041107396 0.024440305 0.15667711
0.0036007746 0.022423832 0.1584162
0.003205236 0.020245127 0.15989716
0.003043582 0.017051399 0.16311452
0.002978632 0.014333416 0.16513468
0.0046048723 0.010974079 0.16848162
0.0045802328 0.0078991763 0.16988681
0.0040871552 0.0057073464 0.17099471
0.0041206093 0.0030928713 0.17278074
0.0032051338 0.00035716372 0.17537624
0.0036535291 -0.0026042361 0.17676586
0.0056878617 0.034943603 0.14922747
0.005854175 0.032665856 0.15095276
0.005938387 0.030324448 0.15247101
0.0063588917 0.026960405 0.15555836
0.006229437 0.024837051 0.15773174
0.0058224252 0.022775298 0.15939279
0.0059432257 0.020490447 0.16113783
0.0056762439 0.017866984 0.16236205
0.0067475927 0.014311047 0.16612601
0.006946601 0.011623921 0.16923937
0.0072621764 0.0087072756 0.1698505
0.0069573158 0.006314693 0.17178263
0.0062796343 0.0041067409 0.17421952
0.0060251588 0.00063385151 0.17688997
0.0061213127 -0.0020816952 0.17852013
0.0079765841 0.035402972 0.14989734
0.0080759805 0.033188429 0.15179478
0.0085499855 0.031006493 0.15255716
0.0088875825 0.027511656 0.15764096
0.0083662216 0.025223969 0.15956479
0.0080423476 0.023168271 0.16038267
0.0078304298 0.021060646 0.16206917
0.0098785078 0.017010611 0.16593494
0.0096695572 0.014477791 0.1674502
0.0095028011 0.011790168 0.16909163
0.010023781 0.0094121126 0.17004447
0.0097836982 0.0071770358 0.17195472
0.0088142799 0.0042262259 0.17541596
0.0098712165 -0.00040102811 0.17832063
0.0096790567 -0.0027062299 0.17956966
0.01044994 0.035727724 0.1498037
0.010712664 0.033636574 0.15094335
0.010831784 0.031276617 0.15308402
0.011071605 0.027996695 0.15867391
0.010850353 0.025334194 0.1599814
0.010640571 0.023256833 0.16086216
0.0098464023 0.021183204 0.16337413
0.01195795 0.017320653 0.16635466
0.011901488 0.014845537 0.16782244
0.01206392 0.012355287 0.16872278
0.012648229 0.0099030416 0.17013463
0.012350735 0.0075485981 0.17241782
0.011798185 0.0039448882 0.17592287
0.013656767 -0.00053304527 0.17720161
0.012982383 0.036010653 0.1490632
0.013286704 0.033663638 0.15028264
0.013556212 0.030334828 0.1550246
0.014214729 0.027267961 0.15898472
0.013850748 0.025306612 0.16033365
0.013593311 0.023399794 0.1618896
0.012825156 0.02098934 0.16513409
0.014134781 0.017730016 0.16653854
0.014069192 0.015296816 0.16799198
0.014091985 0.012981579 0.16908576
0.015008476 0.010566913 0.17063491
0.014428067 0.0078304112 0.17280133
0.014588999 0.0045293109 0.17501903
0.015748827 0.00031338193 0.17492262
0.016280919 -0.0026022056 0.17615931
0.01519276 0.035917826 0.14857961
0.016040679 0.032894075 0.14988956
0.016576666 0.02831069 0.15546283
0.016094154 0.025548976 0.16078332
0 0 0 1 0 0 0 1 0 0 0 1 0 0 0 0 0 240 1 0 0
