ply
format ascii 1.0
comment PCL generated
element vertex 240
property float x
property float y
property float z
element camera 1
property float view_px
property float view_py
property float view_pz
property float x_axisx
property float x_axisy
property float x_axisz
property float y_axisx
property float y_axisy
property float y_axisz
property float z_axisx
property float z_axisy
property float z_axisz
property float focal
property float scalex
property float scaley
property float centerx
property float centery
property int viewportx
property int viewporty
property float k1
property float k2
end_header
-0.026955789 0.033775464 0.1476116
-0.026806705 0.031385049 0.14780562
-0.026431179 0.028966082 0.14939909
-0.026287472 0.026509274 0.15052901
-0.026281931 0.02370438 0.15260319
-0.027225323 0.019990183 0.15510312
-0.030820906 0.014698591 0.15750965
-0.031264909 0.011846076 0.15868615
-0.031258926 0.0088951457 0.1594857
-0.031079069 0.0058840518 0.15998957
-0.031341717 0.0025497538 0.16068068
-0.03167529 -0.00052714662 0.16194099
-0.031737465 -0.0032285142 0.16251121
-0.024735931 0.033762522 0.14679408
-0.02425432 0.031220455 0.14758274
-0.023823248 0.028803332 0.14832045
-0.023696771 0.026429961 0.14978661
-0.023508906 0.024180608 0.15146326
-0.024312193 0.020481551 0.15311863
-0.025333263 0.016247883 0.15685365
-0.026588434 0.012942244 0.15771787
-0.027247863 0.0098158671 0.15884511
-0.027785463 0.0067732111 0.15937743
-0.027785761 0.0035835158 0.16036052
-0.028595148 -1.3952746e-05 0.16177028
-0.029053081 -0.0031498426 0.16355032
-0.027143426 -0.0059672836 0.1646717
-0.021799756 0.033908471 0.14652474
-0.021045821 0.031455532 0.14804074
-0.020982176 0.029046509 0.14834122
-0.020940797 0.026494756 0.1498004
-0.021070784 0.023934571 0.15114488
-0.02179209 0.020451296 0.15418731
-0.02279236 0.016552361 0.15709105
-0.023250056 0.013285501 0.15776291
-0.023743801 0.010413908 0.15852343
-0.024977442 0.0071663144 0.15980907
-0.024769768 0.0032847878 0.16206625
-0.024695987 0.0001160105 0.16316955
-0.024718886 -0.0029851194 0.16494428
-0.023971682 -0.0054438491 0.16556928
-0.023159238 -0.0080341185 0.16628145
-0.017737532 0.033901241 0.14796442
-0.018151941 0.031617604 0.14880353
-0.018301079 0.029199742 0.14877455
-0.018609937 0.026845628 0.15069057
-0.018634072 0.023986572 0.15101132
-0.018984709 0.020998498 0.15381902
-0.020329313 0.017062781 0.15796877
-0.020414395 0.01393762 0.15834597
-0.020876069 0.010731549 0.15988594
-0.021777684 0.0057607773 0.16139272
-0.022447703 0.0029674193 0.16290937
-0.022291992 0.00063243415 0.1644503
-0.022301028 -0.0018726503 0.16588059
-0.021782039 -0.0042874045 0.1663197
-0.021025453 -0.0068752063 0.16781604
-0.014935768 0.034033403 0.14851823
-0.015451482 0.031666894 0.14916444
-0.015517023 0.029484473 0.14894208
-0.016065663 0.026649069 0.15096632
-0.016193161 0.023869094 0.15198661
-0.016499093 0.021084845 0.15420422
-0.017637827 0.017414043 0.15901157
-0.017761217 0.014248959 0.1592976
-0.017956708 0.011280068 0.16081761
-0.01851516 0.0065774769 0.16230291
-0.019222911 0.0037080117 0.16339897
-0.019601602 0.0012561578 0.16581425
-0.019752916 -0.00089622702 0.1662025
-0.019254446 -0.0035849586 0.16722363
-0.018165311 -0.0058488562 0.16823925
-0.012508527 0.034193825 0.14873298
-0.012745535 0.031754483 0.14949225
-0.012995053 0.028965846 0.15000968
-0.013358623 0.026302939 0.15126196
-0.013688211 0.02380647 0.15258606
-0.013883748 0.021301894 0.15419714
-0.014656029 0.018116681 0.15825769
-0.015024334 0.014612718 0.15957193
-0.015016676 0.011407629 0.16157472
-0.016101053 0.0070589506 0.16343682
-0.017427146 0.0038553961 0.16449706
-0.017889317 0.0015434219 0.16592287
-0.017326642 -0.00034612895 0.16707751
-0.017133255 -0.0029547606 0.16719589
-0.015337884 -0.0054130293 0.16794388
-0.010021755 0.0343659 0.14848021
-0.010218898 0.032130685 0.14959186
-0.01040052 0.028789001 0.15105616
-0.010853971 0.026197813 0.15207671
-0.010880598 0.02396952 0.15326411
-0.010973751 0.021474995 0.15562634
-0.010652647 0.01889766 0.15783405
-0.011637415 0.01529017 0.15865591
-0.011349026 0.012020835 0.16184139
-0.012758419 0.0083255889 0.16481403
-0.015261712 0.0043381192 0.16435027
-0.015119162 0.0021304886 0.16583753
-0.014686339 8.4845167e-05 0.16721611
-0.014153884 -0.0019115766 0.16787134
-0.012940503 -0.0046020565 0.16830273
-0.0075616823 0.034444712 0.14834239
-0.007878473 0.031895872 0.14992644
-0.0080428207 0.028822897 0.15188216
-0.0078864265 0.026432892 0.15259634
-0.0077497885 0.024196101 0.15352274
-0.0075677675 0.021571519 0.15711547
-0.0073466576 0.018837351 0.15887192
-0.007103865 0.016345371 0.15965946
-0.0072864429 0.013011383 0.16200963
-0.0075089457 0.010150214 0.1660132
-0.010540581 0.0054098428 0.16598479
-0.0121025 0.0028756901 0.16726369
-0.011665864 0.00091286417 0.16840988
-0.011103397 -0.001188477 0.1687074
-0.011016691 -0.0030286966 0.16961625
-0.0049599637 0.03409306 0.14794071
-0.0053414046 0.031322498 0.15003309
-0.0054573203 0.028630752 0.15202883
-0.0052126949 0.026597142 0.15349337
-0.0051345569 0.024249779 0.15496908
-0.00485542 0.021581914 0.15889929
-0.0048634801 0.01939892 0.16018011
-0.0049400697 0.016725911 0.16116531
-0.0047277058 0.01344566 0.16351524
-0.0046522827 0.010322947 0.16719368
-0.0050703627 0.0068875486 0.16805495
-0.0076243598 0.0039811037 0.16910751
-0.0086728595 0.001016457 0.16904694
-0.0085674841 -0.00082824827 0.16912921
-0.0059460397 -0.0049463138 0.17302503
-0.0024945962 0.033865221 0.14808103
-0.0028895384 0.031194543 0.14919305
-0.0023936129 0.028795917 0.15156268
-0.00234523 0.026487434 0.15311322
-0.0022243196 0.024402872 0.15542322
-0.0023367202 0.021914674 0.15973632
-0.0023066634 0.019894237 0.16122763
-0.0024080586 0.016996285 0.16285603
-0.0020982046 0.013896538 0.16485234
-0.001385084 0.010182992 0.16825667
-0.0021402868 0.0074759284 0.16892301
-0.0023703869 0.0048126057 0.17116071
-0.003682751 0.0024010916 0.17156377
-0.0032915073 -0.00050855934 0.17256948
-0.0017131692 -0.0050659706 0.17619906
0.00016794143 0.033242438 0.14920214
0.00071262202 0.031241123 0.15054187
0.00029948557 0.028732806 0.15250753
0.00090832333 0.027162969 0.15517344
0.0011044729 0.024543494 0.15744516
0.0006259589 0.022260388 0.15962845
0.00038397062 0.020391392 0.16205609
0.00014491283 0.017312702 0.16388473
0.00032073984 0.014358056 0.16535963
0.0017081241 0.010407691 0.1683591
0.001174681 0.0076113939 0.16959961
0.00086965942 0.0050886869 0.17150369
0.00020663683 0.0026192798 0.1727211
0.00026265171 -0.00029683215 0.17511433
0.00051370269 -0.0036764457 0.17667635
0.0027317924 0.034001987 0.14947428
0.0030150828 0.031733014 0.15106243
0.0033063826 0.029443786 0.15280393
0.0041467752 0.027169226 0.15602422
0.0040899762 0.024992952 0.15752923
0.0036201088 0.022802042 0.15903698
0.0032249819 0.020600135 0.16047345
0.0030030087 0.017365208 0.16386284
0.0028787651 0.014576834 0.16580628
0.0047632302 0.010578439 0.16831359
0.0046949955 0.0076066041 0.16992995
0.004107093 0.0055897799 0.17127863
0.0040229456 0.0030926454 0.17325084
0.0029446597 0.0004950579 0.17584346
0.0033568018 -0.0023737033 0.17740573
0.0054407986 0.034356438 0.14892572
0.0056434963 0.032257602 0.15087633
0.005723319 0.030076573 0.15263827
0.0065455167 0.027093919 0.15605295
0.006360963 0.025038244 0.15823844
0.0059264465 0.022993704 0.15978225
0.0060792491 0.020604618 0.16137584
0.0057524759 0.018017022 0.16265096
0.0066985665 0.013907648 0.16588083
0.0071592033 0.011011494 0.16858464
0.0074799797 0.0081969267 0.16977996
0.0069995834 0.0061930856 0.17219704
0.0061851814 0.004330676 0.17482352
0.0055812905 0.00098828529 0.17767283
0.0055958647 -0.0015842351 0.17949148
0.0077967276 0.034663912 0.14921823
0.0079744197 0.032647505 0.15135066
0.0083748968 0.030515986 0.15231068
0.0091701532 0.027578821 0.15808463
0.008501892 0.02540973 0.16009177
0.0081798127 0.023274647 0.16065808
0.0080892583 0.020877762 0.16186292
0.010026997 0.015859345 0.16471682
0.0098225381 0.01359115 0.16658464
0.0097196028 0.011013716 0.16841465
0.010199552 0.0088913655 0.1699141
0.0099610165 0.0070667034 0.17237365
0.0085880812 0.0047784313 0.17626986
0.0092408359 0.00069976918 0.18002678
0.008984983 -0.0015293309 0.18144129
0.010233762 0.034813233 0.14879957
0.010502372 0.032847423 0.15014337
0.010712288 0.030695384 0.15252194
0.011420575 0.027975401 0.15914564
0.010993922 0.02547125 0.16065213
0.010803625 0.023264201 0.16105185
0.010216322 0.020485347 0.1626589
0.0121313 0.015997503 0.16482168
0.012095564 0.013777605 0.16666605
0.012267389 0.011432762 0.16804311
0.012833022 0.0093385903 0.17004889
0.012440279 0.0076556304 0.17319939
0.011345179 0.0049557113 0.1773192
0.013156901 0.0009861273 0.17979226
0.012678801 0.034895375 0.14780229
0.012998998 0.032703277 0.14924389
0.013741739 0.030160422 0.15510537
0.014363874 0.027464719 0.15980108
0.013967234 0.025417726 0.16100512
0.013753588 0.02317607 0.16193217
0.013189584 0.019904194 0.16402344
0.014315857 0.016358288 0.16483031
0.014270457 0.014199401 0.16669545
0.014293334 0.012102834 0.16823705
0.01519342 0.010066009 0.17043576
0.014426179 0.0081054978 0.17372291
0.01420064 0.0055546714 0.17690179
0.015557753 0.0017240931 0.17792499
0.016074009 -0.00092428719 0.17964733
0.014828864 0.034665927 0.14715433
0.015723523 0.031836443 0.1487224
0.016771967 0.028503735 0.1562825
0.016206272 0.025616199 0.16133356
0 0 0 1 0 0 0 1 0 0 0 1 0 0 0 0 0 240 1 0 0
