ply
format ascii 1.0
comment PCL generated
element vertex 240
property float x
property float y
property float z
element camera 1
property float view_px
property float view_py
property float view_pz
property float x_axisx
property float x_axisy
property float x_axisz
property float y_axisx
property float y_axisy
property float y_axisz
property float z_axisx
property float z_axisy
property float z_axisz
property float focal
property float scalex
property float scaley
property float centerx
property float centery
property int viewportx
property int viewporty
property float k1
property float k2
end_header
-0.027018396 0.033597004 0.14727832
-0.026804404 0.031197818 0.1474544
-0.02645657 0.028731398 0.1489718
-0.026313344 0.026232589 0.15002747
-0.026342213 0.023445588 0.15210734
-0.027352838 0.019873183 0.15476796
-0.030953614 0.014555543 0.15739451
-0.03140115 0.011720252 0.15861543
-0.031403244 0.0087647252 0.15948181
-0.031153709 0.0056456407 0.15983635
-0.031260818 0.0021862881 0.16023348
-0.031606384 -0.00087114115 0.16154404
-0.031678479 -0.0035065468 0.1623859
-0.02476006 0.033640344 0.14658421
-0.024240525 0.03109917 0.14738581
-0.023771051 0.02868258 0.14813079
-0.023665011 0.02629666 0.14957576
-0.023531316 0.02399913 0.15120651
-0.024332607 0.020328349 0.15289693
-0.025483882 0.016246801 0.15694971
-0.026704222 0.012924487 0.1579468
-0.027382784 0.0098306872 0.15912274
-0.027898706 0.0067784209 0.15967529
-0.027807347 0.0035051261 0.16047886
-0.028551256 -0.00021644779 0.16165875
-0.029128736 -0.0032445036 0.16370438
-0.027350329 -0.0057940232 0.16525745
-0.021808363 0.033832561 0.14640178
-0.021040944 0.031365149 0.14782748
-0.020956123 0.028975129 0.14825787
-0.020936118 0.026483085 0.14983478
-0.021072907 0.023873121 0.15114722
-0.021890476 0.020378185 0.15412512
-0.02293759 0.016541475 0.15726116
-0.023389632 0.013297427 0.15813118
-0.023889756 0.01046655 0.15897885
-0.025149977 0.0072714486 0.1603481
-0.024949137 0.003261917 0.16242388
-0.0248407 0.00015913817 0.16348717
-0.024961878 -0.0027626692 0.16548136
-0.024261581 -0.0051527824 0.1661714
-0.023561075 -0.0076735858 0.1670114
-0.01775947 0.033864852 0.14773813
-0.018185142 0.031609025 0.14865072
-0.018308077 0.029189754 0.14877054
-0.018695563 0.026934033 0.15088102
-0.018672947 0.024031049 0.15128705
-0.019110583 0.020970415 0.15396953
-0.020473208 0.017006325 0.15810993
-0.020554578 0.013912701 0.15863526
-0.021032384 0.010786974 0.16030806
-0.022033397 0.0058356202 0.16198801
-0.022639534 0.0030090583 0.16327193
-0.022447906 0.00070373318 0.16473326
-0.022480214 -0.0017091784 0.16624042
-0.022012694 -0.0040438892 0.16677399
-0.02132347 -0.0065302844 0.1684027
-0.014989262 0.034047071 0.14840545
-0.015518526 0.031703271 0.14911398
-0.015554313 0.029520787 0.14901908
-0.016224157 0.026791891 0.15148339
-0.016332116 0.023977453 0.15247564
-0.016634826 0.021048615 0.15450756
-0.017768865 0.017283147 0.15912381
-0.017882839 0.01418767 0.15950894
-0.018082509 0.011308953 0.16115703
-0.018611258 0.0065671578 0.16278785
-0.01933491 0.0037600005 0.16375759
-0.019764651 0.0012692611 0.16606635
-0.01990398 -0.00082196668 0.16638175
-0.019442338 -0.0034326063 0.16749355
-0.018430216 -0.0056756814 0.16856472
-0.01257714 0.034224372 0.14876978
-0.012831836 0.031815715 0.14956532
-0.013145777 0.029099949 0.15046935
-0.013579425 0.026568674 0.15212904
-0.013886463 0.023989312 0.15329383
-0.014029191 0.021334736 0.1546424
-0.014785129 0.017977221 0.15844308
-0.01513078 0.014563463 0.15981023
-0.015140168 0.011507076 0.1620477
-0.016245957 0.007062057 0.1640112
-0.017556515 0.0037747237 0.16480674
-0.017999543 0.0014915388 0.1661039
-0.017563347 -0.00029988177 0.16729958
-0.017402364 -0.0028959315 0.16760945
-0.015654121 -0.0053176833 0.16841564
-0.01009218 0.034363292 0.14857681
-0.010332308 0.032171153 0.14977266
-0.010620933 0.028984789 0.15176967
-0.011158252 0.026551511 0.15309529
-0.011164222 0.024286712 0.15419991
-0.011143894 0.021487443 0.15611975
-0.010842542 0.018886598 0.15828477
-0.011702224 0.015280007 0.15906559
-0.011505195 0.012258046 0.1625611
-0.013028121 0.0085771829 0.16562587
-0.015324349 0.0042550978 0.16499472
-0.015295086 0.0020715471 0.16650219
-0.015008156 0.00013162311 0.16796266
-0.014576889 -0.0018529673 0.16863838
-0.013381915 -0.0045162369 0.16915676
-0.0076327957 0.034421258 0.14844929
-0.0080032237 0.031886637 0.15012001
-0.0082600843 0.029022969 0.15255815
-0.0082129203 0.026689723 0.15331537
-0.0081256563 0.024421275 0.15414417
-0.0077698873 0.02163502 0.1574844
-0.0075077019 0.018842323 0.15909834
-0.007302247 0.016225493 0.15984096
-0.0075180279 0.013063249 0.16250306
-0.007635673 0.010558207 0.16680096
-0.01127001 0.005664919 0.1679972
-0.012753664 0.0030040694 0.16890563
-0.012373573 0.00097250124 0.17003196
-0.011751845 -0.0011131415 0.17014895
-0.011733588 -0.0030006615 0.17087169
-0.0050229095 0.034071505 0.14800501
-0.0054974542 0.031244874 0.15018739
-0.0057280436 0.028689636 0.15241219
-0.0054644635 0.02660471 0.15374444
-0.0054017426 0.024225123 0.15513264
-0.0048914291 0.021419065 0.15882136
-0.0048775505 0.019212382 0.16007362
-0.0050046258 0.016524445 0.16111386
-0.0048250975 0.013428899 0.1637477
-0.0046810294 0.010322431 0.16760613
-0.0052665202 0.006934925 0.16885778
-0.0083175879 0.0040109726 0.17087165
-0.0093515627 0.0010689517 0.17065395
-0.0092298361 -0.00073869462 0.17066762
-0.0059522074 -0.0053593274 0.17292324
-0.002565538 0.033846043 0.14816847
-0.0030254014 0.031138403 0.14932512
-0.0026974611 0.02846992 0.15131798
-0.0026922724 0.026136177 0.15284212
-0.0024617368 0.024034921 0.15510024
-0.0022815326 0.021465914 0.15917517
-0.0022009928 0.01947955 0.16070387
-0.0023432453 0.016703844 0.16255188
-0.0020359636 0.013669712 0.16471967
-0.0013930352 0.010067223 0.16856153
-0.002247086 0.0074689193 0.1695167
-0.0023873388 0.004677542 0.17175297
-0.0037091726 0.0021777949 0.17219815
-0.0031674409 -0.00088031217 0.17266847
-0.00083092932 -0.0060503343 0.1747251
0.00014547657 0.033149187 0.14873894
0.00074026792 0.031062733 0.14985485
0.00023518821 0.028303867 0.15172464
0.0010588984 0.026056929 0.15386258
0.0012649648 0.023670347 0.15632296
0.00068148121 0.021681044 0.15879394
0.00041286144 0.019901447 0.16129161
0.00024904576 0.016951915 0.16331002
0.00041102516 0.0140634 0.16502623
0.0017203937 0.010350715 0.16871625
0.0011738914 0.007592971 0.17005712
0.00091154064 0.0049583986 0.17191419
0.00030662745 0.0022890605 0.17288531
0.00078831817 -0.0010689095 0.17445098
0.0013537817 -0.0046592369 0.17525305
0.0026714231 0.033929106 0.14891247
0.0029959141 0.031631283 0.15045334
0.0033292142 0.029280642 0.15213528
0.0041804183 0.026437012 0.15508887
0.0042470931 0.024324967 0.15665258
0.0036973311 0.022267571 0.15827173
0.0032568059 0.02018626 0.15985604
0.0030510991 0.017057983 0.16329302
0.0029553706 0.01432875 0.16546339
0.0048132134 0.010687212 0.16909339
0.0047163852 0.0077790548 0.17066659
0.0041576475 0.005678351 0.17178465
0.0042402744 0.0028474738 0.17325327
0.0034114441 -0.00022992335 0.17528576
0.0040607559 -0.0032884341 0.17629199
0.0053875502 0.034404874 0.14844918
0.0056051849 0.032269061 0.15036678
0.0057108393 0.030053586 0.15209529
0.0063763331 0.026843322 0.15549965
0.0062968112 0.024771195 0.15761256
0.005917585 0.022721723 0.15920766
0.0059742574 0.020575793 0.16114849
0.0056936052 0.0180221 0.1625095
0.0068431837 0.014197871 0.16711217
0.0070609865 0.011512313 0.16993295
0.0074853743 0.0086664865 0.17089102
0.0069722761 0.0063697142 0.17298448
0.0062013646 0.0041113785 0.1752232
0.0059483731 0.00016183085 0.17728844
0.0061853305 -0.0026694366 0.17861289
0.0077164923 0.034796413 0.14881851
0.0078978678 0.032737315 0.150916
0.0083529782 0.030609263 0.15185396
0.0089281742 0.027506603 0.1575295
0.008350403 0.02529818 0.15942413
0.0080735441 0.023243211 0.160163
0.0077984575 0.021274157 0.161879
0.0099384356 0.016835734 0.16684222
0.0097183241 0.014421127 0.16852845
0.0095461607 0.011814285 0.17015831
0.010092277 0.0096538514 0.17144066
0.009804558 0.0074693868 0.17356135
0.0084931403 0.0045289095 0.17695108
0.0096356478 -4.8999151e-05 0.17991325
0.0095597096 -0.0025049495 0.18088171
0.010163093 0.035072349 0.14851379
0.0104631 0.033089172 0.14981401
0.010669077 0.030890193 0.15216586
0.011104199 0.028064057 0.15858476
0.01077801 0.02557084 0.16008615
0.010584132 0.023493545 0.16086973
0.0097625945 0.021272145 0.1631884
0.011899118 0.017251054 0.16727889
0.011848466 0.014925276 0.16896975
0.01204358 0.012556463 0.17017704
0.012581132 0.010282748 0.17195222
0.012206431 0.0080722459 0.17456552
0.011284127 0.0047007743 0.17805086
0.013531794 0.00067815726 0.17997377
0.012649178 0.035298336 0.14764974
0.013011369 0.033088576 0.14904752
0.013578994 0.03029109 0.15474916
0.014011365 0.027781038 0.15944879
0.013625335 0.025825627 0.16086584
0.013386336 0.02381452 0.16238669
0.012618344 0.021136193 0.16546093
0.013965536 0.017828049 0.16753082
0.013915122 0.015538343 0.16926084
0.013940677 0.013352841 0.17063966
0.014792631 0.011162275 0.17269057
0.014104706 0.0085556377 0.1752305
0.014110006 0.0055142185 0.17778352
0.015862817 0.0018615016 0.17834044
0.016635232 -0.00091076666 0.17970809
0.01484543 0.0351886 0.14711511
0.015829489 0.032358103 0.14865549
0.016704556 0.028575763 0.15613568
0.015757907 0.026284197 0.16149834
0 0 0 1 0 0 0 1 0 0 0 1 0 0 0 0 0 240 1 0 0
