ply
format ascii 1.0
comment PCL generated
element vertex 240
property float x
property float y
property float z
element camera 1
property float view_px
property float view_py
property float view_pz
property float x_axisx
property float x_axisy
property float x_axisz
property float y_axisx
property float y_axisy
property float y_axisz
property float z_axisx
property float z_axisy
property float z_axisz
property float focal
property float scalex
property float scaley
property float centerx
property float centery
property int viewportx
property int viewporty
property float k1
property float k2
end_header
-0.027048143 0.034122106 0.14827676
-0.026929004 0.031697854 0.14834732
-0.026566593 0.029190958 0.14974496
-0.026455712 0.026682217 0.15076193
-0.02646753 0.023925489 0.15285426
-0.027494321 0.020405918 0.1556132
-0.031041004 0.014850833 0.15811001
-0.03148064 0.011986905 0.15922566
-0.03146309 0.0090235649 0.1599407
-0.031216232 0.0059744907 0.16022725
-0.03139412 0.0025550232 0.16071619
-0.03172031 -0.00049906719 0.16207018
-0.031833731 -0.0031497744 0.16289862
-0.024865592 0.03408036 0.14740427
-0.02438868 0.031465419 0.14801654
-0.023970881 0.028992189 0.14863926
-0.023845889 0.026587846 0.1500504
-0.023688866 0.024296766 0.15168788
-0.024562625 0.02074633 0.15357906
-0.025599455 0.01658074 0.15757684
-0.026787588 0.013135375 0.15840092
-0.027449397 0.0099855009 0.15938812
-0.027945688 0.0069719446 0.15988232
-0.027912475 0.0037723507 0.16087288
-0.028707357 9.7266864e-05 0.16215093
-0.029227955 -0.0029664931 0.16412994
-0.027318852 -0.0056797592 0.16547757
-0.021930773 0.034122217 0.14690335
-0.021135427 0.031525884 0.1479996
-0.021133622 0.029129956 0.14844199
-0.021080725 0.026636422 0.15003914
-0.021237852 0.02405219 0.15147032
-0.022057641 0.020711165 0.15467036
-0.023022458 0.0167864 0.1576926
-0.023441276 0.013416691 0.15832901
-0.023947032 0.010549238 0.15899985
-0.025161244 0.0073604221 0.16038577
-0.025023758 0.0035116475 0.16286826
-0.024881709 0.00037800087 0.16393305
-0.024934677 -0.0027179201 0.16583125
-0.024201626 -0.0050866976 0.16649294
-0.023478275 -0.0075849839 0.16728537
-0.017728545 0.033816256 0.14746006
-0.018194847 0.031607702 0.14846022
-0.018432107 0.029216725 0.14868143
-0.018730756 0.027007589 0.15085635
-0.018828642 0.024120385 0.1514401
-0.019259518 0.02123729 0.1543586
-0.020543542 0.017192375 0.15843758
-0.020614509 0.013999806 0.15877056
-0.02104589 0.010754263 0.1603298
-0.022136508 0.0061523067 0.1627468
-0.02274074 0.0032969329 0.16396903
-0.022509316 0.00087546569 0.1652779
-0.022505378 -0.0016258595 0.16666949
-0.021995211 -0.0039420566 0.1671551
-0.021267265 -0.0064315661 0.16872442
-0.014922008 0.033899963 0.14799015
-0.015505042 0.031592343 0.14876348
-0.015638588 0.029409647 0.14870888
-0.016238831 0.026764859 0.15130703
-0.016421925 0.024022449 0.15248661
-0.016757108 0.021222787 0.15481029
-0.017829537 0.017400995 0.15935974
-0.017988676 0.014213308 0.15970497
-0.018183012 0.011262952 0.16138701
-0.01902166 0.0070207804 0.16409512
-0.019628724 0.0042417059 0.16491717
-0.019936537 0.0014280117 0.16679868
-0.02001738 -0.00072852103 0.16694801
-0.01945259 -0.0033029167 0.16790639
-0.018360479 -0.0055191298 0.16887827
-0.012504236 0.034030065 0.1483604
-0.01280409 0.031620983 0.14914459
-0.013173321 0.028899031 0.15001246
-0.013578334 0.026391305 0.15171821
-0.013921306 0.023906859 0.15313895
-0.014135168 0.021362474 0.15485159
-0.014939408 0.018215494 0.15883555
-0.015292424 0.014574013 0.16006555
-0.015280007 0.011433903 0.16235121
-0.016678393 0.0073813838 0.16509756
-0.018006062 0.0042508347 0.16598381
-0.018290697 0.0017894969 0.16690516
-0.017690305 -0.00011134386 0.16774249
-0.017419513 -0.0027169425 0.16783722
-0.015567211 -0.0050795497 0.16860282
-0.010026364 0.034141991 0.14818022
-0.010280197 0.031892475 0.14927566
-0.010580689 0.028597662 0.15100846
-0.011118291 0.026147272 0.15231454
-0.011143266 0.023944285 0.15367876
-0.01124952 0.021517018 0.15638162
-0.011076934 0.019205263 0.15901929
-0.011965441 0.015333652 0.15949723
-0.011656626 0.012197409 0.1628729
-0.013210737 0.0086059403 0.16611038
-0.015917612 0.0048682233 0.16607189
-0.015651774 0.0024799074 0.16712299
-0.015126116 0.00036823543 0.16821675
-0.014557775 -0.00160748 0.16872089
-0.013357847 -0.0042540771 0.16930436
-0.0075670825 0.034181297 0.14804374
-0.0079581877 0.031583842 0.14964826
-0.0081771975 0.028514933 0.15165824
-0.0081644012 0.026249504 0.1526465
-0.0080847321 0.024080617 0.15373784
-0.0079711666 0.021699127 0.1579718
-0.0077931667 0.019174235 0.16000077
-0.0077001723 0.016654374 0.16084617
-0.0077718482 0.013242153 0.16304919
-0.0076711015 0.01032262 0.16703145
-0.011303731 0.0057237851 0.16769895
-0.012794307 0.0031709031 0.16879915
-0.012345138 0.0012563689 0.16985878
-0.011724713 -0.00078748248 0.1701155
-0.011678128 -0.002629699 0.17097402
-0.0049524582 0.033884931 0.14775345
-0.0054458394 0.030990118 0.14988835
-0.0056840559 0.028292706 0.15186529
-0.0054790298 0.026374949 0.15353008
-0.0054729967 0.024133528 0.15518881
-0.0050740256 0.021571415 0.1593844
-0.005106404 0.019497257 0.16082427
-0.0053310925 0.01686598 0.16195862
-0.0050275787 0.013504788 0.16420379
-0.004713872 0.010246185 0.16781551
-0.0053792894 0.0070427009 0.16903111
-0.0083159264 0.004308173 0.17044961
-0.0093973828 0.0013910207 0.17053667
-0.009287931 -0.00037957067 0.17073712
-0.0065705869 -0.0047220089 0.1742249
-0.0024963485 0.033704273 0.14796773
-0.0029395965 0.030975144 0.14916736
-0.0026393265 0.028458621 0.15151425
-0.002646388 0.026184129 0.15314478
-0.0025561925 0.024194926 0.15556596
-0.002450349 0.021650979 0.15974091
-0.0023257318 0.019685959 0.16128945
-0.0025682568 0.016898144 0.1631512
-0.0022357914 0.013754442 0.16518363
-0.0014359243 0.0099580353 0.16868803
-0.002337636 0.0074376645 0.16959926
-0.002547974 0.0048079868 0.17198989
-0.0039750114 0.0024463052 0.17264025
-0.0036686067 -0.00041992299 0.17379172
-0.0018957072 -0.0052116583 0.17693126
0.00012574661 0.033349372 0.14919636
0.00072568667 0.031309046 0.15039365
0.00021018127 0.028628398 0.15238629
0.00081365625 0.026737049 0.15493736
0.0010616517 0.024163699 0.15715577
0.00051836204 0.021924173 0.15936179
0.00026079101 0.020126071 0.16186073
5.6917215e-05 0.017065693 0.16376825
0.00021214891 0.01408819 0.16535977
0.0016509498 0.010076904 0.16859676
0.0010542212 0.0073273596 0.16991119
0.00072319311 0.0048634871 0.17200395
1.2340289e-05 0.0024287382 0.17337823
0.0002055792 -0.00053983636 0.1758557
0.000395312 -0.0039659068 0.17721455
0.002620362 0.034227651 0.14951944
0.0029762071 0.031889096 0.15099642
0.003337878 0.029493157 0.15261754
0.0040536509 0.026746593 0.15567094
0.0040973634 0.024644421 0.15719017
0.0035583181 0.022499688 0.15874076
0.0030807648 0.020418197 0.16033326
0.0028520836 0.017099679 0.16361782
0.0027635952 0.014253745 0.16562998
0.0047947094 0.010161341 0.16841346
0.0046436684 0.0071998723 0.17001562
0.0039747548 0.0052351202 0.17146949
0.0039098822 0.0026848863 0.17348823
0.002939635 5.0351569e-05 0.17616896
0.0033313644 -0.0029133635 0.17754741
0.005334117 0.034813799 0.14910664
0.0055802413 0.032583863 0.15093265
0.0057122358 0.03029735 0.15259136
0.0063158306 0.026846521 0.1557364
0.0062547168 0.024827415 0.15789007
0.0058185691 0.022895794 0.15960057
0.0058659762 0.020741202 0.16152045
0.005498311 0.018174918 0.16284429
0.0067475676 0.013983359 0.16678129
0.0071201697 0.010887281 0.16908355
0.0075030113 0.0079614669 0.16986422
0.0069487174 0.0056919754 0.17215565
0.0062192059 0.0036103411 0.17465876
0.005781882 0.00023485169 0.17759392
0.005861273 -0.0024399699 0.17920512
0.0076567302 0.03526134 0.14951147
0.0078654876 0.033084251 0.1514973
0.0083493497 0.030912654 0.15235373
0.0090283882 0.02736661 0.15750645
0.008474011 0.025249662 0.15947463
0.0080844667 0.023293572 0.16033928
0.0077602211 0.021431793 0.16218489
0.009967084 0.016564082 0.16663049
0.0097476849 0.014003648 0.16806938
0.0096368529 0.011152157 0.16930559
0.010176484 0.0088509591 0.17038961
0.0099224215 0.0065349233 0.17241341
0.0088084899 0.0035832725 0.17591925
0.009830609 -0.00096687849 0.17868441
0.0095636379 -0.003233023 0.17992648
0.010095211 0.035611689 0.14922835
0.010411534 0.033553436 0.15040055
0.010647431 0.031217325 0.1526338
0.011288902 0.027832603 0.15835109
0.010973173 0.025304291 0.15979406
0.010673269 0.023302 0.16069382
0.009880051 0.021325625 0.16327582
0.011922381 0.01695969 0.16714662
0.011876166 0.014489336 0.16861527
0.012123467 0.01197285 0.16956919
0.012680438 0.0094890753 0.17106774
0.012493748 0.0068447478 0.17313366
0.011762138 0.003296633 0.17639183
0.013651795 -0.0011986436 0.17738286
0.01256484 0.035906132 0.14835821
0.012935543 0.033604048 0.1495766
0.01351287 0.030238895 0.15468132
0.014279711 0.027227253 0.15879776
0.01392185 0.025244586 0.16013826
0.013682494 0.023343842 0.1618247
0.012919583 0.020888019 0.1652129
0.013953571 0.017580405 0.16756582
0.013886209 0.015140525 0.16906558
0.013929867 0.012825775 0.1702206
0.014839145 0.010373034 0.17208727
0.014468206 0.0071481545 0.17363474
0.014574046 0.0037257567 0.17558379
0.015670935 -0.00035859205 0.17523198
0.016179033 -0.0033440038 0.17624629
0.014744552 0.035812229 0.14775449
0.015731828 0.032817744 0.14896819
0.016461626 0.028131166 0.15518396
0.016165216 0.025459984 0.16049026
0 0 0 1 0 0 0 1 0 0 0 1 0 0 0 0 0 240 1 0 0
