ply
format ascii 1.0
comment PCL generated
element vertex 240
property float x
property float y
property float z
element camera 1
property float view_px
property float view_py
property float view_pz
property float x_axisx
property float x_axisy
property float x_axisz
property float y_axisx
property float y_axisy
property float y_axisz
property float z_axisx
property float z_axisy
property float z_axisz
property float focal
property float scalex
property float scaley
property float centerx
property float centery
property int viewportx
property int viewporty
property float k1
property float k2
end_header
-0.027136933 0.033429857 0.14678675
-0.026899155 0.031025698 0.14699639
-0.026567353 0.028613467 0.14859584
-0.02643224 0.026190627 0.14981367
-0.026469527 0.023511214 0.15207818
-0.027553003 0.020050973 0.15495339
-0.031267896 0.014616521 0.15829593
-0.03170526 0.011919523 0.15975952
-0.031637389 0.009024255 0.16086432
-0.031400826 0.0059227981 0.1616307
-0.031716533 0.0026164325 0.1628506
-0.032030344 -0.00032792555 0.16468142
-0.032085042 -0.0030112711 0.16564606
-0.024872817 0.033477299 0.1461394
-0.02432639 0.030916562 0.14692879
-0.023861768 0.028499961 0.14773583
-0.023733575 0.026197888 0.14932987
-0.023646424 0.023995271 0.15118998
-0.024520976 0.020383826 0.15302591
-0.025698362 0.016318735 0.15724188
-0.027058095 0.012953783 0.1586981
-0.027738668 0.0099294502 0.16009805
-0.028192684 0.0067897774 0.16090775
-0.028154407 0.0035803211 0.16227418
-0.029014625 0.00022271134 0.16446942
-0.029420732 -0.0028249784 0.16675776
-0.027554231 -0.0053498205 0.16837753
-0.021882046 0.033676416 0.14595588
-0.021033913 0.031119151 0.14710613
-0.020985851 0.02876213 0.14774264
-0.020997986 0.026407424 0.14956661
-0.021161743 0.023854038 0.15107419
-0.022079993 0.020463912 0.154263
-0.023103146 0.016537849 0.15737306
-0.02358539 0.013194579 0.15832666
-0.024178976 0.010403134 0.15938756
-0.025439447 0.0071771168 0.16123731
-0.025105719 0.0034338511 0.16425523
-0.025068384 0.00057639432 0.1662282
-0.025203157 -0.0022828679 0.168835
-0.024560468 -0.0045712488 0.16955522
-0.023866924 -0.0070491899 0.17029642
-0.017679209 0.033716772 0.14718202
-0.018151205 0.031455792 0.14803658
-0.018316086 0.029035386 0.14829303
-0.018756496 0.026933149 0.15056112
-0.018749118 0.023946645 0.15116574
-0.019270713 0.021082239 0.15416326
-0.020714419 0.017033836 0.15826274
-0.020719195 0.013863743 0.15880667
-0.021219341 0.01073005 0.1606258
-0.022121908 0.0057772044 0.16384475
-0.022759298 0.0032063834 0.16571449
-0.022669174 0.0010997816 0.16768152
-0.02265521 -0.0012887255 0.16929215
-0.022243218 -0.0035220666 0.16989319
-0.021422137 -0.0059964238 0.17135105
-0.014934971 0.033998676 0.14823109
-0.015501009 0.031623412 0.14880517
-0.015546817 0.02941124 0.14867647
-0.016289739 0.026744504 0.15125908
-0.016453644 0.024008913 0.1524383
-0.016826199 0.021223167 0.15477253
-0.018142341 0.017403694 0.15947035
-0.018221237 0.014220153 0.1600085
-0.018512201 0.011384395 0.16192774
-0.018912923 0.0067870035 0.16532043
-0.019585215 0.0040950072 0.16667594
-0.019964974 0.001665056 0.16896281
-0.020230904 -0.00052562577 0.16945103
-0.019600647 -0.0030279348 0.17031495
-0.018437464 -0.005266659 0.17100523
-0.012554377 0.034195129 0.14886838
-0.012821371 0.031751916 0.14949073
-0.013179368 0.029012728 0.15029749
-0.013657949 0.026496388 0.15196945
-0.014039473 0.024046032 0.15336613
-0.014219791 0.021417623 0.154901
-0.015088595 0.018124258 0.1588988
-0.015595166 0.014636344 0.16048753
-0.015725816 0.011713819 0.16319007
-0.016743381 0.0073243757 0.16620013
-0.017984325 0.0041609644 0.16771746
-0.01829787 0.0019340692 0.16905123
-0.017760163 1.1045406e-05 0.16988382
-0.017652903 -0.00260955 0.17000128
-0.015763447 -0.0050544175 0.1700414
-0.010073566 0.034388375 0.14883479
-0.010299593 0.032059994 0.14974159
-0.010633434 0.028789453 0.15151927
-0.011213351 0.026309103 0.15275636
-0.011272288 0.024143066 0.15399985
-0.011251665 0.021468047 0.15623835
-0.010932656 0.018883461 0.15845726
-0.012152432 0.01525345 0.1597901
-0.01200805 0.01251582 0.16369434
-0.013583392 0.0089817904 0.16715662
-0.015960477 0.0045302422 0.16726448
-0.015701964 0.0022817543 0.16853634
-0.01514149 0.00025706101 0.16964591
-0.01465107 -0.0017313539 0.16988657
-0.013389707 -0.0044088243 0.16982275
-0.0076249293 0.034499563 0.14881691
-0.0080102924 0.031796727 0.1502448
-0.0082855094 0.028762536 0.15228434
-0.0082905283 0.026467944 0.15304367
-0.0082152439 0.02424727 0.15389881
-0.0078019039 0.021502789 0.15751813
-0.0075750616 0.018794736 0.15929633
-0.0074487193 0.016209798 0.16038619
-0.0077132261 0.013147709 0.16337797
-0.007785988 0.010830726 0.16787872
-0.011348691 0.0053883712 0.16785222
-0.012630564 0.0029035418 0.16921252
-0.012023768 0.0010060151 0.16998921
-0.011438913 -0.0010425667 0.16989706
-0.011160397 -0.0029257059 0.17067488
-0.0050271954 0.034076925 0.14823507
-0.0055002528 0.031257898 0.15062574
-0.0058352258 0.028538436 0.15228263
-0.0055935336 0.026468702 0.1536279
-0.0055235759 0.024120504 0.15507059
-0.0049077496 0.021333249 0.15888917
-0.0049650315 0.019206345 0.16029191
-0.005215642 0.016587209 0.16160581
-0.0050018011 0.013559465 0.16461919
-0.0047641643 0.010750797 0.16902535
-0.0052851792 0.0073414724 0.17030878
-0.0080494266 0.0041539045 0.17019682
-0.0090907998 0.0011550949 0.17007165
-0.0089337248 -0.00067574286 0.1699867
-0.005849544 -0.0048855152 0.17415258
-0.0025920272 0.033794686 0.14831418
-0.0030371882 0.031190109 0.14971529
-0.0028080188 0.028494408 0.15153117
-0.0027963545 0.026143026 0.15293656
-0.0025797396 0.024030052 0.15524377
-0.0022820293 0.021410584 0.15938298
-0.0022243562 0.019495854 0.16100043
-0.0025211335 0.01681431 0.16325781
-0.002237174 0.013944914 0.1657806
-0.0014779682 0.010654304 0.17038764
-0.0022998673 0.0079631815 0.17123006
-0.0025244302 0.0053260913 0.1737801
-0.0038535534 0.0027308355 0.17420526
-0.0032960814 -0.00028431189 0.17484149
-0.0015389746 -0.0050315694 0.1780633
0.0001861809 0.032943092 0.14873138
0.00083668175 0.030914351 0.14991769
0.00027935972 0.028294584 0.15187202
0.00125682 0.02569736 0.1537625
0.0014961273 0.023484573 0.15632717
0.00071751652 0.021628957 0.15903378
0.00040820395 0.019864853 0.16156466
6.8489775e-05 0.017102018 0.16394649
0.00017058708 0.014360884 0.16606982
0.0015771115 0.010861584 0.17050549
0.00099927781 0.0081259711 0.1718895
0.0007226509 0.0055653881 0.17389308
9.9577541e-05 0.0029659555 0.17513435
0.00046223289 -0.00015914674 0.17739902
0.00068997208 -0.0036143486 0.17858419
0.0028003685 0.033754434 0.14889397
0.0031253174 0.031437118 0.15041399
0.0034801438 0.029023934 0.15203632
0.0046725376 0.025638398 0.1545638
0.0045198705 0.023920035 0.15644707
0.0038049403 0.022194644 0.15836339
0.0032768801 0.02008814 0.15995134
0.0028742882 0.016993698 0.16373172
0.002689467 0.014538117 0.16637376
0.0046625785 0.010879103 0.17038058
0.0045249956 0.0079126088 0.17188613
0.0039195693 0.0059138504 0.17319438
0.0039237505 0.0033136569 0.17516704
0.0031470412 0.00055914366 0.17774038
0.0036227379 -0.0024417571 0.17900437
0.0055285245 0.034167487 0.1483558
0.0057476717 0.032047838 0.1502474
0.0058548851 0.029788932 0.15195867
0.0069083674 0.025961567 0.15494345
0.0066013504 0.024339177 0.15735875
0.0060297316 0.022614285 0.15918444
0.0061308532 0.020348551 0.16099593
0.0057116989 0.017754423 0.16237949
0.0067330133 0.013737139 0.1675697
0.0071023088 0.011306236 0.1705599
0.0073192157 0.0084322942 0.17152281
0.0069619264 0.0063153049 0.1738283
0.0063581145 0.0043422086 0.17632483
0.0060392111 0.0006920647 0.17903394
0.0061626509 -0.0019697393 0.18064046
0.0078505753 0.034474142 0.14860132
0.008032362 0.032457463 0.15072814
0.0084960312 0.030315829 0.1516507
0.0092038102 0.027043926 0.15706939
0.0085306447 0.025101447 0.15913412
0.0082285013 0.023171512 0.15998594
0.0080625974 0.02104364 0.16155505
0.010050131 0.015727023 0.16619642
0.009812139 0.013553823 0.16823623
0.0095585249 0.011204 0.17017034
0.010064043 0.0090175113 0.17140366
0.0099625159 0.0069599831 0.17365874
0.0090528475 0.0043254215 0.17745574
0.010047122 -0.00047014497 0.18021522
0.0097978832 -0.0026714602 0.18148284
0.010243684 0.034660004 0.14821979
0.010514893 0.032712467 0.14959569
0.010763691 0.030575056 0.15194863
0.011252283 0.027815908 0.15819922
0.010975994 0.025362745 0.15968277
0.010811951 0.023361791 0.1604389
0.010157067 0.021040704 0.16270557
0.01208311 0.015967112 0.16624366
0.012013689 0.013784479 0.16810316
0.012069589 0.011482194 0.16943729
0.012652892 0.0092235664 0.171251
0.012617544 0.0070463214 0.17395864
0.012000199 0.0038479159 0.17765774
0.01374455 -0.00080985087 0.17890021
0.012667213 0.034785006 0.14728422
0.013018384 0.032626912 0.148746
0.013609043 0.030238809 0.15470469
0.014110225 0.027759114 0.15933
0.013827046 0.025667399 0.16050129
0.013698706 0.023525396 0.16200835
0.013014117 0.020422572 0.16481499
0.01421933 0.016464153 0.16627628
0.014131824 0.014232104 0.16806619
0.014074539 0.012084958 0.16945601
0.015164342 0.009628959 0.17138912
0.014662758 0.0071576922 0.17405039
0.014724592 0.0040341062 0.17653811
0.015628928 -0.00014750205 0.1766244
0.016137477 -0.0030941428 0.1777848
0.014824916 0.034571279 0.1466988
0.015856789 0.031706218 0.14832416
0.016692163 0.028897369 0.15613617
0.015943523 0.026161645 0.16124125
0 0 0 1 0 0 0 1 0 0 0 1 0 0 0 0 0 240 1 0 0
