ply
format ascii 1.0
comment PCL generated
element vertex 240
property float x
property float y
property float z
element camera 1
property float view_px
property float view_py
property float view_pz
property float x_axisx
property float x_axisy
property float x_axisz
property float y_axisx
property float y_axisy
property float y_axisz
property float z_axisx
property float z_axisy
property float z_axisz
property float focal
property float scalex
property float scaley
property float centerx
property float centery
property int viewportx
property int viewporty
property float k1
property float k2
end_header
-0.027453138 0.032911871 0.14606287
-0.027150083 0.030502409 0.14641687
-0.026780264 0.028187811 0.14818783
-0.026584649 0.025953883 0.14977174
-0.026422394 0.023755956 0.15279008
-0.027260987 0.020537931 0.15604776
-0.031204339 0.014748989 0.15868136
-0.031656865 0.011988987 0.15998818
-0.031604405 0.0090249181 0.16086833
-0.031407859 0.0058940854 0.16138996
-0.031696223 0.0024912779 0.1623273
-0.031921037 -0.00037721213 0.16416837
-0.032039486 -0.002885238 0.16544485
-0.025178723 0.033023149 0.14548849
-0.024587804 0.030494368 0.14645106
-0.024084397 0.028100593 0.14743476
-0.023904394 0.025988339 0.1492974
-0.023707932 0.024075923 0.15164551
-0.024462136 0.020653863 0.15373915
-0.025449099 0.016624557 0.15781382
-0.026987681 0.013043181 0.15890911
-0.02770903 0.0099101635 0.16006258
-0.02825612 0.0066501275 0.16039796
-0.028215531 0.0032837186 0.1613725
-0.028933508 -8.6138338e-05 0.16356288
-0.02924457 -0.0027797648 0.1662004
-0.02714782 -0.0054952963 0.16686861
-0.022200704 0.033396903 0.14551945
-0.021337636 0.030948823 0.14694732
-0.021215377 0.028602134 0.14766458
-0.021183725 0.026348552 0.14963314
-0.021254281 0.023905808 0.15134811
-0.021893403 0.020670125 0.1546773
-0.022867313 0.016811265 0.15770639
-0.023414532 0.013352824 0.15844886
-0.024068112 0.010457379 0.15936874
-0.025444085 0.0069128475 0.16054422
-0.024795335 0.0029579937 0.16295548
-0.024496343 0.00030714404 0.16482387
-0.024614628 -0.0026916564 0.16685191
-0.023932125 -0.0050733029 0.16727793
-0.023195453 -0.0075997468 0.16792546
-0.017912492 0.033606045 0.14690728
-0.018422674 0.031378318 0.14787889
-0.018548498 0.02904145 0.14827581
-0.018933304 0.027009273 0.1506613
-0.018860228 0.023999246 0.15123291
-0.019111281 0.021223783 0.15432164
-0.020469716 0.017316965 0.15845729
-0.020514427 0.014103871 0.15888074
-0.021052463 0.010910706 0.16067889
-0.021722708 0.0052694171 0.1626779
-0.022257606 0.0027436472 0.16445471
-0.022158735 0.00069288549 0.16637954
-0.022162149 -0.0017056126 0.16768308
-0.021703677 -0.0040055434 0.16795728
-0.020960514 -0.0065272916 0.16941658
-0.01499192 0.033805531 0.14775246
-0.015635574 0.031504743 0.14845787
-0.015744297 0.029366478 0.1484911
-0.016314205 0.026724577 0.15107529
-0.016436953 0.02398069 0.15220763
-0.016676314 0.021374285 0.15456516
-0.017872546 0.017688334 0.15950821
-0.018052863 0.014495616 0.1601163
-0.01837457 0.01159559 0.16201763
-0.018538946 0.00657479 0.16491024
-0.019174777 0.0037278696 0.1658394
-0.019637752 0.0010877545 0.16775712
-0.019807879 -0.00092982186 0.16790967
-0.019140648 -0.0034646948 0.16865605
-0.018065862 -0.0055754315 0.16960706
-0.012522923 0.033908159 0.14826694
-0.012832529 0.031511661 0.14891623
-0.013228051 0.028840762 0.14984097
-0.013615217 0.026319204 0.15142657
-0.013950285 0.023943545 0.15287682
-0.014117288 0.021470698 0.15448862
-0.014853363 0.018353295 0.15877151
-0.015460664 0.014866611 0.16048157
-0.015571174 0.01177998 0.16311233
-0.0164207 0.0070647728 0.16589572
-0.017661132 0.0038313891 0.16701354
-0.017994884 0.0015248116 0.16808829
-0.017512057 -0.00039809797 0.16872001
-0.017320346 -0.0029676738 0.16849461
-0.015462038 -0.0053053135 0.16871922
-0.010020857 0.03411831 0.14825964
-0.010202758 0.031735387 0.14908881
-0.010574984 0.028514788 0.15090185
-0.011123523 0.026002424 0.15205166
-0.011170079 0.023931829 0.15328154
-0.011086596 0.021533998 0.15568417
-0.010716439 0.018918524 0.15793549
-0.012089734 0.015411531 0.15951538
-0.01191163 0.012391588 0.16333298
-0.01322733 0.0086543662 0.16672991
-0.015678827 0.0043023331 0.16681853
-0.015420721 0.0019813157 0.16783237
-0.014903071 -7.6542659e-05 0.16868012
-0.014461823 -0.0019826924 0.16878335
-0.013112555 -0.0046722754 0.16857342
-0.0075710057 0.034323238 0.1484029
-0.0079290848 0.031517759 0.14961755
-0.008169136 0.028410142 0.15153655
-0.0081488676 0.026133947 0.1522906
-0.0080847992 0.023976732 0.15325448
-0.0077266064 0.021524223 0.15728492
-0.0074972259 0.018747076 0.15899009
-0.0073351865 0.016174806 0.16000001
-0.0076386193 0.013101582 0.16291994
-0.0077022933 0.010579013 0.16728023
-0.011242501 0.0051424364 0.16733569
-0.012456964 0.0026100073 0.16846249
-0.01188745 0.0007392171 0.16907413
-0.011248752 -0.0012600593 0.16891068
-0.010941966 -0.0032262662 0.1695499
-0.0049128672 0.034169514 0.14831819
-0.0054133288 0.031047169 0.1501143
-0.00571622 0.028214445 0.15153711
-0.005442305 0.026177241 0.15298086
-0.0054196808 0.023957433 0.15464865
-0.0048788632 0.021339817 0.15879074
-0.0049373643 0.019158134 0.16011542
-0.0051418818 0.016521577 0.16128011
-0.0049472419 0.013471249 0.16419305
-0.0046475464 0.010424818 0.1685048
-0.0051724911 0.0070437938 0.17002153
-0.0080579398 0.0039668847 0.1695777
-0.0089737615 0.00096897467 0.16923852
-0.0087764282 -0.00084459997 0.16911881
-0.0056495205 -0.0051332559 0.17340098
-0.0024928674 0.034028579 0.148673
-0.0029120201 0.031230813 0.14966266
-0.0025953604 0.028222514 0.15106167
-0.0026157757 0.025876712 0.15249994
-0.0024994982 0.023939656 0.15505713
-0.002267936 0.021346353 0.1593435
-0.0022090259 0.019417975 0.16091545
-0.002434273 0.016654149 0.16290432
-0.0021861366 0.013750454 0.16539457
-0.0014320395 0.010324636 0.17003857
-0.0022431386 0.0077410233 0.17109908
-0.0025613275 0.0053569968 0.17405184
-0.0039038339 0.0027742004 0.17441708
-0.0033096443 -0.00028029768 0.17479157
-0.0014110373 -0.0051675364 0.17794253
0.00027766582 0.033335336 0.14929067
0.0010004702 0.031221962 0.15024403
0.00051749672 0.028361538 0.15190405
0.0012425256 0.026042201 0.15429071
0.0016028263 0.023519143 0.15651579
0.00079531036 0.021496736 0.15887845
0.00043674061 0.019746605 0.16139105
0.00013617166 0.016923556 0.16363356
0.00022123297 0.014133967 0.16572434
0.0015753005 0.010541652 0.17021164
0.0010192123 0.0079080341 0.17189282
0.00068145309 0.005578394 0.17423467
4.6403507e-05 0.0029857443 0.17550939
0.00050006853 -0.0002656657 0.17748842
0.00077254977 -0.0037124653 0.17855333
0.0028639534 0.034269985 0.14950182
0.0032221675 0.031837489 0.15087833
0.003624911 0.029341143 0.15236357
0.0046239877 0.026129104 0.15519463
0.0045686765 0.024210656 0.15679789
0.0039883368 0.022189217 0.15837215
0.0033936852 0.020146417 0.15996
0.0029274893 0.017018007 0.16365939
0.0027118339 0.014398263 0.16616467
0.0046703075 0.010550865 0.17007913
0.0045496807 0.0077596097 0.17187929
0.0038743417 0.0059319618 0.17347017
0.0038924646 0.0033744962 0.17555481
0.0031498207 0.00053338928 0.17786445
0.0037237075 -0.0024986055 0.1789988
0.0055996543 0.034837898 0.14913937
0.0058207544 0.032613572 0.15090407
0.0059537916 0.03024726 0.15247199
0.0068826019 0.02646355 0.15555531
0.00661257 0.024648666 0.15778801
0.0060896585 0.022772318 0.15937504
0.0061113345 0.020605052 0.16130327
0.0057228268 0.018051988 0.16267426
0.0066346284 0.013758953 0.16767491
0.0070441514 0.01112486 0.17033663
0.0073603084 0.0084189894 0.17162511
0.0069340542 0.0064669265 0.17413434
0.0063006561 0.0045582908 0.17666653
0.0060507711 0.00065706717 0.17912537
0.0062375544 -0.002011989 0.18066707
0.0078888554 0.035302889 0.14955641
0.008046532 0.033149369 0.15155986
0.008584057 0.030972434 0.15237717
0.0090927621 0.027427375 0.15775886
0.0084080771 0.025349038 0.15964645
0.0081861783 0.023464149 0.16033834
0.0079817222 0.021377835 0.16188772
0.0098716263 0.016089516 0.16678424
0.0096728085 0.013711082 0.16853799
0.0094967382 0.011160254 0.17013764
0.010052585 0.0091532599 0.17163759
0.0099171977 0.0072637592 0.17404601
0.008867709 0.004722829 0.17786631
0.010183048 -0.00036366144 0.18042383
0.0099365916 -0.0025714845 0.18159442
0.01028782 0.035762094 0.14942643
0.01060224 0.033759523 0.15071866
0.010814385 0.031451575 0.15292047
0.011065558 0.028155882 0.15885685
0.010833232 0.025710737 0.16020514
0.01072502 0.023740161 0.16083358
0.01013114 0.021290166 0.16297433
0.011882546 0.016408158 0.16691199
0.011859313 0.014069625 0.16854295
0.012000082 0.011592509 0.16965993
0.012597637 0.0095009385 0.17169173
0.012476482 0.0076795062 0.17465587
0.011784897 0.0045602252 0.17840837
0.014023249 -0.00030343665 0.17958707
0.012771839 0.036245588 0.14881919
0.013199872 0.034084879 0.15025502
0.013306017 0.031362988 0.15616058
0.013758957 0.02833605 0.16033848
0.013645643 0.026076524 0.16113549
0.013597252 0.023868153 0.16249767
0.012872905 0.020782946 0.16532692
0.014012169 0.016942915 0.16696669
0.013966663 0.014562135 0.16853748
0.013956076 0.012395322 0.16975591
0.01503644 0.01010429 0.1720109
0.014423008 0.0080450522 0.1749644
0.014550067 0.005073878 0.17765008
0.016014522 0.00070484041 0.17771541
0.016658908 -0.0023681913 0.17864883
0.014996694 0.036358967 0.14856824
0.016234566 0.03367332 0.1503301
0.016178241 0.030182462 0.15749067
0.015739417 0.026625987 0.16190381
0 0 0 1 0 0 0 1 0 0 0 1 0 0 0 0 0 240 1 0 0
