ply
format ascii 1.0
comment PCL generated
element vertex 240
property float x
property float y
property float z
element camera 1
property float view_px
property float view_py
property float view_pz
property float x_axisx
property float x_axisy
property float x_axisz
property float y_axisx
property float y_axisy
property float y_axisz
property float z_axisx
property float z_axisy
property float z_axisz
property float focal
property float scalex
property float scaley
property float centerx
property float centery
property int viewportx
property int viewporty
property float k1
property float k2
end_header
-0.02800495 0.032708526 0.14548212
-0.027597876 0.030311994 0.14603041
-0.027160542 0.028162669 0.14806993
-0.026934741 0.026170436 0.15003133
-0.026594155 0.024303766 0.15342771
-0.027284361 0.021441029 0.15712269
-0.031537514 0.014971059 0.16061132
-0.031997133 0.012144515 0.16177915
-0.032039754 0.0090716686 0.16258605
-0.032017723 0.0058294083 0.16318454
-0.032354057 0.0022590149 0.16402978
-0.032517698 -0.00091401301 0.16551077
-0.032395966 -0.003692707 0.16632758
-0.025733789 0.032894537 0.14494474
-0.02505078 0.030396387 0.14615044
-0.024473183 0.02804175 0.14735018
-0.024226733 0.026168672 0.14948811
-0.023913521 0.024454499 0.15216696
-0.024629658 0.021273559 0.15460679
-0.025502475 0.017327849 0.15907586
-0.027344599 0.013307475 0.16066131
-0.028149353 0.010002654 0.161575
-0.028888719 0.0066460823 0.16207927
-0.028928148 0.003243112 0.16339847
-0.029588483 -0.00030678982 0.16524817
-0.029675413 -0.0034348632 0.16719303
-0.027200256 -0.0057333363 0.16774713
-0.022768987 0.033455145 0.14512502
-0.021783521 0.031001456 0.14666957
-0.021595668 0.028711233 0.14759396
-0.02150337 0.02663561 0.14982595
-0.021487763 0.02429946 0.15173393
-0.02200811 0.021304192 0.15532629
-0.022894548 0.017427525 0.15853916
-0.023631141 0.013762565 0.15983625
-0.024440972 0.01073672 0.16090044
-0.026113587 0.0068609398 0.16209261
-0.025446694 0.0028759583 0.16524193
-0.024754763 0.00032244483 0.16713123
-0.024788473 -0.0027035251 0.16832635
-0.024031639 -0.0050400244 0.16839957
-0.023356685 -0.007553596 0.16889413
-0.018360592 0.03404313 0.1469689
-0.018807426 0.031750429 0.14783855
-0.018919155 0.029376296 0.14826216
-0.019278932 0.027442101 0.15074649
-0.019089051 0.024412215 0.15150397
-0.01923725 0.021841047 0.1547786
-0.020418461 0.017711435 0.1587005
-0.020606786 0.014451707 0.15946911
-0.021077035 0.011162884 0.16162206
-0.022508653 0.0048373304 0.16496964
-0.022819493 0.0024063461 0.1669282
-0.022494515 0.00046646892 0.16865484
-0.022401396 -0.0017753335 0.16947079
-0.021914009 -0.004044021 0.16941254
-0.021380611 -0.0066010118 0.17076263
-0.015248183 0.034337208 0.14790908
-0.015942721 0.032008562 0.14848338
-0.016095523 0.029867487 0.1485178
-0.016577903 0.027176524 0.15123637
-0.01665223 0.02444301 0.15247478
-0.016803833 0.021994881 0.1549477
-0.017634211 0.017810294 0.15900418
-0.017977057 0.014530751 0.16018708
-0.018310864 0.011476866 0.16255094
-0.018527158 0.0058715595 0.16661385
-0.019450936 0.0032201435 0.16808073
-0.020036167 0.00070620712 0.1700044
-0.020128667 -0.0011769604 0.16989544
-0.019454835 -0.0036282889 0.17056358
-0.018551504 -0.0056653018 0.17132983
-0.0127029 0.034228917 0.14826621
-0.01304631 0.031924497 0.14885087
-0.0135015 0.029249124 0.1498446
-0.01385677 0.02675478 0.15156887
-0.014121818 0.024468791 0.15310189
-0.014244924 0.022044074 0.15492499
-0.014850243 0.018842906 0.15879026
-0.015424226 0.014750779 0.16045757
-0.015505296 0.011421577 0.1636124
-0.016350174 0.0061318404 0.1673333
-0.017878054 0.0032871766 0.16918772
-0.018416328 0.0011466733 0.17037988
-0.018101603 -0.0006982903 0.17116475
-0.01777748 -0.0032168245 0.17079379
-0.015967092 -0.0051699178 0.17083326
-0.010190217 0.03427482 0.14821003
-0.010403004 0.031981189 0.14921574
-0.010841105 0.028880484 0.15124308
-0.011394203 0.026359297 0.15232663
-0.011346777 0.02429935 0.15358026
-0.011167934 0.02218659 0.15626293
-0.010778741 0.019714735 0.15870611
-0.012176953 0.015530776 0.16013247
-0.011891721 0.012312497 0.16428629
-0.012986323 0.0079875225 0.16815254
-0.015791032 0.0036976859 0.16936594
-0.015813913 0.0016174637 0.17076887
-0.015706027 -0.00039557129 0.17173937
-0.015325449 -0.0019533746 0.17152835
-0.013818613 -0.0044721928 0.17130099
-0.0077686938 0.034411836 0.14833628
-0.0082184346 0.0317587 0.14980488
-0.0084579438 0.028703418 0.15190317
-0.0082982751 0.026424525 0.15276548
-0.008233129 0.024355298 0.15390982
-0.0077589615 0.022197545 0.15832575
-0.0075235916 0.019367181 0.16000904
-0.0074880989 0.016826613 0.16133107
-0.0078306869 0.013676241 0.16447702
-0.0078290952 0.010945124 0.16876343
-0.011996722 0.0046100984 0.1712558
-0.013429581 0.0022320531 0.17199823
-0.012999566 0.00054862513 0.17256063
-0.01228354 -0.0012285816 0.17221296
-0.012034985 -0.0031250005 0.17271499
-0.0050829779 0.034188733 0.14806686
-0.0056751175 0.031167144 0.15040097
-0.0058904593 0.028468568 0.15203455
-0.0055599543 0.026530894 0.15363663
-0.0055477354 0.024536444 0.15560248
-0.0050026546 0.022129158 0.16016379
-0.0050434545 0.019847298 0.16134711
-0.0053034606 0.017148016 0.16259277
-0.0051177251 0.013964295 0.16558811
-0.0050387108 0.010539072 0.169843
-0.005873247 0.0071985158 0.17216291
-0.0093681589 0.0038481483 0.17369144
-0.010170176 0.00082343619 0.17324027
-0.010021454 -0.00086419692 0.17313997
-0.0068641799 -0.0051810779 0.17588475
-0.0027073291 0.033953667 0.14821772
-0.0032518571 0.031156784 0.14960116
-0.0026788323 0.028457925 0.15176247
-0.002676195 0.026235022 0.15340777
-0.0026607104 0.024673646 0.15636012
-0.0023724672 0.022291794 0.1612218
-0.0022885411 0.020147858 0.16243009
-0.0025716596 0.01713185 0.16415884
-0.0023630683 0.014077025 0.16651911
-0.0016859007 0.010031245 0.1710903
-0.0026608889 0.0076402123 0.17256604
-0.0026454823 0.0051773745 0.17528893
-0.0042469101 0.0027273872 0.17569068
-0.0040556989 -0.00035210152 0.17650007
-0.0016443749 -0.0056616557 0.17874523
0.00014868427 0.033272471 0.14899224
0.00081422256 0.031293519 0.15026551
0.00040461091 0.028708162 0.15238442
0.00092946342 0.026658205 0.15573928
0.0013136236 0.024271242 0.15808696
0.00070992851 0.022440199 0.16062389
0.00050055556 0.020420177 0.16291744
5.2677446e-05 0.017317658 0.16488002
1.6726202e-05 0.014331905 0.16677746
0.0013379061 0.010077303 0.17085275
0.00071171642 0.0075672609 0.17257589
0.00049901556 0.0050910083 0.17473967
-0.00015776553 0.002477804 0.17593476
0.0003807566 -0.00098278467 0.17795491
0.00054586836 -0.0044273916 0.1788633
0.0027754949 0.034148529 0.14906064
0.0031011661 0.031838071 0.15064558
0.0034601209 0.02948378 0.15243353
0.0042431178 0.02655191 0.15624602
0.004304246 0.02465429 0.15772913
0.0037333302 0.022724969 0.15925182
0.0032887787 0.020695616 0.16083662
0.0028959378 0.017331073 0.16476808
0.0025079676 0.014446758 0.16704467
0.0043725958 0.0099600367 0.1703188
0.0041727107 0.0071347086 0.17196378
0.0034608126 0.0052135959 0.17339866
0.0035503916 0.0024551221 0.17528589
0.0030237408 -0.00047901899 0.17763539
0.0034900904 -0.0036368528 0.17846918
0.0055488264 0.034598753 0.14840475
0.005752774 0.032478068 0.15038148
0.0058439346 0.030259192 0.15225485
0.00646713 0.026773041 0.15608056
0.0063807666 0.024908368 0.15817045
0.0060454644 0.022997692 0.15954581
0.0062808678 0.020623952 0.16118544
0.0057483776 0.018214658 0.16276246
0.0063585998 0.013309416 0.16823371
0.006709178 0.010350205 0.17018506
0.006673187 0.0076887845 0.17124328
0.0064292951 0.0054658637 0.17348382
0.0060428134 0.0032515107 0.17579111
0.0061143385 -0.00090403418 0.17788456
0.0063477955 -0.0036920998 0.17919759
0.007918396 0.034966398 0.14848827
0.0080922814 0.032914586 0.15071599
0.0085036047 0.030816652 0.15182731
0.0090615908 0.027398339 0.15785186
0.0085367775 0.025304247 0.15952432
0.0081913378 0.023387654 0.16001311
0.0082002459 0.021111824 0.16118364
0.0097367959 0.014978622 0.16646756
0.0093593048 0.01263441 0.16821577
0.0089407871 0.010051964 0.16939601
0.0094220415 0.0079101799 0.17063265
0.0094437655 0.0057177846 0.17284086
0.0087990034 0.002499087 0.17628455
0.0099159153 -0.0031518517 0.17709196
0.0096211396 -0.0053047412 0.17815903
0.010324635 0.035142768 0.14799531
0.010538328 0.033219326 0.14939073
0.010745763 0.031104889 0.15189454
0.011161015 0.02797683 0.15863273
0.010956813 0.02542893 0.15966454
0.010712494 0.023437006 0.16004907
0.010196389 0.020681279 0.16185206
0.011684885 0.014909539 0.16604671
0.011493349 0.012576045 0.16757958
0.011345373 0.010208133 0.16851018
0.011980111 0.0079342164 0.17027408
0.012015847 0.0053103562 0.17268552
0.01164309 0.0016283016 0.1755906
0.013087698 -0.0037011318 0.17483586
0.012722208 0.035227265 0.14692321
0.013035602 0.033094902 0.14837503
0.013524839 0.03042219 0.15473481
0.014199778 0.027450912 0.15904896
0.013947757 0.02534998 0.15997721
0.01387654 0.022973463 0.16129975
0.013236989 0.019503122 0.16378354
0.013831344 0.015136123 0.16566484
0.013593823 0.01278011 0.16721459
0.013384193 0.010672061 0.16830921
0.014503296 0.0083027976 0.17032598
0.013887605 0.0053011286 0.17230521
0.014022952 0.0017169537 0.17397979
0.014467882 -0.0026416786 0.1726604
0.01463994 -0.0058905389 0.1726753
0.014864435 0.034922667 0.14625454
0.016017528 0.031886108 0.14762338
0.016211551 0.028864508 0.15581134
0.01619954 0.0255081 0.16025591
0 0 0 1 0 0 0 1 0 0 0 1 0 0 0 0 0 240 1 0 0
