ply
format ascii 1.0
comment PCL generated
element vertex 240
property float x
property float y
property float z
element camera 1
property float view_px
property float view_py
property float view_pz
property float x_axisx
property float x_axisy
property float x_axisz
property float y_axisx
property float y_axisy
property float y_axisz
property float z_axisx
property float z_axisy
property float z_axisz
property float focal
property float scalex
property float scaley
property float centerx
property float centery
property int viewportx
property int viewporty
property float k1
property float k2
end_header
-0.028741764 0.032756828 0.14629802
-0.028314402 0.030373404 0.14698578
-0.02773143 0.028269865 0.14912058
-0.027367512 0.026338499 0.151179
-0.026775813 0.024619136 0.15487161
-0.02719033 0.022302 0.15905912
-0.031427763 0.01629452 0.16538678
-0.031896345 0.013490455 0.1666842
-0.032110389 0.010379858 0.16766031
-0.032381248 0.006995149 0.16823177
-0.032965358 0.0033104985 0.16888829
-0.033056065 -7.090802e-05 0.17005432
-0.032913696 -0.0029768199 0.17047413
-0.026523987 0.032877937 0.14556406
-0.025755694 0.030435035 0.14694348
-0.025094431 0.028098585 0.14822479
-0.024696063 0.026270051 0.15043828
-0.024206052 0.02454057 0.15317637
-0.024841389 0.021716498 0.15625198
-0.025477212 0.018309394 0.16166747
-0.027563736 0.014337235 0.16474676
-0.028527061 0.010990648 0.16596936
-0.029559789 0.0076128705 0.1665238
-0.029783722 0.0040123709 0.16741277
-0.030271694 0.00034709883 0.16906507
-0.030005733 -0.0030455233 0.17053185
-0.027136903 -0.0059901304 0.16961075
-0.023524145 0.033397712 0.14548096
-0.022375813 0.031013517 0.14722213
-0.022153398 0.028747393 0.14819229
-0.02190554 0.026686853 0.15045212
-0.021823302 0.024311952 0.1524459
-0.022156706 0.021676781 0.15663852
-0.022923602 0.018160565 0.16051711
-0.023824288 0.014727138 0.163133
-0.02483906 0.011648322 0.16473103
-0.026882241 0.0075174924 0.16598302
-0.025919139 0.0027598799 0.16803984
-0.02477305 -0.00037410663 0.16868944
-0.024591254 -0.0033451542 0.16951509
-0.023790931 -0.0054001524 0.16949114
-0.023034722 -0.0077540739 0.16960128
-0.018712191 0.034013454 0.14706132
-0.019170236 0.031729653 0.14799951
-0.019341776 0.029364424 0.14851831
-0.019529225 0.027466103 0.1510282
-0.019382514 0.024421612 0.15197377
-0.019355282 0.022148341 0.15561993
-0.020459412 0.018281518 0.16015489
-0.020766828 0.015149608 0.16184217
-0.021236721 0.01194556 0.16469575
-0.023005858 0.0046609356 0.16758263
-0.023041632 0.0020841074 0.16884008
-0.022515571 -5.3692067e-05 0.17010911
-0.022302151 -0.0022580863 0.17065658
-0.021783318 -0.0042842971 0.17052631
-0.021100357 -0.0068718814 0.17135938
-0.015525053 0.034416672 0.14809687
-0.016214516 0.032054137 0.14857605
-0.01639759 0.029889466 0.14861053
-0.016834011 0.027192229 0.15135401
-0.016874004 0.024584293 0.15280375
-0.016900383 0.02247867 0.15559913
-0.017663741 0.018225996 0.15992166
-0.018155284 0.014991905 0.16199929
-0.018493555 0.012000023 0.165058
-0.018856524 0.0059754169 0.16921104
-0.01971476 0.0031113559 0.17020375
-0.020147422 0.00037666131 0.1717103
-0.020179905 -0.0013671793 0.17124148
-0.019370865 -0.0037994036 0.17167474
-0.018360741 -0.0058028451 0.17185351
-0.012955431 0.034368023 0.14866123
-0.013257531 0.032055188 0.1491165
-0.013711805 0.02931416 0.15002485
-0.014068528 0.026774578 0.15163024
-0.01430582 0.024672743 0.15334831
-0.014356034 0.022449415 0.15535435
-0.01477199 0.019213449 0.15937552
-0.015684683 0.014947928 0.16190968
-0.015741168 0.011695287 0.16572134
-0.016754575 0.0063678855 0.1701673
-0.018241113 0.0032385385 0.17151879
-0.018646993 0.00095163565 0.17233105
-0.018281426 -0.00095384702 0.17277417
-0.017793484 -0.0033528809 0.17207798
-0.015900021 -0.0049456069 0.17122068
-0.010432041 0.034500737 0.1486721
-0.010524727 0.032155346 0.14954001
-0.010949904 0.028923124 0.15138482
-0.011461124 0.026425906 0.1524179
-0.011422291 0.024462065 0.15365458
-0.011115035 0.022455815 0.15625772
-0.010464759 0.019806569 0.15821463
-0.012412898 0.015487149 0.16105999
-0.012073571 0.0125554 0.16593152
-0.013260316 0.0085150953 0.17100944
-0.016288044 0.0039597712 0.17220145
-0.016118737 0.0016323507 0.17317505
-0.015850745 -0.00056365039 0.1735765
-0.015457558 -0.0021455758 0.17303541
-0.013820019 -0.0042515094 0.17182799
-0.0080627287 0.03471509 0.14884932
-0.0083558504 0.032063931 0.15028568
-0.0085351197 0.028879458 0.15208431
-0.0082528926 0.026733579 0.15299541
-0.0080633685 0.024677707 0.15394039
-0.0073637469 0.022125615 0.15765889
-0.0070629301 0.019144533 0.15900882
-0.0073108124 0.016600912 0.16082394
-0.0079497471 0.014171988 0.16540425
-0.007688181 0.012346759 0.170258
-0.012518441 0.0046073678 0.17383379
-0.013574084 0.0019830351 0.17410779
-0.01298071 0.00021876152 0.17393748
-0.012321406 -0.0013128262 0.17320353
-0.012021518 -0.0032235275 0.17332619
-0.0053979233 0.034718476 0.14889762
-0.0058750482 0.031790428 0.15132876
-0.0059266677 0.029000785 0.15256917
-0.0054903277 0.02704354 0.1540471
-0.0053724241 0.02480376 0.15571862
-0.0046024467 0.021906452 0.15946765
-0.004652122 0.019567842 0.16048835
-0.0051581566 0.016970938 0.16214225
-0.00514499 0.014475207 0.16624682
-0.0048082341 0.011656195 0.17096587
-0.005693438 0.0079195155 0.17257072
-0.0092642913 0.0037995158 0.17462975
-0.010004855 0.00095767673 0.17344649
-0.0098819388 -0.00072214246 0.17314562
-0.006566212 -0.0052569276 0.17513959
-0.0030305262 0.03454246 0.14907135
-0.0034383533 0.03192519 0.15070032
-0.0026824067 0.029352395 0.15264343
-0.0025533552 0.026977217 0.15393254
-0.0024669713 0.02497079 0.15662032
-0.0020828203 0.021883542 0.16049424
-0.0020456393 0.019722227 0.16161892
-0.0024713385 0.017091181 0.16389988
-0.0023394199 0.014539495 0.16690448
-0.001368552 0.010568113 0.17172356
-0.0024333131 0.0081205349 0.17292333
-0.0024677005 0.0052027642 0.17477553
-0.0040338128 0.0027171092 0.17435665
-0.0035310986 -0.00048768986 0.17515084
-0.0014021031 -0.0059296708 0.17776522
-0.00022180961 0.033582184 0.14986499
0.00050836761 0.031553067 0.1510931
0.00030980562 0.029218102 0.15339756
0.0012463895 0.026726827 0.15601783
0.0016840058 0.024011083 0.15795051
0.00098532811 0.022056235 0.16008088
0.00067842804 0.020061843 0.16229858
0.00018620284 0.017242463 0.16447942
6.3616724e-05 0.014673844 0.16698729
0.0016720396 0.010227234 0.17116307
0.0010267976 0.0076529938 0.17269026
0.00065753737 0.0050594429 0.17433834
-0.00014362199 0.0023707587 0.17515053
0.00034693026 -0.0011481384 0.17732111
0.00061348977 -0.0046569384 0.17804739
0.0024400891 0.034296829 0.14965652
0.0028417381 0.03196175 0.1511768
0.0032889179 0.029579919 0.15293339
0.0046342174 0.026237346 0.15597269
0.0046742009 0.024371795 0.15750755
0.0040374291 0.022299912 0.15885276
0.0035875118 0.020387892 0.16048257
0.0030449738 0.017214756 0.16440406
0.0025474029 0.014704058 0.16708282
0.0048123719 0.0095308283 0.17036435
0.0045650061 0.0068259081 0.17202672
0.003754555 0.0051413989 0.17334117
0.0037088932 0.0024142282 0.17526284
0.0029747426 -0.00054619531 0.17744191
0.0034487213 -0.0036856681 0.17834011
0.005167522 0.034677498 0.1487112
0.005480988 0.032499459 0.15061545
0.0056668362 0.030233439 0.15245228
0.0068604103 0.026241744 0.15575907
0.0067123468 0.024494153 0.15790823
0.006360963 0.022681458 0.15916774
0.0065470436 0.020474646 0.16094777
0.0059385058 0.018143913 0.16261463
0.0068974867 0.012702059 0.16824107
0.0071127522 0.0097765438 0.17018905
0.0071873437 0.0072884844 0.17164235
0.0067396713 0.0053618434 0.17398404
0.0060781972 0.0033882174 0.17632355
0.0059499098 -0.00073571131 0.17844811
0.0060665146 -0.0034729831 0.17986295
0.0075440635 0.035015512 0.14863372
0.0078543657 0.032864347 0.15072967
0.0082953461 0.030712046 0.15173371
0.009399361 0.026866421 0.15754472
0.0087949475 0.024930138 0.15925513
0.0084185069 0.02311594 0.15975946
0.0084324973 0.02098033 0.16095845
0.010360777 0.014427546 0.1669524
0.0098933289 0.012067136 0.16856667
0.0094215143 0.0095389113 0.16975644
0.009953049 0.0076108626 0.17137562
0.0098436717 0.0057172817 0.17388324
0.0087444317 0.0029701339 0.17762974
0.0099554183 -0.0022204632 0.17951854
0.0095757004 -0.0043505793 0.1805515
0.0099021941 0.035243802 0.1480346
0.010203619 0.033259459 0.14931044
0.010559386 0.030995417 0.15165563
0.011512447 0.027366489 0.1581261
0.01120395 0.024966583 0.15938231
0.010931065 0.023109941 0.15983357
0.010382961 0.020359857 0.16161723
0.012225379 0.014442069 0.16669196
0.011976117 0.012119165 0.16825843
0.011898477 0.0097441329 0.16916627
0.012510084 0.0076218005 0.17121011
0.01246106 0.0056296568 0.1745178
0.011686688 0.0025008626 0.17790525
0.013694056 -0.0024488452 0.17857587
0.012232784 0.035453666 0.14690822
0.012654415 0.033273425 0.14824539
0.013719539 0.030411581 0.15499924
0.014658481 0.027033975 0.15905541
0.014344756 0.024844477 0.15962577
0.014317962 0.022555336 0.16098854
0.013717366 0.019305367 0.16383104
0.014284022 0.014798784 0.16647366
0.014033893 0.012386049 0.167955
0.013834869 0.010276153 0.16905756
0.014992368 0.0079825073 0.17127909
0.01437679 0.0056969635 0.17453824
0.014362497 0.0026950268 0.17692398
0.01552353 -0.0015362327 0.17670718
0.016008662 -0.0046662502 0.17735502
0.014350839 0.035255853 0.1461648
0.015709603 0.032248449 0.14740013
0.016547652 0.029140804 0.15633219
0.016696069 0.024921598 0.15979731
0 0 0 1 0 0 0 1 0 0 0 1 0 0 0 0 0 240 1 0 0
