ply
format ascii 1.0
comment PCL generated
element vertex 240
property float x
property float y
property float z
element camera 1
property float view_px
property float view_py
property float view_pz
property float x_axisx
property float x_axisy
property float x_axisz
property float y_axisx
property float y_axisy
property float y_axisz
property float z_axisx
property float z_axisy
property float z_axisz
property float focal
property float scalex
property float scaley
property float centerx
property float centery
property int viewportx
property int viewporty
property float k1
property float k2
end_header
-0.029065549 0.032354955 0.14612895
-0.028551582 0.030031187 0.14695841
-0.027906502 0.028030248 0.14919005
-0.027521612 0.026143711 0.15130942
-0.026995143 0.024518128 0.15511651
-0.027471984 0.022148445 0.15928306
-0.032025933 0.016035205 0.16526398
-0.032439761 0.013416284 0.16690309
-0.032504551 0.010394839 0.16831827
-0.032585636 0.0070445179 0.1694268
-0.033068348 0.0034343884 0.17046958
-0.032958034 0.00035100139 0.17219597
-0.032751746 -0.0023076956 0.17333621
-0.026848493 0.032503203 0.14541551
-0.025974279 0.030179625 0.14700004
-0.025227902 0.027923556 0.14839809
-0.024817474 0.026167797 0.15070328
-0.02435421 0.024489533 0.15352802
-0.02506404 0.021630973 0.15654597
-0.025801495 0.018205808 0.16161506
-0.028106371 0.014093399 0.1647397
-0.029016187 0.0108721 0.16640209
-0.029973643 0.0075052436 0.16743731
-0.030193321 0.0038743441 0.1686531
-0.030420441 0.0003848155 0.17066416
-0.029815767 -0.0025881182 0.17290288
-0.02718072 -0.0060613882 0.17171152
-0.023843944 0.033098396 0.14536601
-0.022550279 0.030881258 0.14748299
-0.022277096 0.028660571 0.1485206
-0.022044228 0.026682284 0.15086481
-0.021926505 0.024399461 0.15296906
-0.022362813 0.021664452 0.15698157
-0.023227615 0.0180618 0.16063716
-0.024256356 0.014530247 0.16301444
-0.025300294 0.011449224 0.16483067
-0.027359918 0.0073563033 0.16677292
-0.025889957 0.0020082239 0.1688154
-0.024335697 -0.0016526018 0.16899635
-0.024608279 -0.0038536142 0.17079048
-0.023955671 -0.0057113608 0.1710394
-0.023216436 -0.0079362728 0.1712237
-0.018863861 0.033943571 0.14728454
-0.019322976 0.031701159 0.14832751
-0.019476542 0.029353844 0.14891267
-0.019683667 0.027542954 0.15145418
-0.019485516 0.024629269 0.1525777
-0.019520156 0.022345245 0.15623194
-0.020809736 0.018301649 0.16052857
-0.02111784 0.015126787 0.16205694
-0.021646453 0.011894536 0.16496363
-0.023072222 0.0038397226 0.16806699
-0.022773819 0.00096616504 0.16881992
-0.022283984 -0.0009020131 0.17030203
-0.022222614 -0.0026343071 0.1714482
-0.021860683 -0.0044562221 0.17158654
-0.021025535 -0.0069226394 0.17242064
-0.015596438 0.034397993 0.14817712
-0.016303493 0.032058921 0.1487903
-0.016506625 0.029922197 0.14898962
-0.016956856 0.027379766 0.15185235
-0.016986616 0.024826501 0.15339164
-0.017015819 0.022724168 0.156213
-0.018066244 0.01852032 0.16076276
-0.01853437 0.015202344 0.16268978
-0.018950991 0.012138738 0.16572554
-0.018989732 0.0056069586 0.16933337
-0.019789495 0.0026683195 0.17037423
-0.020099282 2.5113883e-05 0.1719486
-0.020146843 -0.0015312249 0.17162628
-0.019298701 -0.0038618166 0.17223497
-0.01820801 -0.0058035352 0.17239365
-0.013024941 0.034357522 0.14868569
-0.013310233 0.032085627 0.14922047
-0.01379127 0.029360497 0.15026127
-0.014178119 0.026979787 0.15209848
-0.014419494 0.02491132 0.1539086
-0.014472564 0.022689691 0.15598398
-0.015073786 0.01972645 0.16040409
-0.016080907 0.015381756 0.1629689
-0.016201029 0.012043041 0.16670074
-0.016948139 0.0062551089 0.17052227
-0.018367309 0.0030759072 0.17161033
-0.018656591 0.00078009214 0.17247069
-0.018237609 -0.0010072052 0.17304625
-0.017717047 -0.0034085319 0.17256151
-0.015717007 -0.0047737239 0.17166382
-0.010506307 0.034489829 0.14862753
-0.010573965 0.032163173 0.14951426
-0.010995883 0.028938981 0.15135536
-0.011544246 0.026545623 0.15261079
-0.011520036 0.024649592 0.15404823
-0.011207389 0.022734322 0.15681826
-0.010583694 0.020327492 0.15901087
-0.012718913 0.016188513 0.16241413
-0.012407193 0.013094096 0.16711494
-0.013450865 0.0086299311 0.17208384
-0.016366672 0.0038834347 0.17260459
-0.016232759 0.0015767877 0.17363258
-0.015926199 -0.00058637373 0.17399642
-0.015467974 -0.0020388556 0.17355731
-0.013651267 -0.0039287857 0.17248209
-0.008132888 0.034728888 0.1488319
-0.0084130717 0.032096356 0.15028468
-0.0085823033 0.028911626 0.15200618
-0.0083218403 0.026854483 0.15305978
-0.0081545142 0.024859155 0.15412153
-0.0074667647 0.022372434 0.15795191
-0.0072838245 0.019678006 0.15960836
-0.0076314532 0.017373504 0.16173561
-0.0080056768 0.014520438 0.16616118
-0.0076247328 0.012540912 0.1709879
-0.01288664 0.0046954071 0.17520925
-0.013931387 0.0020279307 0.17518827
-0.013253195 0.00031647272 0.17502037
-0.012421185 -0.0010523085 0.17427428
-0.012087917 -0.0029444313 0.17426586
-0.0053876666 0.034825873 0.14919749
-0.0060050483 0.031909488 0.15152329
-0.0059941174 0.029076288 0.15254608
-0.0055517089 0.027193863 0.15409094
-0.0054464824 0.024983609 0.15584245
-0.0045741452 0.022035912 0.15948801
-0.0046878811 0.019883817 0.16068912
-0.0053420686 0.01752804 0.1627478
-0.0051742899 0.014742979 0.16691585
-0.0047695376 0.011666574 0.17196605
-0.0055852593 0.0080977371 0.17428759
-0.0099169947 0.0040460518 0.17700271
-0.010272151 0.0012550252 0.17576554
-0.010071184 -0.00041934857 0.17517498
-0.0066946726 -0.0049430095 0.17662489
-0.0030496537 0.034754999 0.1496112
-0.0035533281 0.032181069 0.15124597
-0.0027461827 0.029466009 0.15275583
-0.0026123137 0.027146555 0.15403509
-0.0025067164 0.025142526 0.15676318
-0.0020285577 0.021728802 0.16013609
-0.0020221046 0.019648539 0.16138925
-0.0025377604 0.017255682 0.16434364
-0.0024032665 0.014779574 0.16752362
-0.001309305 0.01068645 0.17319404
-0.0023259956 0.0083335517 0.17462018
-0.002289359 0.0055212672 0.17664458
-0.0039918916 0.0031370164 0.17645539
-0.0036578185 -7.9692509e-05 0.17742798
-0.0013220215 -0.005745274 0.17906849
-0.00026842061 0.033923574 0.15065703
0.00060555327 0.031827491 0.15165658
0.00030972145 0.029372705 0.15380652
0.0014087517 0.026603926 0.15612386
0.0018072482 0.02383703 0.15801743
0.0010128313 0.021853883 0.1599341
0.00057753868 0.019972922 0.16230296
0.00010441593 0.017342879 0.16487232
-5.6602707e-06 0.014842595 0.16769123
0.0017509373 0.010424056 0.17277546
0.0011780916 0.0079179751 0.17452377
0.00082203763 0.0053208484 0.17608327
-5.5974673e-05 0.0026665877 0.17686693
0.00048235673 -0.00094478799 0.17886701
0.00068142021 -0.004498248 0.17936966
0.0023225385 0.034923263 0.15077706
0.0028328805 0.032494944 0.15210372
0.003348337 0.029991481 0.15368958
0.0045960867 0.026554469 0.15686999
0.0047351215 0.024500333 0.15809415
0.0041285926 0.022308182 0.15925081
0.0035954174 0.020412114 0.16085824
0.0029455074 0.017323548 0.16487058
0.0024442838 0.014908757 0.16781823
0.0049150432 0.0097518675 0.17206718
0.0047523114 0.0071394453 0.17382714
0.0039045769 0.0054112053 0.17490615
0.003868856 0.0025024984 0.17649584
0.0031409927 -0.00046114522 0.1787542
0.0035525085 -0.0036303927 0.17953084
0.0050776429 0.035827555 0.15039918
0.0054230089 0.033444781 0.15203264
0.0056544207 0.030987605 0.1536254
0.0065994449 0.026935276 0.15707189
0.0065281289 0.024898721 0.15891089
0.0062798881 0.022955135 0.15992527
0.0063837618 0.020867202 0.16182998
0.0057522138 0.018493602 0.16343851
0.0068248981 0.012805045 0.16974291
0.007145639 0.0099701304 0.17171381
0.0073070764 0.0076125446 0.17326567
0.0069361911 0.0055466411 0.17535634
0.0063585937 0.0033262796 0.17741211
0.0061663524 -0.00079884176 0.17955586
0.0062447749 -0.0035628199 0.18089598
0.0073609962 0.036512654 0.15081812
0.0076727667 0.034111485 0.15259485
0.0082672415 0.031892113 0.15337119
0.00913483 0.027329393 0.15894695
0.0085773552 0.025218694 0.16027422
0.0082083289 0.023437908 0.1606348
0.0081294281 0.021511532 0.16205893
0.010304234 0.014389041 0.1680427
0.0098700626 0.012118995 0.1698184
0.0094681941 0.0096496213 0.1710933
0.01008762 0.0078110346 0.17277068
0.010025539 0.005922772 0.17521386
0.0089886282 0.002914092 0.17874812
0.010122889 -0.0024414461 0.18044515
0.009698214 -0.0045782076 0.18139753
0.0097117154 0.037118714 0.15067646
0.010097035 0.035008632 0.15169883
0.010433287 0.032471072 0.15370989
0.011210899 0.027811766 0.15956633
0.010938337 0.025327671 0.16046856
0.010677082 0.023524823 0.16084871
0.010041038 0.020930015 0.16289593
0.012160411 0.014329316 0.16767511
0.011975119 0.012123553 0.16938993
0.012017279 0.0098644113 0.17049564
0.012696327 0.0078947293 0.17268795
0.012662171 0.0058523612 0.17595989
0.011880856 0.0025199987 0.17913869
0.013816335 -0.0027423252 0.17940706
0.012104313 0.037742775 0.14996058
0.012606299 0.035441265 0.15104432
0.013515981 0.031064628 0.15668777
0.014453505 0.027192928 0.16000885
0.014090171 0.025143262 0.16075149
0.014093217 0.022911331 0.16216399
0.013522799 0.019461296 0.16471747
0.014191397 0.014668309 0.16729
0.013993465 0.012443844 0.1689923
0.0138826 0.010419851 0.17030565
0.015156643 0.0084184436 0.17288525
0.014544378 0.0059866589 0.17603093
0.014553254 0.0028001184 0.17824069
0.015630778 -0.0017256355 0.17761216
0.016000152 -0.0049727531 0.17801261
0.014293671 0.03785681 0.14951447
0.015830005 0.034776933 0.15043975
0.016506571 0.028991226 0.15717599
0.016453583 0.02519032 0.16102365
0 0 0 1 0 0 0 1 0 0 0 1 0 0 0 0 0 240 1 0 0
