ply
format ascii 1.0
comment PCL generated
element vertex 240
property float x
property float y
property float z
element camera 1
property float view_px
property float view_py
property float view_pz
property float x_axisx
property float x_axisy
property float x_axisz
property float y_axisx
property float y_axisy
property float y_axisz
property float z_axisx
property float z_axisy
property float z_axisz
property float focal
property float scalex
property float scaley
property float centerx
property float centery
property int viewportx
property int viewporty
property float k1
property float k2
end_header
-0.024671242 0.034618057 0.1455382
-0.024575459 0.032341618 0.14581808
-0.024742965 0.030337526 0.14795771
-0.024973741 0.028185425 0.14963293
-0.025208743 0.02617448 0.15212245
-0.025834661 0.023735974 0.15596105
-0.027184656 0.021736234 0.16105247
-0.027492814 0.019452313 0.16327515
-0.027574973 0.0168784 0.16447076
-0.027500419 0.014203815 0.16574819
-0.027583228 0.011529 0.16678278
-0.027861277 0.0087926248 0.16882928
-0.027940864 0.0060787452 0.16885953
-0.02219961 0.034621518 0.14519745
-0.022094868 0.032465819 0.14641753
-0.022202743 0.030460408 0.14821595
-0.022451444 0.028314203 0.1498808
-0.022534752 0.026289953 0.15178615
-0.022981858 0.023744911 0.15445457
-0.02359358 0.021048956 0.15850863
-0.023951622 0.018869173 0.16059491
-0.024222298 0.016573809 0.1630507
-0.024440465 0.013989648 0.16434327
-0.024589038 0.011403584 0.16565993
-0.024964195 0.0087310513 0.16824785
-0.025258787 0.0059999945 0.17059295
-0.024996147 0.0032255526 0.1727259
-0.019617818 0.034994937 0.14576106
-0.019659253 0.033030555 0.14802943
-0.019771703 0.030768296 0.1489145
-0.01981979 0.028422369 0.15035038
-0.020055044 0.02624606 0.1517638
-0.020426588 0.023847876 0.15522784
-0.020938648 0.021311995 0.15889722
-0.021154463 0.018857341 0.16046634
-0.021290431 0.016573964 0.16248234
-0.021705339 0.014164229 0.1646041
-0.021902397 0.011551278 0.16773434
-0.022010487 0.0085482905 0.169662
-0.022198651 0.0055848202 0.17202435
-0.022297161 0.0027304785 0.17307279
-0.022263197 -9.2113522e-05 0.17409529
-0.016885735 0.035377271 0.14734511
-0.017177874 0.033188879 0.14867514
-0.01715564 0.030749969 0.14896856
-0.017354814 0.028753934 0.151057
-0.017469158 0.026375392 0.15192178
-0.017755419 0.023993213 0.15508205
-0.018296244 0.021614881 0.1593969
-0.018330101 0.018999884 0.1602575
-0.01864833 0.016601427 0.1628101
-0.018647753 0.01405143 0.16560677
-0.019139793 0.011345459 0.16944404
-0.019283986 0.0085277092 0.17061281
-0.019472521 0.0058458485 0.17300238
-0.019648861 0.0031014367 0.1745604
-0.019858304 0.00017081776 0.17606983
-0.014266527 0.035524573 0.14757071
-0.014594242 0.033272792 0.1487961
-0.014536968 0.030954609 0.14886537
-0.014893888 0.028717024 0.15114194
-0.014990106 0.026406359 0.15281947
-0.015207052 0.024186315 0.15553612
-0.015543259 0.021953 0.16023837
-0.015585972 0.019142261 0.16062456
-0.015863521 0.016683131 0.16290897
-0.015992625 0.013971649 0.16600658
-0.016071465 0.011283431 0.16881458
-0.016511945 0.0086984625 0.17184179
-0.017004238 0.0061374926 0.17508261
-0.017146405 0.0031848354 0.17637768
-0.016841192 1.9637655e-05 0.17607091
-0.011869923 0.03551 0.14754574
-0.012051856 0.033293057 0.14887184
-0.012104978 0.030889306 0.14995503
-0.012245043 0.028428242 0.15143082
-0.012398794 0.026301678 0.15319814
-0.012607627 0.024175927 0.15556769
-0.012853117 0.021989543 0.15945902
-0.012828891 0.019207425 0.16066788
-0.012897388 0.016559714 0.16254795
-0.013200338 0.013911253 0.16637136
-0.013324113 0.011000017 0.17047754
-0.01394188 0.0086801387 0.17369816
-0.014134438 0.0062284861 0.17620413
-0.014387606 0.0033852763 0.17647809
-0.013422837 -0.0003127454 0.17484207
-0.0093687652 0.035467118 0.14714666
-0.0094880825 0.033379376 0.14859673
-0.0095740538 0.030881172 0.15079227
-0.0097222738 0.028171552 0.15163021
-0.0096361199 0.026083369 0.1536382
-0.0098401783 0.024241045 0.15631351
-0.009814702 0.02188015 0.15883875
-0.0099662086 0.019178117 0.15939926
-0.010095054 0.016575191 0.16266835
-0.010547774 0.014137452 0.16676342
-0.010376255 0.01073864 0.17176782
-0.01109375 0.0088419113 0.17493425
-0.011135508 0.0060499087 0.17586088
-0.011068762 0.0032178545 0.17612459
-0.010865953 4.5355911e-05 0.17587975
-0.0068789329 0.035448547 0.14708462
-0.0069852066 0.033271801 0.14870337
-0.0070544221 0.030872613 0.15114221
-0.0068785828 0.028125687 0.15148838
-0.0069667143 0.025996568 0.15338375
-0.0070805689 0.024420979 0.1571894
-0.0072425138 0.021783477 0.15963274
-0.0070625148 0.019113053 0.16036117
-0.0073437775 0.016674401 0.16341665
-0.007778964 0.014413631 0.1679568
-0.0072016036 0.010801377 0.17192285
-0.0080226706 0.0086593144 0.1750548
-0.0081822816 0.0060948194 0.17660692
-0.0082446886 0.0033367928 0.17735887
-0.0087443283 0.0013018026 0.17925523
-0.0043493109 0.035223369 0.14701265
-0.0043797335 0.03302633 0.14881548
-0.0043624593 0.030612798 0.15068768
-0.004169656 0.028235801 0.15257066
-0.0042649074 0.026401207 0.15515925
-0.00456909 0.024676915 0.15984629
-0.0045792605 0.022086907 0.1609304
-0.004673149 0.01942903 0.16208141
-0.0048408974 0.016975496 0.16493009
-0.0049671838 0.014493234 0.16945332
-0.0045469655 0.011429197 0.17329468
-0.0048183757 0.0090584392 0.17613459
-0.0051841121 0.0063818949 0.17728071
-0.0053133774 0.0036364833 0.17790006
-0.0048460453 0.00011214321 0.18107681
-0.0018413676 0.035198957 0.14736632
-0.0018896738 0.032776378 0.14859486
-0.0015267738 0.029594857 0.14963286
-0.0015556683 0.027700722 0.15191883
-0.0015130455 0.026060432 0.15464993
-0.0017840645 0.024681168 0.15951554
-0.0018954887 0.022192236 0.16117583
-0.00193017 0.019726885 0.16349819
-0.0018505449 0.017254315 0.16596232
-0.0018962653 0.014731101 0.17112516
-0.0017730354 0.012010357 0.17423032
-0.0019021318 0.0095199673 0.17688029
-0.0021693602 0.0065240287 0.17810939
-0.0020073676 0.0034256754 0.17813534
-0.0013881883 4.6514604e-05 0.18201147
0.00087530498 0.034320295 0.14770781
0.0012849987 0.032208018 0.14904046
0.0013394837 0.029659456 0.15054727
0.0012581685 0.027891766 0.15291584
0.0010436871 0.026176533 0.15615402
0.00090720528 0.024369555 0.15911423
0.00088726089 0.022191023 0.16161744
0.00077387993 0.019834118 0.16414845
0.00082067802 0.017396985 0.16655721
0.0010129494 0.014876436 0.17107847
0.0010527204 0.012218275 0.17441174
0.001248994 0.0095560672 0.17633426
0.0010042067 0.0065130848 0.1773468
0.0010801419 0.0034696013 0.17852306
0.0013002332 0.00027967844 0.18058798
0.0033850791 0.034987751 0.14840765
0.0034546645 0.032792166 0.15007484
0.0037448588 0.030470081 0.15157536
0.0038348273 0.028172901 0.15388671
0.0037900987 0.026154963 0.15624221
0.0036395877 0.024315912 0.15870591
0.0036243945 0.022012036 0.16062944
0.0035952411 0.019767934 0.16414756
0.0035839917 0.017294019 0.16696675
0.0037474164 0.014987983 0.17052928
0.0039478778 0.012071514 0.17376131
0.0038594976 0.0093201911 0.17475298
0.0039270031 0.0064651803 0.1752461
0.0039826599 0.003412399 0.17787871
0.0040197885 0.00041002073 0.17876041
0.0059147943 0.035374593 0.14816169
0.0060135527 0.033275262 0.15010871
0.0062155314 0.031112986 0.15195756
0.0063201413 0.028877681 0.15483811
0.0062518949 0.026709368 0.15752479
0.0062524066 0.024535941 0.15973313
0.006300244 0.022210849 0.16149919
0.0063398182 0.019923251 0.16354881
0.0063962159 0.017225994 0.16652241
0.0066499347 0.014862589 0.17061073
0.0066173896 0.011934429 0.17222071
0.0066574439 0.0092284326 0.17367406
0.0067506763 0.0064939978 0.17592496
0.0069622807 0.0032329061 0.17803773
0.0069739618 0.00017909257 0.17970821
0.0081823533 0.03592502 0.14917178
0.0082819788 0.033875592 0.15132169
0.0087846918 0.03156656 0.1519233
0.0089519797 0.029362595 0.15657471
0.0086205089 0.027272774 0.15927169
0.0087214205 0.02493068 0.16061218
0.0088068796 0.022619484 0.1627333
0.009361011 0.019669069 0.1654633
0.0092982072 0.017165504 0.16734833
0.0094079664 0.014613726 0.17024148
0.0093676765 0.011716627 0.17088665
0.0093717426 0.0091513237 0.17260757
0.0095340628 0.0063717281 0.17636463
0.010507162 0.0024058789 0.17922871
0.010554921 -0.00056138029 0.18094891
0.010629352 0.036265865 0.14910796
0.010899743 0.034118731 0.15057319
0.01104024 0.031964965 0.15288715
0.011352696 0.029861821 0.15770684
0.011285231 0.02751643 0.15983713
0.011550219 0.025078772 0.16055308
0.011291237 0.022656668 0.16307393
0.011984613 0.019649506 0.16569832
0.012019344 0.017095497 0.16737393
0.011927658 0.014462884 0.16861205
0.01199279 0.011538399 0.16946989
0.012061344 0.0090194792 0.17202163
0.012536283 0.0059564365 0.17658107
0.013713407 0.0021935797 0.17822154
0.013205057 0.03652836 0.14855042
0.01345182 0.034351498 0.15025689
0.013417824 0.032277353 0.15428777
0.013931968 0.029857839 0.15881503
0.014000456 0.027474698 0.16029131
0.014158037 0.025082434 0.16095033
0.014082117 0.022463117 0.16402838
0.014563893 0.019523578 0.1653963
0.014669534 0.016996637 0.16689485
0.014561188 0.014320337 0.16817114
0.01466943 0.011365987 0.16889811
0.014655635 0.0087813009 0.17188118
0.015189176 0.0056177941 0.17483614
0.01557754 0.0026204719 0.17535268
0.016088476 -0.00055959832 0.17685202
0.015564319 0.03643892 0.14730746
0.015718084 0.03427583 0.15010945
0.01580913 0.032217138 0.15530023
0.01620923 0.027745791 0.16023971
0 0 0 1 0 0 0 1 0 0 0 1 0 0 0 0 0 240 1 0 0
