ply
format ascii 1.0
comment PCL generated
element vertex 240
property float x
property float y
property float z
element camera 1
property float view_px
property float view_py
property float view_pz
property float x_axisx
property float x_axisy
property float x_axisz
property float y_axisx
property float y_axisy
property float y_axisz
property float z_axisx
property float z_axisy
property float z_axisz
property float focal
property float scalex
property float scaley
property float centerx
property float centery
property int viewportx
property int viewporty
property float k1
property float k2
end_header
-0.025060652 0.034824878 0.14637613
-0.025022209 0.032483801 0.14647414
-0.025076358 0.030283192 0.14822437
-0.02526344 0.0278643 0.14956747
-0.02546666 0.025548516 0.15186803
-0.026151331 0.023310516 0.15604885
-0.027814418 0.020681111 0.16154501
-0.02802613 0.018193183 0.16357449
-0.028034618 0.015525978 0.16452599
-0.027987393 0.01256381 0.16497086
-0.028023465 0.0096151084 0.16541921
-0.028190572 0.0065960661 0.16689266
-0.028073611 0.0038680648 0.16688658
-0.022648266 0.034817412 0.14592105
-0.022523683 0.032508615 0.14688978
-0.022470236 0.030302666 0.14824337
-0.022713225 0.027995069 0.14972621
-0.022721043 0.025613934 0.15127769
-0.023341993 0.023262052 0.15449616
-0.023972897 0.020555936 0.15883107
-0.024349835 0.018174728 0.16110559
-0.0246023 0.015754234 0.16345367
-0.024861643 0.01289553 0.16404673
-0.024877766 0.0099989129 0.16456181
-0.025226535 0.0067899716 0.16645031
-0.025302649 0.0040056356 0.16827114
-0.024605786 0.00064259005 0.16983105
-0.019962996 0.035016987 0.14614616
-0.019898105 0.032903288 0.14803357
-0.01998743 0.03057573 0.14880911
-0.020026138 0.028144041 0.1501589
-0.020284584 0.025762789 0.15147589
-0.020759316 0.023429699 0.15524535
-0.021265481 0.020788558 0.15902041
-0.021478955 0.018251706 0.16062386
-0.021592451 0.01586818 0.1627339
-0.02208519 0.013180955 0.16432731
-0.022216499 0.0099193202 0.16637973
-0.021979727 0.0065174946 0.16749762
-0.022055894 0.0032637673 0.16932583
-0.021868816 0.00047236335 0.17042397
-0.021600358 -0.0024260061 0.17129701
-0.017017461 0.03522972 0.14749067
-0.017353237 0.032989413 0.14863761
-0.01736128 0.030561117 0.14884585
-0.017589984 0.028500108 0.15094344
-0.01772273 0.026125984 0.15183443
-0.018040577 0.023607085 0.1549857
-0.018554335 0.021018945 0.15933555
-0.018647611 0.018355861 0.16024536
-0.01888394 0.015941704 0.16287906
-0.019016808 0.012866859 0.16509777
-0.019513523 0.0095628323 0.1676639
-0.019444147 0.0066873739 0.16857429
-0.019510968 0.0038921894 0.17077637
-0.019523816 0.0011945512 0.1719459
-0.019446472 -0.0018702146 0.17331281
-0.014344417 0.035422556 0.14771242
-0.014694386 0.033051111 0.14874122
-0.014699348 0.030798517 0.14877416
-0.015101255 0.028574139 0.15122655
-0.01523635 0.026134802 0.15286292
-0.015423099 0.023620035 0.15521367
-0.015683739 0.021092122 0.15972431
-0.015822461 0.018312532 0.16002905
-0.015970357 0.01597189 0.1623496
-0.01615339 0.013206351 0.16546041
-0.016458753 0.0099803014 0.16738459
-0.016825717 0.0071397549 0.17008553
-0.01715239 0.0045203199 0.17282343
-0.017189773 0.0015233408 0.17373881
-0.016514467 -0.0015350123 0.17373918
-0.01193976 0.035397377 0.14768027
-0.012129485 0.033113472 0.14882627
-0.012229744 0.030678554 0.14995092
-0.012446703 0.028281096 0.15163738
-0.012629882 0.025989959 0.15319866
-0.012805775 0.023525724 0.15498492
-0.012959816 0.020953605 0.15852426
-0.013058053 0.018210089 0.15969424
-0.012989278 0.015776273 0.16173756
-0.013247824 0.013303788 0.1657553
-0.013879299 0.0097354138 0.16908754
-0.014545378 0.0071751075 0.17157687
-0.014635776 0.0047846409 0.17403065
-0.014612162 0.0019200691 0.17389336
-0.01335938 -0.0015565892 0.1733904
-0.0093929721 0.035393972 0.14738531
-0.0095268609 0.0332819 0.14873149
-0.0096987821 0.030656749 0.15097021
-0.0098533584 0.027989134 0.151807
-0.0097207678 0.025660004 0.15329665
-0.0098772049 0.023206832 0.15533547
-0.0097367661 0.020624463 0.15737863
-0.010169356 0.018021822 0.15801023
-0.010085826 0.015692117 0.16131519
-0.010332841 0.01361425 0.16572776
-0.011067786 0.0094909798 0.17013563
-0.011714206 0.0073746131 0.17294742
-0.011689625 0.0047493456 0.1740281
-0.01141273 0.0021404403 0.17424543
-0.010963274 -0.0010102481 0.17420627
-0.0069519696 0.035527091 0.14749874
-0.007085376 0.033246979 0.14903319
-0.0071699908 0.030650686 0.15140447
-0.0069382093 0.028171627 0.15177622
-0.0068363664 0.025808042 0.15293562
-0.0068667904 0.023311002 0.15563978
-0.0068006073 0.020417467 0.15735739
-0.0066779442 0.017891468 0.15795884
-0.0071815713 0.015635444 0.16154127
-0.0076183081 0.013586164 0.1661837
-0.0078260507 0.0099046351 0.17080827
-0.0089596463 0.0074589127 0.17376742
-0.0088956729 0.004818412 0.17518994
-0.00873267 0.0021952486 0.17573266
-0.0091419797 0.00020106154 0.17721404
-0.0044028023 0.035427257 0.14776121
-0.0044680624 0.033186819 0.1494363
-0.0045430702 0.030640773 0.15127851
-0.0041821352 0.028307481 0.15289786
-0.0041542752 0.025850922 0.15463731
-0.004197604 0.023190495 0.1578555
-0.0040831431 0.020589158 0.15841112
-0.0042756656 0.018005358 0.15963361
-0.0045511723 0.015712313 0.16296144
-0.0048466991 0.013550997 0.16773497
-0.0051291776 0.010679784 0.17161481
-0.0056915549 0.0080032451 0.17459877
-0.0060330089 0.0050471001 0.17541631
-0.0059222537 0.002426069 0.17568985
-0.0053305007 -0.0011105649 0.1791999
-0.001923754 0.035447601 0.14822577
-0.0019653174 0.032984272 0.14929914
-0.0015721529 0.030669339 0.15073854
-0.0014875866 0.028221544 0.15240291
-0.0013337864 0.025907077 0.15445344
-0.0014918564 0.023123195 0.15786725
-0.0014230813 0.020590466 0.15882729
-0.0015533667 0.018173385 0.16123366
-0.0015819516 0.015678316 0.16412854
-0.0019280761 0.013926572 0.16974455
-0.0023760905 0.011225975 0.17258176
-0.0027249337 0.0085950168 0.17504674
-0.0031957633 0.005554541 0.17594993
-0.0028430498 0.0025191447 0.17611778
-0.0020063496 -0.0010431356 0.18060446
-1.1607922e-05 0.034316797 0.14856821
0.00023183275 0.032341994 0.14983906
0.00037974163 0.029947663 0.15153019
0.0012132301 0.028296567 0.15342607
0.0012334102 0.025624506 0.1557
0.001265896 0.023129683 0.15774897
0.0012147553 0.020606022 0.15976389
0.0011071154 0.018320153 0.16222736
0.0011240229 0.015883453 0.16463539
0.0010147999 0.014132162 0.17002398
0.00053030212 0.011524643 0.17307247
0.000446491 0.0087042917 0.17488515
0.0001795867 0.0057581509 0.17564869
0.00025615102 0.0027095205 0.17732631
0.00048768267 -0.00038192485 0.17957106
0.0024839798 0.034784157 0.14854437
0.0026086327 0.032540366 0.15020157
0.0029548164 0.03022108 0.15185018
0.0036704973 0.02819588 0.15406841
0.003938566 0.025747363 0.155751
0.0040104943 0.023301795 0.15752597
0.004067176 0.020869415 0.15914258
0.0039489982 0.018415576 0.16248599
0.0038094639 0.016054265 0.16555594
0.0038568799 0.014437978 0.17004269
0.0036285035 0.011660012 0.17312241
0.0033522439 0.008881391 0.17389631
0.0035197048 0.0060358625 0.17434554
0.0031600529 0.0030050199 0.17720233
0.0032545088 1.3616242e-05 0.17838444
0.0049023153 0.034734476 0.14775273
0.0051767952 0.032661144 0.14964256
0.0054512909 0.030506335 0.15138838
0.0061693904 0.028200673 0.15427779
0.0063744374 0.025848569 0.15675119
0.0064630061 0.0236293 0.15879144
0.0065813665 0.021303527 0.16042307
0.0066028624 0.018767275 0.16233993
0.0067860303 0.016341008 0.16607746
0.006708811 0.014626458 0.17071737
0.0065387846 0.011865408 0.17229114
0.0063190376 0.0092183677 0.17365763
0.0060930136 0.006417437 0.17579466
0.0060961857 0.0029360577 0.17772466
0.0059200055 -9.1509057e-05 0.17921942
0.0072678663 0.034895953 0.14800815
0.0076223356 0.03284568 0.150195
0.007997931 0.030571165 0.1507497
0.0089553194 0.028566429 0.15561311
0.0086502414 0.026418423 0.15855385
0.0087590367 0.024095623 0.15978234
0.008885622 0.021703266 0.16169615
0.0098008597 0.018724049 0.16477655
0.0096114175 0.016513256 0.16699772
0.0094616255 0.014396455 0.1704085
0.0094018448 0.011714687 0.17138545
0.0091932463 0.009380619 0.17306779
0.0088432748 0.0064124591 0.17635822
0.0091226418 0.0014009004 0.17809376
0.0090264082 -0.0016427882 0.17947026
0.0096773049 0.034929149 0.14744303
0.0099681169 0.032748543 0.14879723
0.010304311 0.030602368 0.15095387
0.011399189 0.028821751 0.15654187
0.011238222 0.026760224 0.15890408
0.011560787 0.024466082 0.15984894
0.011374606 0.021941317 0.16202013
0.012260128 0.018862477 0.16529721
0.012217704 0.016610133 0.16742693
0.012177286 0.014272438 0.16905938
0.012243724 0.011634297 0.17047192
0.011836807 0.0092212278 0.17257251
0.011601967 0.0055516753 0.17628902
0.012181268 0.00086945243 0.17640166
0.012047624 0.034913279 0.14633115
0.012381842 0.03267841 0.14781836
0.012944357 0.030768702 0.15212074
0.01389088 0.029109409 0.15768336
0.014057195 0.026978523 0.15931092
0.014207071 0.024847599 0.16027489
0.013978401 0.022140378 0.16349515
0.014716985 0.018997855 0.16515158
0.014802745 0.016722135 0.16719066
0.014718468 0.014305479 0.16892032
0.015003165 0.01162915 0.17031994
0.014328595 0.0090048099 0.17268759
0.014280253 0.0055054822 0.1747334
0.013919627 0.0016801257 0.17366371
0.014139769 -0.0017401878 0.17450157
0.014068891 0.034660071 0.14528619
0.014626256 0.032392386 0.14734676
0.015626445 0.03103275 0.15379234
0.016232638 0.027363956 0.15935203
0 0 0 1 0 0 0 1 0 0 0 1 0 0 0 0 0 240 1 0 0
