ply
format ascii 1.0
comment PCL generated
element vertex 240
property float x
property float y
property float z
element camera 1
property float view_px
property float view_py
property float view_pz
property float x_axisx
property float x_axisy
property float x_axisz
property float y_axisx
property float y_axisy
property float y_axisz
property float z_axisx
property float z_axisy
property float z_axisz
property float focal
property float scalex
property float scaley
property float centerx
property float centery
property int viewportx
property int viewporty
property float k1
property float k2
end_header
-0.025086125 0.034750164 0.14620842
-0.02511712 0.032394253 0.14642175
-0.025154432 0.030258203 0.14817886
-0.025356697 0.02789128 0.14958335
-0.025547173 0.025614636 0.15190497
-0.02630862 0.023309216 0.15594792
-0.028123053 0.020487377 0.16128339
-0.028358681 0.017976021 0.16327205
-0.028340641 0.015320303 0.16424958
-0.028228169 0.012423998 0.16477096
-0.028202897 0.0095058363 0.16530988
-0.028305382 0.0064929929 0.16679963
-0.028128505 0.0037609227 0.16684067
-0.022717247 0.034625541 0.14566359
-0.022606853 0.032367315 0.14674442
-0.022550005 0.030220894 0.14816019
-0.022807339 0.028004821 0.14977065
-0.022820331 0.025725173 0.15144593
-0.023449009 0.023284884 0.15446991
-0.024177417 0.020542864 0.15875657
-0.024579477 0.018031055 0.16088045
-0.024874257 0.015573844 0.16318829
-0.025084663 0.012794542 0.16386694
-0.025073603 0.0099757398 0.16456127
-0.02535639 0.0067391857 0.16637902
-0.02534649 0.0039117411 0.16812016
-0.024396757 0.00044235634 0.16933513
-0.019995848 0.034692116 0.14569266
-0.019900065 0.032716241 0.1477323
-0.020039439 0.030441053 0.14868322
-0.020106899 0.028119057 0.15018912
-0.020383744 0.025833135 0.15165287
-0.020895865 0.023495769 0.15533657
-0.021490721 0.020827157 0.15906116
-0.021691727 0.018177528 0.16049162
-0.021839691 0.015726464 0.16252817
-0.022344515 0.013113451 0.16418229
-0.022414863 0.0099769607 0.16645516
-0.022070758 0.0065897414 0.16755635
-0.02188452 0.0031208766 0.16896313
-0.021538738 0.00030535602 0.16992556
-0.021243794 -0.0025722568 0.17082518
-0.016923342 0.034767583 0.14668092
-0.017295819 0.032709241 0.14807428
-0.017404472 0.030321043 0.14856717
-0.017666539 0.028425872 0.15081754
-0.017803008 0.026075594 0.15190475
-0.018172771 0.023664514 0.15513241
-0.018823905 0.021163693 0.1595668
-0.018888649 0.018449744 0.16042049
-0.019173499 0.015903633 0.16288784
-0.019211115 0.012914626 0.16519767
-0.019618567 0.0096347164 0.16780487
-0.019473603 0.0067262924 0.16862451
-0.019367537 0.003792674 0.17052436
-0.019259715 0.0010143997 0.17148626
-0.019136041 -0.0020062537 0.17289388
-0.014209049 0.034855552 0.14673902
-0.014628422 0.03263152 0.14804797
-0.014677423 0.030435858 0.14833997
-0.015125857 0.028400267 0.1510938
-0.015311319 0.02605973 0.15291065
-0.01553355 0.023655213 0.15539528
-0.015983563 0.021307513 0.16007562
-0.016084634 0.018499479 0.16044466
-0.016291043 0.016144473 0.16274804
-0.01647589 0.013384684 0.16583918
-0.016497815 0.0099837193 0.16744204
-0.016782155 0.0070975707 0.17004357
-0.017005829 0.0043669855 0.17255382
-0.01693771 0.0013769569 0.173389
-0.016206063 -0.001619114 0.173336
-0.011787136 0.034792557 0.1467467
-0.012046235 0.032645658 0.14812374
-0.012217147 0.030347206 0.14958973
-0.012496557 0.028089531 0.15156774
-0.012697225 0.025903948 0.15329051
-0.012901836 0.023571296 0.15529737
-0.013225399 0.021218304 0.15905789
-0.013301822 0.018496173 0.16034491
-0.013270747 0.016134124 0.1625064
-0.013668671 0.013640975 0.16637906
-0.013740488 0.0096882647 0.16909392
-0.014401512 0.0070644482 0.17149857
-0.014591343 0.0047226045 0.17393224
-0.014473547 0.0018608756 0.17385121
-0.012962006 -0.0014423538 0.17301488
-0.0092303213 0.034697283 0.14649849
-0.0094293859 0.0327648 0.14808421
-0.0096731167 0.030371906 0.15065318
-0.009870843 0.027778078 0.15178919
-0.0098033212 0.02562771 0.15360557
-0.010023202 0.023380909 0.15603566
-0.0099700494 0.021085139 0.15850545
-0.010278316 0.018480534 0.15907577
-0.010337614 0.016333615 0.16254251
-0.010817601 0.014308219 0.16691194
-0.010945231 0.0097365975 0.17075707
-0.011795648 0.0074616903 0.17341164
-0.011682905 0.0048078182 0.17435712
-0.011268744 0.0022250377 0.17436035
-0.010641897 -0.0008581393 0.17401248
-0.0067784307 0.03476917 0.14658444
-0.0069921804 0.032683942 0.14840211
-0.0071403314 0.030316068 0.15105386
-0.0069476315 0.027775686 0.15170746
-0.0069035143 0.025628882 0.15335108
-0.0071143135 0.023722194 0.15685421
-0.0071523008 0.021228502 0.15921427
-0.0070186928 0.018869804 0.16000259
-0.0074930456 0.0165901 0.16324766
-0.0080024768 0.014506816 0.16776046
-0.0078851832 0.010549264 0.17260529
-0.0091644432 0.0077035958 0.17504549
-0.0091099665 0.0049193953 0.17613792
-0.0087712491 0.0022420846 0.17622375
-0.0091284979 6.2764622e-05 0.17726801
-0.0041637882 0.034681879 0.14693363
-0.0043655662 0.032611035 0.14884605
-0.0045040441 0.030127339 0.15086704
-0.0042370302 0.028061759 0.15289909
-0.0043031396 0.026048716 0.15519807
-0.004524962 0.024002355 0.15927117
-0.0044633104 0.021584108 0.16027473
-0.0046422631 0.019077202 0.16155602
-0.0048948042 0.016781073 0.16474731
-0.00514636 0.014318203 0.16928716
-0.0053314324 0.011328571 0.17352201
-0.0058735353 0.0082812337 0.17646749
-0.0062827468 0.0051662489 0.17688037
-0.0060463548 0.0025782187 0.17669342
-0.0050395415 -0.0015981706 0.17879358
-0.0017206866 0.034770947 0.14748594
-0.0018322858 0.03242065 0.14883444
-0.0014185606 0.030050891 0.1504858
-0.0014530645 0.027919844 0.15265809
-0.0014643371 0.026136961 0.1551778
-0.0018279336 0.024073111 0.15934068
-0.0018148699 0.021703366 0.16070861
-0.001931509 0.019294165 0.16303827
-0.0019537094 0.016831424 0.16592789
-0.0021210189 0.01415056 0.17085034
-0.0024041969 0.011452368 0.17377526
-0.0025111262 0.0086026303 0.17599143
-0.0031003687 0.0055761635 0.17711949
-0.0027021575 0.002408444 0.17675544
-0.0015360651 -0.0018066048 0.17999744
0.0005427826 0.034037195 0.14820388
0.00087635906 0.032230712 0.14958608
0.00083184923 0.029884787 0.15151051
0.0012289239 0.028474521 0.15392883
0.001083124 0.026179813 0.15662116
0.00095752429 0.024005283 0.15911868
0.00086252246 0.021837287 0.16153519
0.00075077679 0.019520279 0.16400059
0.00080574449 0.017026791 0.16635209
0.00081475818 0.014098879 0.17060116
0.00055990252 0.011326719 0.17342415
0.00059288129 0.0084169442 0.17506237
0.00035006515 0.0054828376 0.1758716
0.00064514508 0.0022958214 0.17719319
0.00095775601 -0.00097196741 0.17906772
0.003083095 0.034771375 0.14848378
0.0031646444 0.032621626 0.15026084
0.0034181136 0.030409634 0.1520772
0.0037576968 0.028478801 0.1546575
0.0038768507 0.026258539 0.15668111
0.0037770988 0.024129486 0.15888001
0.0037235895 0.021858472 0.16066979
0.0036137679 0.019637929 0.16421427
0.0035064325 0.017070789 0.16695617
0.0036875829 0.014167886 0.1700483
0.0036304265 0.011133284 0.17269097
0.003388399 0.0084699625 0.17361629
0.0035084714 0.0056416919 0.17404334
0.0035527761 0.0026499219 0.17700835
0.0038042199 -0.00036711345 0.17808214
0.0056278645 0.034947272 0.14809413
0.0057784496 0.032939319 0.15006681
0.0059248079 0.030853232 0.15194494
0.0063623469 0.028438 0.15496463
0.006331536 0.026417069 0.15773036
0.0062330347 0.024397552 0.16003029
0.0063264943 0.022185626 0.16175331
0.0063100033 0.019833876 0.16383633
0.0066078501 0.016924888 0.16677123
0.006636688 0.014298889 0.17050342
0.0065582739 0.011367988 0.17172395
0.0064331121 0.0087451804 0.17316766
0.0063090529 0.0060172305 0.17539515
0.0065239435 0.0027386518 0.17766142
0.0065074302 -0.00024505594 0.17920445
0.007936121 0.035373982 0.14873952
0.0081062606 0.033372011 0.15097149
0.0085607283 0.031135429 0.15166456
0.0090926522 0.028920365 0.15653956
0.0085047605 0.027145596 0.15968122
0.0084957471 0.024905473 0.16108598
0.0085904505 0.022527944 0.1629831
0.0095777176 0.019491009 0.16584657
0.0094662681 0.016902385 0.16758001
0.0094184298 0.014199792 0.17029813
0.009497581 0.011391273 0.17104124
0.0093456395 0.0090464419 0.17267297
0.0090309167 0.0062328498 0.17608203
0.0097530941 0.0018298209 0.17884757
0.0098329103 -0.001142856 0.1803311
0.010384599 0.035657495 0.14858499
0.010648185 0.033524822 0.15002061
0.01085442 0.03141617 0.1522658
0.011467868 0.029269684 0.15769331
0.011040407 0.02744177 0.16023616
0.011288159 0.025161603 0.16126826
0.010976128 0.022655081 0.16343032
0.012045665 0.019523945 0.16625199
0.01206377 0.016922614 0.16796434
0.012095499 0.014349048 0.16900639
0.012264565 0.011505816 0.16998945
0.012042555 0.009147088 0.17238528
0.011845224 0.0058637112 0.17660575
0.013128642 0.0018138174 0.17792051
0.012873614 0.035859067 0.14785764
0.013196229 0.033714864 0.14946993
0.013330479 0.031683262 0.15380314
0.01383582 0.029768743 0.15928124
0.013850034 0.027668947 0.16090764
0.013950307 0.02547648 0.16174859
0.013669035 0.02264099 0.16475862
0.014475933 0.019598134 0.1659361
0.01461296 0.01703066 0.16753303
0.014616613 0.014410197 0.16880041
0.014994665 0.011567579 0.16969593
0.01452922 0.0090438435 0.17255042
0.014633343 0.0060240845 0.17532338
0.015119052 0.0026144751 0.17537841
0.015722124 -0.00048120288 0.17658865
0.015054549 0.035819445 0.1471695
0.015485811 0.033717733 0.14938524
0.015827801 0.031739704 0.15560773
0.016021192 0.028044676 0.16109556
0 0 0 1 0 0 0 1 0 0 0 1 0 0 0 0 0 240 1 0 0
