ply
format ascii 1.0
comment PCL generated
element vertex 240
property float x
property float y
property float z
element camera 1
property float view_px
property float view_py
property float view_pz
property float x_axisx
property float x_axisy
property float x_axisz
property float y_axisx
property float y_axisy
property float y_axisz
property float z_axisx
property float z_axisy
property float z_axisz
property float focal
property float scalex
property float scaley
property float centerx
property float centery
property int viewportx
property int viewporty
property float k1
property float k2
end_header
-0.02513002 0.034343023 0.14518435
-0.024995586 0.031940233 0.14534375
-0.02505962 0.029726075 0.14700639
-0.025265051 0.027391257 0.14840856
-0.025557039 0.025261382 0.15142627
-0.026402431 0.022291243 0.1551318
-0.028639827 0.018780187 0.15959761
-0.028937262 0.01604696 0.16117008
-0.028860666 0.013277875 0.16182198
-0.0286106 0.010449415 0.16214864
-0.028679298 0.0075615686 0.16304511
-0.028848935 0.0046635638 0.16475049
-0.028709495 0.0019831909 0.16499962
-0.022716941 0.034354847 0.14495255
-0.022557694 0.031994376 0.14595559
-0.022451378 0.029805111 0.14717022
-0.022750314 0.027615698 0.14889544
-0.022795184 0.025383649 0.1509309
-0.023473188 0.022571774 0.15358526
-0.024273237 0.019118106 0.15732107
-0.024825206 0.016440129 0.15901914
-0.025192723 0.013605373 0.1608554
-0.025414711 0.010858362 0.16122711
-0.025458133 0.0080977809 0.16244277
-0.025929118 0.0049811737 0.1643369
-0.025925251 0.0020846997 0.16610785
-0.024957467 -0.0011080201 0.16716322
-0.019984089 0.034561738 0.14529057
-0.019902183 0.032448404 0.14715773
-0.019985389 0.03015695 0.1479985
-0.020130761 0.027824184 0.14966315
-0.020332767 0.025424102 0.15119185
-0.020937115 0.022630239 0.1545625
-0.021610389 0.019348089 0.15753594
-0.021837261 0.016550954 0.1586462
-0.022093453 0.013843966 0.16015868
-0.022692574 0.011082054 0.16149829
-0.022872038 0.008154544 0.16447872
-0.022739876 0.0050345697 0.16574836
-0.022713246 0.0017524353 0.16717802
-0.022149194 -0.0012125362 0.16760072
-0.021617761 -0.0042273374 0.1681698
-0.01696405 0.034774095 0.1465936
-0.017344754 0.032606546 0.14782882
-0.017388539 0.030192429 0.14826663
-0.017773159 0.028220857 0.15052544
-0.017829053 0.025596419 0.15142511
-0.018250892 0.022919128 0.15443744
-0.019092346 0.019751729 0.15852714
-0.01904708 0.016981749 0.15908159
-0.019486642 0.014207426 0.16112787
-0.019769322 0.011002247 0.1634495
-0.020391675 0.0080254097 0.16587809
-0.020130472 0.0052846265 0.16670707
-0.0201043 0.0023313533 0.1685435
-0.019764686 -0.00056984008 0.16889277
-0.019496981 -0.0036035825 0.17009765
-0.014290472 0.035000451 0.14707939
-0.014725904 0.032721382 0.14803642
-0.014689766 0.030498421 0.1482916
-0.015200547 0.028115088 0.15096475
-0.015370728 0.025512407 0.15245196
-0.015601558 0.022941427 0.15505777
-0.01650296 0.020316159 0.15987967
-0.016386963 0.017437633 0.16000417
-0.016674949 0.014884989 0.16196617
-0.017186996 0.011867066 0.16494516
-0.017408457 0.0087511512 0.16608493
-0.017545044 0.0056844396 0.16827168
-0.017477766 0.0028142596 0.16978744
-0.017313397 -0.00025520095 0.17055012
-0.01657439 -0.003089444 0.17083628
-0.011932055 0.035069857 0.1473494
-0.012161586 0.032879442 0.14840227
-0.012354817 0.030418774 0.14978597
-0.012588956 0.02788453 0.15148093
-0.012787583 0.025370924 0.15299855
-0.012955207 0.022939602 0.1552064
-0.01358332 0.020765999 0.15947913
-0.013628262 0.01769143 0.16037703
-0.013697144 0.014954691 0.16218971
-0.014475699 0.012056735 0.16568783
-0.014990957 0.0086706392 0.16746004
-0.015383842 0.005669842 0.16913986
-0.015006509 0.0030317567 0.17074932
-0.014958028 0.00016289664 0.17055961
-0.013646779 -0.0029781151 0.17016691
-0.0093441252 0.035094224 0.14719114
-0.0095771393 0.033024017 0.14862087
-0.0098937042 0.030359944 0.1509241
-0.010119071 0.027768906 0.15204808
-0.010012951 0.025366332 0.15379693
-0.010146261 0.022978006 0.15637246
-0.0101199 0.020733349 0.15907224
-0.010540521 0.017761966 0.15921286
-0.0105119 0.015008559 0.16223939
-0.011127261 0.012516375 0.16634086
-0.012376577 0.0085817007 0.16795699
-0.012504344 0.0058743418 0.170067
-0.012266088 0.0031893738 0.17056094
-0.011912656 0.00063660339 0.17066288
-0.011272419 -0.0024117592 0.17037465
-0.0069094519 0.035114918 0.1472369
-0.0071641598 0.032897439 0.14898014
-0.0073859943 0.030310601 0.1514511
-0.0072644511 0.027729623 0.15217128
-0.0072218818 0.025423452 0.15355647
-0.0073124617 0.023136804 0.15731111
-0.0072222892 0.020408096 0.15938674
-0.0070713889 0.017968869 0.15993972
-0.0073054628 0.015172855 0.16262391
-0.0074537396 0.012411914 0.16658622
-0.0084458971 0.0087490845 0.16836384
-0.009700371 0.0058984244 0.17074545
-0.0095048798 0.0032404871 0.17143512
-0.0090303803 0.00073177967 0.17138524
-0.0090483669 -0.001363046 0.17254314
-0.0042710858 0.034949072 0.14741549
-0.0045466265 0.032676134 0.149381
-0.0047810022 0.030034455 0.15135711
-0.0045728344 0.027795114 0.15322529
-0.0045641675 0.025528891 0.15513836
-0.004550504 0.023120301 0.1593297
-0.0045504337 0.020663572 0.16014536
-0.0046082335 0.018054036 0.16119517
-0.0045685018 0.015225607 0.16389164
-0.0047075721 0.012393665 0.16746706
-0.0052064117 0.0087874578 0.16907857
-0.0061182571 0.0062303958 0.17150918
-0.0066942079 0.0033396692 0.1717089
-0.0064267865 0.00094654888 0.17121971
-0.0054876087 -0.0028471306 0.17546405
-0.0018322127 0.034969117 0.14798285
-0.0020045894 0.032503817 0.14915892
-0.0018178426 0.029815864 0.15069732
-0.0017964045 0.027513931 0.15274808
-0.0017122331 0.025543787 0.15508503
-0.0019429951 0.023132212 0.15928327
-0.0018070875 0.020750113 0.16040896
-0.001820287 0.018148093 0.16238265
-0.0016369661 0.015345114 0.16480115
-0.0017979438 0.012180076 0.16848168
-0.0024061059 0.0093206475 0.17000918
-0.00277442 0.0066446201 0.17224614
-0.0035278285 0.0039647338 0.17317165
-0.0029248714 0.00098635268 0.17370418
-0.0023216878 -0.0027217011 0.17796023
0.00050492823 0.034200374 0.14812179
0.00084611744 0.032278169 0.14931788
0.00063679641 0.029775172 0.15135123
0.00094804808 0.027938325 0.15374823
0.00089254638 0.025441593 0.15627997
0.00077910972 0.023108551 0.1586681
0.00085374602 0.020921718 0.16091172
0.00088781537 0.018334609 0.16303691
0.0010725154 0.015600143 0.16505325
0.0011524064 0.012397125 0.16854662
0.00057606841 0.0096575832 0.17056236
0.00040301515 0.0069886567 0.17241766
0.00012312057 0.0043302928 0.17364378
0.00027895617 0.0014542277 0.17566667
0.0003105569 -0.0016872715 0.17774349
0.0029994827 0.034885716 0.148314
0.0031635431 0.032647062 0.14998421
0.0033719044 0.030364882 0.15172698
0.003551438 0.028019238 0.15443985
0.0036867552 0.025708413 0.15628292
0.0036304111 0.023400607 0.15818545
0.0035961713 0.021099173 0.15986736
0.0037500933 0.018533263 0.16314343
0.0037577343 0.015698612 0.16540134
0.0039935899 0.012847776 0.16850416
0.0037858002 0.0098657086 0.1707004
0.0034585365 0.0072723655 0.17175283
0.0037017809 0.0046595591 0.1730056
0.0030993661 0.002049187 0.17601848
0.0033372473 -0.00088852289 0.17747352
0.0056356601 0.035142891 0.14794582
0.0057832613 0.033046305 0.14977989
0.0058741248 0.030840198 0.1515975
0.0059761135 0.028032186 0.15468158
0.0060255774 0.025854671 0.15722609
0.0060889493 0.023650939 0.15918636
0.0062525701 0.021388734 0.16086574
0.006365689 0.019005734 0.16269723
0.0069074607 0.015778912 0.16535401
0.0067575867 0.013389323 0.16929729
0.0066489694 0.01046122 0.17038891
0.0064385994 0.0079175625 0.17211923
0.006010558 0.0054813996 0.17459461
0.0059713139 0.0023271146 0.17714892
0.0058508548 -0.00048870762 0.17896524
0.0079304921 0.03556418 0.148615
0.0080973366 0.033472057 0.15068312
0.00851666 0.031168062 0.15140525
0.0087231202 0.028548587 0.15622169
0.0084005678 0.026395343 0.15897889
0.0083856108 0.02401025 0.15999606
0.0083998637 0.02173215 0.16179219
0.0098927338 0.018201159 0.16436914
0.0097168703 0.015835932 0.16619435
0.0094786389 0.013397314 0.16924106
0.0096752523 0.010731347 0.170169
0.0093852868 0.0084673055 0.17214739
0.0085508544 0.0058517782 0.17571585
0.0090943752 0.0014564358 0.17886184
0.0090928162 -0.001327276 0.18056577
0.010468422 0.035951372 0.14862046
0.010728223 0.033790674 0.14988633
0.010906626 0.031497963 0.15194476
0.011142476 0.028946351 0.15737326
0.010935331 0.026642352 0.15944736
0.011030165 0.024250537 0.16026475
0.010709647 0.021848543 0.1624549
0.01224375 0.018376935 0.16496168
0.012221675 0.015995255 0.16685611
0.012283846 0.01361114 0.16830365
0.012575164 0.011006699 0.1697951
0.012050909 0.0087516122 0.17236392
0.011282247 0.0055763344 0.17661022
0.01267925 0.0014445296 0.1782179
0.012968427 0.036320608 0.14811327
0.013293505 0.03410526 0.149523
0.013207624 0.031501178 0.15382513
0.013812742 0.028881991 0.15837237
0.013825479 0.026744215 0.15982527
0.01377974 0.024581444 0.16070911
0.01347565 0.021937532 0.1637753
0.014610999 0.018693227 0.16502804
0.014672303 0.016271694 0.16681811
0.014678329 0.013932052 0.16834615
0.01518352 0.011371378 0.17000641
0.014431615 0.0088827722 0.17295867
0.014278017 0.0058686724 0.17575032
0.014947403 0.0022397006 0.17604467
0.015521874 -0.00085878692 0.17761911
0.015200335 0.036519915 0.14761937
0.015761459 0.034102857 0.14960538
0.01564282 0.030753309 0.15465148
0.016014382 0.027005915 0.15997757
0 0 0 1 0 0 0 1 0 0 0 1 0 0 0 0 0 240 1 0 0
