ply
format ascii 1.0
comment PCL generated
element vertex 240
property float x
property float y
property float z
element camera 1
property float view_px
property float view_py
property float view_pz
property float x_axisx
property float x_axisy
property float x_axisz
property float y_axisx
property float y_axisy
property float y_axisz
property float z_axisx
property float z_axisy
property float z_axisz
property float focal
property float scalex
property float scaley
property float centerx
property float centery
property int viewportx
property int viewporty
property float k1
property float k2
end_header
-0.02523295 0.034763407 0.14577939
-0.025135364 0.032371148 0.14585723
-0.025199367 0.030076368 0.14746915
-0.025369126 0.027645625 0.14869286
-0.02552109 0.025040196 0.15111819
-0.026375936 0.021700306 0.15427351
-0.028738728 0.018121758 0.15851513
-0.029017126 0.015356333 0.16002519
-0.028873457 0.012614493 0.16072761
-0.028530525 0.0098711848 0.16112581
-0.028520372 0.0069531417 0.16184823
-0.028660264 0.0040252707 0.16338044
-0.028467234 0.0013781161 0.16365235
-0.022825388 0.034777809 0.14550762
-0.022664502 0.032346833 0.1463546
-0.022554725 0.030080596 0.1474283
-0.022811918 0.027795434 0.14904353
-0.02277456 0.025367208 0.15078038
-0.023375908 0.022196487 0.15294705
-0.024233149 0.018649837 0.15658274
-0.024792194 0.016007649 0.15820922
-0.025148865 0.013131401 0.15993582
-0.025302265 0.010425674 0.16031741
-0.025302384 0.0076616742 0.16149633
-0.025735723 0.0044669094 0.16310069
-0.025729246 0.0015897552 0.164799
-0.024775272 -0.0015262912 0.16614336
-0.020047864 0.034920026 0.14572823
-0.019903811 0.032644469 0.14735574
-0.020004338 0.030319422 0.14810374
-0.020160588 0.027924228 0.14969434
-0.020315586 0.025437426 0.15108123
-0.020913173 0.022351431 0.15410037
-0.021608002 0.01904298 0.15700963
-0.021784281 0.016275667 0.15812686
-0.022016555 0.013545039 0.15950525
-0.022601118 0.010764731 0.16066879
-0.02270587 0.0077011939 0.16344386
-0.022588648 0.0045599644 0.16450877
-0.022693487 0.0013797259 0.16618757
-0.021878313 -0.0015377351 0.16631141
-0.021101147 -0.0045210631 0.166673
-0.016966408 0.035035718 0.14699776
-0.017328616 0.032765523 0.14802907
-0.01738069 0.030314127 0.14831643
-0.017759893 0.028256271 0.15052216
-0.017805131 0.025585687 0.15133478
-0.018251935 0.022749327 0.15414935
-0.019160755 0.019542975 0.1581229
-0.019063981 0.016834931 0.15881114
-0.019508736 0.014061919 0.16079211
-0.019684309 0.010731915 0.16252515
-0.020231651 0.0076552378 0.16442388
-0.019935336 0.0049521592 0.16520686
-0.020014429 0.0020881458 0.16730785
-0.019476954 -0.00077428395 0.16747367
-0.019032989 -0.0037934796 0.16857602
-0.014310613 0.035285603 0.14759953
-0.014718098 0.032903027 0.14829728
-0.014673539 0.030642247 0.1483717
-0.015203833 0.028155804 0.15109335
-0.015379744 0.025486594 0.15245192
-0.015631022 0.022828311 0.15489933
-0.016635392 0.020154519 0.15958662
-0.016463501 0.017339023 0.15980241
-0.016835434 0.01484001 0.16183791
-0.017350074 0.011795168 0.16433112
-0.017258521 0.0086245714 0.16478993
-0.017396487 0.005499226 0.1668656
-0.017311322 0.0026934436 0.16818041
-0.017019054 -0.00035281669 0.16894528
-0.01617978 -0.0031499371 0.16933952
-0.011947038 0.035351936 0.14786096
-0.012133296 0.033076618 0.14873533
-0.012305731 0.030461282 0.14991307
-0.01258518 0.02791959 0.15167645
-0.012801218 0.025362914 0.15306543
-0.012977131 0.022850201 0.1550916
-0.013685277 0.020618856 0.15929796
-0.01375218 0.017673571 0.16032903
-0.013910998 0.015096428 0.16235426
-0.014745731 0.012267947 0.16552745
-0.014937625 0.008676813 0.16644619
-0.015283011 0.0056187208 0.16791226
-0.014953625 0.0029854483 0.16937543
-0.014752061 0.00018206125 0.16892804
-0.013179183 -0.0028442647 0.16891508
-0.0093443496 0.035399709 0.14772399
-0.0095800636 0.033258133 0.14904408
-0.0098665329 0.030424247 0.15121621
-0.010079418 0.027793854 0.15229553
-0.0099901604 0.025351016 0.15392582
-0.010149906 0.022886047 0.15635446
-0.01019532 0.020707004 0.15916538
-0.010575388 0.017857831 0.15948421
-0.010719333 0.015336835 0.16281292
-0.011597129 0.013002015 0.16681011
-0.012339657 0.0087955873 0.16746306
-0.012604613 0.0059979428 0.1693996
-0.012230473 0.0033196632 0.16971298
-0.011805748 0.00081824028 0.16985002
-0.010938246 -0.0021469409 0.16972062
-0.0069040041 0.035452951 0.14782101
-0.0071831127 0.033148851 0.1494959
-0.0073951017 0.030468909 0.15187439
-0.00721524 0.027782938 0.15249388
-0.0071923379 0.025466951 0.15388393
-0.007323456 0.023277776 0.15770677
-0.0073583303 0.020778181 0.16014189
-0.007184491 0.018386317 0.16087265
-0.0074838041 0.015669318 0.16358346
-0.007814507 0.013187793 0.16776785
-0.0086027002 0.0094712898 0.16949719
-0.010010729 0.0062479703 0.17109562
-0.0097996294 0.0035840345 0.1716888
-0.0091804629 0.0010858383 0.17155541
-0.0093773194 -0.0011075437 0.17246851
-0.0043055178 0.035267916 0.14797916
-0.0045851027 0.032927297 0.1499534
-0.0047692144 0.030188862 0.15180613
-0.0045771156 0.027886666 0.15360385
-0.0045991852 0.025677199 0.15556683
-0.0047313483 0.023571614 0.16008893
-0.0047746617 0.021232676 0.16122639
-0.0048205936 0.018614767 0.16231097
-0.0048224381 0.01589012 0.165042
-0.0049417401 0.013202805 0.16901393
-0.0055104536 0.0097719533 0.17107493
-0.0065291375 0.006799113 0.17291686
-0.0070545226 0.0038004613 0.17258625
-0.0066283285 0.0014729736 0.17199109
-0.005668933 -0.0027384609 0.17565547
-0.0018497796 0.035236232 0.14854451
-0.0020365471 0.032742716 0.14965519
-0.001804522 0.029905269 0.15118957
-0.0017851498 0.027623028 0.15320502
-0.0017656707 0.025746483 0.15564516
-0.0020649892 0.02372854 0.16030705
-0.0020129813 0.021479942 0.16173117
-0.0020817339 0.018809501 0.16357717
-0.0019220561 0.016125686 0.16613315
-0.0018548889 0.012747129 0.16980556
-0.0025315096 0.0098998593 0.17137018
-0.0027812514 0.0069986964 0.17328946
-0.0037017101 0.0043596295 0.17429347
-0.0032515207 0.0013438457 0.17474891
-0.0023899332 -0.0027491141 0.1782254
0.00033818229 0.034299392 0.14879484
0.00060675666 0.03236635 0.15012306
0.0004047174 0.029924683 0.1521576
0.00090683688 0.028169936 0.1543632
0.00078795198 0.025631707 0.15688393
0.00064129778 0.023437507 0.15945402
0.00075104285 0.021521701 0.16191444
0.00065950875 0.019043254 0.1642528
0.0007976648 0.016383806 0.16638085
0.0011047396 0.012729415 0.16944678
0.00056058686 0.0098239835 0.17124304
0.00043966918 0.0069828639 0.17284936
6.7100824e-05 0.0043710307 0.17420252
0.00023928548 0.0014318617 0.17610393
0.0002807444 -0.0018404286 0.17797704
0.0028528785 0.034735151 0.14879295
0.0029652005 0.032572951 0.15057057
0.0031306376 0.030357867 0.15240367
0.0034878701 0.02821137 0.15508011
0.0035974565 0.025905572 0.15686071
0.0034844209 0.023554994 0.15872514
0.0034406064 0.021307217 0.16042258
0.003562805 0.018966492 0.16405791
0.0035335002 0.01635012 0.16657385
0.0039757993 0.012859856 0.16890933
0.0037918147 0.0096115321 0.17069909
0.0033114762 0.006884153 0.17153974
0.0034795359 0.0042858492 0.1727809
0.0031498345 0.0016952641 0.17600794
0.0032983336 -0.0013309827 0.17727439
0.0054540299 0.034663167 0.1481456
0.005573242 0.032699481 0.15011434
0.0056351256 0.030600863 0.15203647
0.0058826804 0.028267896 0.15539163
0.0059915651 0.025985731 0.1578059
0.0060731811 0.023656266 0.1595434
0.0061902073 0.021363996 0.16118176
0.0062199966 0.018987579 0.16303483
0.0067558251 0.015802484 0.16557094
0.0069498033 0.012952364 0.16918375
0.0066772178 0.0098728128 0.16984858
0.0064416095 0.0071887164 0.17135817
0.0061363229 0.0046793278 0.17380098
0.0061712456 0.0016072495 0.17665739
0.0060472903 -0.0012855864 0.17832641
0.007828827 0.034819003 0.14851682
0.0079897558 0.032906722 0.15075625
0.0082573229 0.030653793 0.15161774
0.0086942958 0.028671937 0.15688799
0.0084084859 0.026390074 0.15954062
0.0083695101 0.023965592 0.16043589
0.0084126079 0.021516548 0.16196297
0.0098563274 0.017975559 0.16437513
0.0096879583 0.015471374 0.165958
0.0096254284 0.012681578 0.168715
0.0096330093 0.0098691983 0.16917278
0.0094250254 0.0073905843 0.17095631
0.0088375267 0.0046833106 0.17460546
0.0094529185 0.00026036918 0.17779453
0.009410887 -0.0025690063 0.17937225
0.010383184 0.034814369 0.14817712
0.010543665 0.032767929 0.14963588
0.010687388 0.030664261 0.15188725
0.011140012 0.028920168 0.15793976
0.010929006 0.026567927 0.15997815
0.011023397 0.024125258 0.16066135
0.010723457 0.021542951 0.16253863
0.012258179 0.017874613 0.16460598
0.012279869 0.015298404 0.16627754
0.01225139 0.012767828 0.16738127
0.012367361 0.0098276502 0.16824394
0.012132252 0.0073529254 0.17085621
0.011650205 0.0041299728 0.17518754
0.012921218 -9.2917449e-05 0.17664823
0.012837605 0.034773767 0.14732613
0.013067552 0.032620713 0.14893892
0.013181417 0.030760171 0.15376809
0.013834846 0.028669024 0.15868583
0.013807208 0.026576621 0.16018145
0.013733353 0.024382148 0.1608779
0.013552801 0.02134672 0.163473
0.014600688 0.017948985 0.16427153
0.014678543 0.015378669 0.16583487
0.014634965 0.012857866 0.16705003
0.014950958 0.0098660048 0.16791534
0.014524428 0.0071303356 0.17100626
0.014513293 0.0041440884 0.17394076
0.014933035 0.00055180583 0.17419705
0.015410201 -0.0025955918 0.17558543
0.015016638 0.034535278 0.14657629
0.01549762 0.032095384 0.14865181
0.015648335 0.03017197 0.15473117
0.016000908 0.026759125 0.16021821
0 0 0 1 0 0 0 1 0 0 0 1 0 0 0 0 0 240 1 0 0
