ply
format ascii 1.0
comment PCL generated
element vertex 240
property float x
property float y
property float z
element camera 1
property float view_px
property float view_py
property float view_pz
property float x_axisx
property float x_axisy
property float x_axisz
property float y_axisx
property float y_axisy
property float y_axisz
property float z_axisx
property float z_axisy
property float z_axisz
property float focal
property float scalex
property float scaley
property float centerx
property float centery
property int viewportx
property int viewporty
property float k1
property float k2
end_header
-0.025433632 0.034696739 0.14596501
-0.025412012 0.032330427 0.14608215
-0.025424743 0.030090192 0.14775221
-0.025556391 0.02763919 0.14896314
-0.025636654 0.024952279 0.15124711
-0.026413318 0.021623028 0.15436867
-0.028831689 0.01776189 0.15813817
-0.029138075 0.014971135 0.15958932
-0.029018909 0.012223985 0.16030771
-0.02867917 0.0094767921 0.16060948
-0.028721685 0.006551811 0.16112299
-0.028949836 0.0036989269 0.16250612
-0.028966634 0.0011388697 0.16288835
-0.023068642 0.034597408 0.14545114
-0.022897264 0.032196056 0.14632399
-0.022766756 0.029947506 0.14733969
-0.022990325 0.027636217 0.14895864
-0.022911454 0.025137592 0.15046921
-0.023512335 0.021983804 0.15273458
-0.024300331 0.018381884 0.15645009
-0.024915298 0.015639814 0.15793625
-0.025286388 0.01275101 0.15964171
-0.025470436 0.010034557 0.15995789
-0.025501436 0.0071983812 0.16096224
-0.025998594 0.0039916867 0.16236864
-0.026307767 0.0012154073 0.16415247
-0.025310453 -0.0021674363 0.16550513
-0.020238178 0.034626644 0.14543754
-0.02000582 0.032399349 0.1471155
-0.020123368 0.030077545 0.1478059
-0.020285549 0.027661892 0.14938121
-0.020440452 0.025123538 0.15061782
-0.0209704 0.022002207 0.15372416
-0.021698423 0.018614599 0.15663958
-0.021934899 0.015864739 0.15767397
-0.022141663 0.013144488 0.15907678
-0.022770947 0.010332253 0.16030373
-0.022836642 0.0070187016 0.16270322
-0.022880075 0.0037345656 0.16363175
-0.022989918 0.00045853265 0.16524795
-0.02217688 -0.002409057 0.16561431
-0.021430215 -0.0053115189 0.16628616
-0.016931826 0.034686763 0.14660859
-0.017365217 0.032435633 0.14771964
-0.017479392 0.030011291 0.14799234
-0.017857002 0.027932256 0.15013444
-0.017932629 0.025242457 0.15084337
-0.018298676 0.022334846 0.15353429
-0.019133132 0.018939534 0.15739806
-0.019144565 0.01619596 0.15796183
-0.019516414 0.013341648 0.15989225
-0.019648923 0.0096573392 0.16125527
-0.020321757 0.006645727 0.16303292
-0.020220827 0.0039759283 0.1640756
-0.020334549 0.0013015503 0.16630003
-0.019808492 -0.0015022199 0.16669492
-0.019450672 -0.0043434016 0.1681627
-0.014270195 0.034856524 0.14709903
-0.014721526 0.032504842 0.14788374
-0.014741932 0.030266158 0.14798979
-0.015318874 0.027799278 0.15063453
-0.015484906 0.025129937 0.15192141
-0.015719263 0.02239177 0.15408823
-0.016416499 0.019188643 0.15844706
-0.016429236 0.016354732 0.15835905
-0.016712194 0.013666231 0.16011111
-0.017103696 0.010224433 0.16192307
-0.017209418 0.0072778054 0.16289815
-0.017527517 0.004590245 0.16540314
-0.017594421 0.0020546927 0.16688482
-0.017413901 -0.0008515793 0.16810493
-0.016652049 -0.0035858136 0.16897102
-0.01191629 0.034900136 0.14730954
-0.012113213 0.032629099 0.14821474
-0.012325065 0.0300548 0.14941971
-0.012677747 0.027547931 0.15112107
-0.012914474 0.025026448 0.15247707
-0.01306434 0.02242521 0.15411705
-0.013577359 0.01955552 0.15779938
-0.013687843 0.016530994 0.15845035
-0.013754857 0.013773656 0.16017385
-0.014452076 0.010643094 0.1629642
-0.014960879 0.0074688774 0.16445473
-0.015481051 0.0048021427 0.16628432
-0.015228112 0.00246034 0.16816251
-0.015105722 -0.00031445408 0.16808701
-0.013609248 -0.0033386666 0.16871703
-0.0093269264 0.034953337 0.147164
-0.009576845 0.032819767 0.14848197
-0.0098790647 0.029976398 0.15068962
-0.010154872 0.027392913 0.15174022
-0.010096225 0.025006767 0.15322381
-0.01016801 0.022347506 0.15522121
-0.010080502 0.0198116 0.15763985
-0.010538095 0.016910043 0.15750787
-0.010514057 0.014084373 0.16058135
-0.011338541 0.011373977 0.16422567
-0.012442803 0.0077450396 0.16525505
-0.012738539 0.005334619 0.16751671
-0.012456774 0.002806772 0.16842631
-0.012215026 0.00038865049 0.16917539
-0.011431317 -0.0025705188 0.16966686
-0.006878919 0.035020631 0.14728914
-0.0071857679 0.032665916 0.14891273
-0.0074266936 0.030023383 0.15137096
-0.0072726547 0.027426893 0.15197119
-0.0072338041 0.025055872 0.15312691
-0.007167771 0.022530347 0.15651737
-0.0071339426 0.019781489 0.15853284
-0.0068913456 0.017420653 0.15914096
-0.0072630476 0.014551372 0.16159308
-0.0077087507 0.011705828 0.16551164
-0.0080126384 0.0081040785 0.16707477
-0.0099512395 0.005644551 0.16919531
-0.01007097 0.0033028529 0.1705249
-0.0097137466 0.00088794873 0.1711503
-0.010100624 -0.0010934264 0.17234769
-0.0042425129 0.034859877 0.14747506
-0.0045824563 0.032353755 0.14928535
-0.0048171291 0.029782021 0.15136309
-0.004588224 0.027462199 0.15299396
-0.0045671384 0.025046967 0.15465011
-0.0045716846 0.022592211 0.15877572
-0.0045779287 0.020219702 0.15975699
-0.0046341359 0.017595764 0.16073154
-0.0046861926 0.014728273 0.16317886
-0.0047945641 0.011715858 0.16702025
-0.0050915168 0.0084071457 0.16920684
-0.0065361378 0.006205155 0.17140192
-0.0074018543 0.0034852929 0.1718194
-0.0072018546 0.0011784931 0.17192198
-0.006125221 -0.0027418516 0.17590131
-0.0017764212 0.034825563 0.14804739
-0.0020207462 0.032250907 0.1490262
-0.0018130607 0.029550027 0.1506695
-0.001812148 0.027149474 0.15244308
-0.0017053734 0.025024695 0.15469454
-0.001936738 0.022727048 0.15913509
-0.0018771064 0.020485686 0.16046773
-0.0019670757 0.017748913 0.16212258
-0.0018585896 0.01493049 0.16456588
-0.0018416982 0.011921846 0.16878787
-0.0025143798 0.0091873202 0.17047901
-0.0031142926 0.0068021244 0.17306398
-0.0041424404 0.0043755528 0.17425328
-0.0036845934 0.0014934415 0.17517875
-0.0027617731 -0.0026062992 0.17876342
0.00057346816 0.03399954 0.14844593
0.00098993629 0.031927161 0.14954627
0.00071915711 0.02926404 0.15137106
0.0011237126 0.027147841 0.15327755
0.0010642484 0.024591848 0.15579708
0.00089435891 0.022516765 0.15845551
0.00083516462 0.020654539 0.16093311
0.00061801833 0.018108737 0.16317023
0.00072937045 0.015482156 0.16536853
0.00098247966 0.012465147 0.16942611
0.00035874572 0.0097787743 0.17155902
3.2591466e-05 0.0072429394 0.17360835
-0.00042850079 0.0047342954 0.17507072
-0.0003140019 0.0018214062 0.17706192
-0.00024069413 -0.0015190957 0.1788695
0.0030922317 0.034648679 0.14873524
0.0032729814 0.032295965 0.1502206
0.003479735 0.029870786 0.15175793
0.0038750011 0.026996991 0.15388705
0.0039232075 0.024834601 0.15579769
0.0037731812 0.022657812 0.15776424
0.0036174196 0.020575471 0.15962721
0.0035135443 0.018230457 0.16334677
0.0033401363 0.015815966 0.16620843
0.003778311 0.013108195 0.16989477
0.0035337321 0.010179026 0.17218535
0.0030829876 0.0075188628 0.17305325
0.0031884748 0.0049893418 0.1745176
0.0026057309 0.0022396448 0.1773013
0.002848401 -0.00079439447 0.17852814
0.0057487735 0.034958854 0.14834608
0.0058935997 0.032741837 0.15005559
0.0059909662 0.030391363 0.15167311
0.0064253132 0.026976306 0.15428351
0.006340648 0.024979215 0.15688552
0.0062341704 0.022941913 0.15886489
0.0062985909 0.020894216 0.16075736
0.0061831675 0.018641837 0.16271828
0.0067646434 0.015990408 0.16669241
0.0065483321 0.013695057 0.17084287
0.0064405487 0.010732228 0.17186527
0.006088567 0.0081321429 0.17343046
0.0055951709 0.0055548563 0.1757403
0.0055864127 0.0021333364 0.17808689
0.005471353 -0.00067991385 0.17975147
0.0080846911 0.035311121 0.1489791
0.0082244519 0.033108518 0.15095288
0.0086441953 0.030780146 0.1515446
0.0089720469 0.027737843 0.15616056
0.0085212449 0.02568773 0.15881397
0.0083737113 0.023449631 0.16000406
0.0082726786 0.021369856 0.16187645
0.0098231444 0.018440509 0.16594696
0.009596942 0.016149841 0.16785906
0.0093041798 0.013720024 0.17095381
0.0094622839 0.011019798 0.17178772
0.0090367468 0.0086279446 0.1734793
0.0081639402 0.0056027519 0.17666599
0.0088237645 0.00089167163 0.17936696
0.0087510627 -0.0019159848 0.18083997
0.010652812 0.035655424 0.1489367
0.010921685 0.033466741 0.15008348
0.01108156 0.031071961 0.15207924
0.011182607 0.028425317 0.15764078
0.010986839 0.025941344 0.15941136
0.011021908 0.023621641 0.1603635
0.01044153 0.021575831 0.16274621
0.012153296 0.018578168 0.16655751
0.012089838 0.01625745 0.16856274
0.012097686 0.013872607 0.17002174
0.01230818 0.011118013 0.17134003
0.011682731 0.0086929677 0.17358275
0.010981743 0.0050294176 0.17727095
0.012360508 0.00065609044 0.17835575
0.013177571 0.036017589 0.14835374
0.013523961 0.033713959 0.14968169
0.013405545 0.031134827 0.15417804
0.013924348 0.028285528 0.15865628
0.013898224 0.026027124 0.15983249
0.013772825 0.023974445 0.16081837
0.01321031 0.0217638 0.16423954
0.014479026 0.018821806 0.16654168
0.01450991 0.016537046 0.16854119
0.014464577 0.01416338 0.1700459
0.014905337 0.01135787 0.171359
0.014040992 0.008575296 0.1739665
0.01387728 0.0052641826 0.17627358
0.014447262 0.0014897968 0.17596576
0.014936998 -0.0017301167 0.17722704
0.015458483 0.036165163 0.14790761
0.016086832 0.033596251 0.14970268
0.015847752 0.030440455 0.15522602
0.016090393 0.026283454 0.16008627
0 0 0 1 0 0 0 1 0 0 0 1 0 0 0 0 0 240 1 0 0
