ply
format ascii 1.0
comment PCL generated
element vertex 240
property float x
property float y
property float z
element camera 1
property float view_px
property float view_py
property float view_pz
property float x_axisx
property float x_axisy
property float x_axisz
property float y_axisx
property float y_axisy
property float y_axisz
property float z_axisx
property float z_axisy
property float z_axisz
property float focal
property float scalex
property float scaley
property float centerx
property float centery
property int viewportx
property int viewporty
property float k1
property float k2
end_header
-0.025747592 0.03435576 0.14600657
-0.025623454 0.031990152 0.14607787
-0.025564944 0.029738434 0.14768343
-0.025655173 0.027323514 0.1489272
-0.025679121 0.024820101 0.15157369
-0.026397692 0.021370014 0.15458125
-0.028874381 0.017380552 0.15786886
-0.029159114 0.014592293 0.15931523
-0.028978441 0.011875833 0.16009118
-0.028566202 0.0092230309 0.16052984
-0.028597465 0.0063326522 0.16115917
-0.028873105 0.0035077885 0.16244814
-0.028874343 0.00093290495 0.16274376
-0.023375956 0.034368869 0.1455579
-0.023101209 0.031930901 0.14633311
-0.022885332 0.029661415 0.14728516
-0.023060227 0.027397446 0.1489803
-0.022954889 0.025048958 0.15076353
-0.02351547 0.021837169 0.15293179
-0.024235517 0.018052392 0.15643491
-0.024850475 0.01529622 0.15776707
-0.025186872 0.012391506 0.15940765
-0.025332693 0.0097540859 0.15987878
-0.025410976 0.0070293299 0.16117454
-0.025950145 0.0039010989 0.1626768
-0.026395252 0.0011090894 0.16431059
-0.025398418 -0.0021306674 0.16580376
-0.02051658 0.034467816 0.145519
-0.020183381 0.032217748 0.14710021
-0.020239646 0.02989891 0.14782257
-0.020363642 0.027516998 0.14947958
-0.020478001 0.024992438 0.15082274
-0.020967085 0.021852385 0.15392058
-0.021652265 0.018373081 0.15668783
-0.021810047 0.015578654 0.15760364
-0.021999182 0.012834839 0.15884718
-0.022634909 0.010050312 0.16019689
-0.022889983 0.0070061199 0.16315368
-0.02290736 0.0038764281 0.16433415
-0.0231074 0.00064639328 0.16601634
-0.022650959 -0.0021263212 0.1670533
-0.022245156 -0.0049494663 0.16828869
-0.017089078 0.034529388 0.14652477
-0.017521832 0.032337718 0.147742
-0.017600805 0.029930837 0.14810424
-0.017971804 0.027884945 0.15028903
-0.017980698 0.025121225 0.15099612
-0.018300224 0.022218535 0.15370485
-0.019153621 0.018822728 0.15756865
-0.019071842 0.016099595 0.15812774
-0.01944118 0.013253618 0.16002434
-0.019726129 0.0097434344 0.16212554
-0.020515878 0.0068579898 0.16408677
-0.020451045 0.0042739296 0.16536276
-0.020694282 0.0015267122 0.16747446
-0.020378279 -0.0012308109 0.16821323
-0.020137394 -0.0038967005 0.17007598
-0.014389834 0.034716692 0.14700045
-0.014856185 0.032428779 0.14792679
-0.014863785 0.03021157 0.14815176
-0.015432144 0.02777425 0.15079191
-0.015564675 0.025123082 0.15215296
-0.015784914 0.022428989 0.15438533
-0.016508779 0.019246725 0.15877227
-0.016460989 0.016452646 0.15880603
-0.016767317 0.013948676 0.16073427
-0.017343296 0.010715357 0.16331464
-0.017553626 0.0076605044 0.16455345
-0.017998142 0.0049500237 0.16698816
-0.018107437 0.0022299672 0.16853523
-0.018009275 -0.00062130397 0.16973922
-0.017176624 -0.0032378968 0.17077309
-0.012003214 0.034812797 0.14722429
-0.012238551 0.032577317 0.14830053
-0.012469906 0.03008271 0.14963861
-0.012798755 0.027603172 0.15134279
-0.01301532 0.025105504 0.15278338
-0.013146557 0.022532916 0.15448436
-0.013686816 0.019749438 0.15824106
-0.013799627 0.01670339 0.15901782
-0.013936175 0.014090502 0.16097952
-0.014771764 0.011252564 0.16438927
-0.015621131 0.0078648441 0.16621247
-0.016067997 0.005056941 0.16782321
-0.015634151 0.0025683746 0.1695229
-0.015656529 -0.0002125949 0.16985682
-0.01414892 -0.0032604926 0.16988389
-0.0094499988 0.034812473 0.14704099
-0.0096912077 0.032766528 0.14849755
-0.0099693453 0.02997143 0.1507701
-0.010268779 0.02742251 0.15190379
-0.010204843 0.025077319 0.15345305
-0.010282123 0.022559987 0.15563184
-0.010205919 0.020134158 0.15807334
-0.010696366 0.01699084 0.15805231
-0.010698814 0.014340768 0.16112778
-0.011589404 0.011843801 0.16508497
-0.013227587 0.0080510527 0.16653877
-0.013176341 0.0053748642 0.16835575
-0.01283619 0.0027557502 0.16911408
-0.012453544 0.00028992427 0.16969714
-0.011707925 -0.0027664329 0.16974807
-0.0069955755 0.0348433 0.14704952
-0.0072948453 0.032597311 0.1488589
-0.0074828397 0.029945603 0.15129879
-0.0074001928 0.027287165 0.15188441
-0.0073657674 0.02496741 0.15312555
-0.0072288834 0.022665402 0.15664639
-0.007201883 0.019919015 0.15861191
-0.0070392978 0.017545111 0.15904324
-0.0073721041 0.014564013 0.16136128
-0.0076332344 0.011515955 0.16511858
-0.0085625658 0.0079372171 0.16668312
-0.010076447 0.0053618392 0.16895196
-0.009828086 0.0028918162 0.16990386
-0.0093841506 0.00047923881 0.17019744
-0.0094040763 -0.0014647582 0.17141764
-0.0043414333 0.034667689 0.14711578
-0.0046776952 0.032221355 0.14906237
-0.0048942417 0.029550048 0.15103748
-0.0046407115 0.027240152 0.15267569
-0.004613312 0.024928316 0.15444903
-0.0045153904 0.022571953 0.1587117
-0.00456117 0.020185959 0.15970045
-0.0046684253 0.017512318 0.16043061
-0.0046740929 0.014514424 0.16265228
-0.0046284324 0.011205092 0.16607957
-0.0048620286 0.0077062505 0.16795446
-0.0060897768 0.0055436501 0.17007667
-0.0069015943 0.0028339184 0.17030321
-0.0067781722 0.00056179246 0.17008021
-0.0054487195 -0.0035602872 0.17420185
-0.0018614384 0.034604333 0.14758982
-0.0021302411 0.032048468 0.14863382
-0.0019240051 0.029056335 0.15004589
-0.0019044213 0.026733639 0.15192264
-0.0017426382 0.024748538 0.15428835
-0.0018744 0.022546543 0.15886748
-0.0018209848 0.020254606 0.16014677
-0.0019038521 0.017440589 0.1615366
-0.0017717755 0.014444436 0.16366473
-0.0014792292 0.011015669 0.16729642
-0.0021215652 0.008308473 0.16891567
-0.0025344342 0.0058061187 0.17133515
-0.0034322373 0.0032922537 0.17218079
-0.0028775064 0.00032402735 0.17290819
-0.0020060404 -0.0037376434 0.17680417
0.00058065233 0.033729348 0.1479947
0.0010561051 0.031627037 0.14908938
0.00076239905 0.028856792 0.15080573
0.0012245846 0.026689803 0.15264796
0.0011507745 0.024329852 0.15537697
0.00092555437 0.022265716 0.15800382
0.00088337669 0.020213613 0.16026826
0.00075450144 0.017492533 0.16225071
0.00089001149 0.014741949 0.16416381
0.0014160144 0.011393528 0.16768196
0.00088750449 0.0086847087 0.16969135
0.00065651734 0.0061662495 0.17173143
0.00027217783 0.0036074994 0.17301925
0.00036583326 0.00068859401 0.17500514
0.00049741141 -0.0026358091 0.17685267
0.0031006981 0.034410942 0.14834274
0.0033058829 0.032058042 0.14983255
0.0035370246 0.029628219 0.15137316
0.0040205764 0.026679838 0.15355538
0.0040392615 0.024581041 0.15545531
0.0038102926 0.022497708 0.15739648
0.0036786119 0.020269308 0.15900949
0.0036208692 0.017569117 0.16233577
0.0035299568 0.014943055 0.16478999
0.0041982471 0.011971887 0.16797307
0.0041116015 0.0090146428 0.1701494
0.0037533082 0.0065606255 0.17131491
0.0039447993 0.0040360685 0.17282125
0.0031993573 0.0013383864 0.17558782
0.0035314092 -0.001624757 0.17693239
0.0057800906 0.034781929 0.14803824
0.0059227622 0.032572269 0.14975828
0.0060027875 0.030230179 0.1513554
0.0065473835 0.026898164 0.15412462
0.0064163599 0.024835687 0.15663832
0.0062710829 0.022765428 0.15852603
0.006370212 0.020540113 0.16018854
0.0062879142 0.018088525 0.16183217
0.006804171 0.015431827 0.16525191
0.0067529925 0.012710595 0.16894127
0.0070036524 0.0096889101 0.16986865
0.006750925 0.0072675943 0.17183444
0.0061720703 0.0050247596 0.17442435
0.0060018054 0.0015922561 0.17692436
0.005915178 -0.0011812381 0.17867772
0.0081034871 0.035172507 0.14874174
0.0082255658 0.032975212 0.15069526
0.008681898 0.030679295 0.15132622
0.0090632159 0.027582308 0.15606262
0.0084481426 0.025571786 0.15870345
0.0083367089 0.02327794 0.15979484
0.0083491635 0.020926761 0.16131589
0.0098361112 0.017888645 0.16450503
0.0096532945 0.015594561 0.16637331
0.0094124535 0.013007483 0.16913642
0.009927325 0.01036275 0.17004751
0.0096798651 0.0080874776 0.17215723
0.0085551254 0.005493789 0.17579475
0.0091620535 0.0010382587 0.17919612
0.0091308048 -0.0016908457 0.18079308
0.010685307 0.035553154 0.14878443
0.010973261 0.033395719 0.14993165
0.011119366 0.03099235 0.15194397
0.011289923 0.028111449 0.15734997
0.01083622 0.025918117 0.1594836
0.01092226 0.023612086 0.16041043
0.010394109 0.021218766 0.16245037
0.01198503 0.018374402 0.16547428
0.011960821 0.016060799 0.16740918
0.012183574 0.013621353 0.1687136
0.012687271 0.010874935 0.16998011
0.01225461 0.0086414125 0.17280383
0.011216234 0.0054971459 0.17714465
0.012865489 0.0014218964 0.17919344
0.013251868 0.035968423 0.1483428
0.013625042 0.03365735 0.14963685
0.013573291 0.030900257 0.1541241
0.013755775 0.028350199 0.15891144
0.013621719 0.026267292 0.16030908
0.013499287 0.024328958 0.1613571
0.012774244 0.021920351 0.16440287
0.014077695 0.019197898 0.16617447
0.014155646 0.01690232 0.16800593
0.014359855 0.014473136 0.16941082
0.015163834 0.011587049 0.17048223
0.014437854 0.0089722006 0.17355615
0.014201771 0.0061090449 0.17672761
0.015330063 0.0024607191 0.17733201
0.015936712 -0.00059055956 0.17894782
0.015546038 0.03614549 0.14797145
0.016239036 0.033528272 0.14975759
0.015979964 0.030368948 0.15561283
0.015733369 0.026692215 0.16082357
0 0 0 1 0 0 0 1 0 0 0 1 0 0 0 0 0 240 1 0 0
