ply
format ascii 1.0
comment PCL generated
element vertex 240
property float x
property float y
property float z
element camera 1
property float view_px
property float view_py
property float view_pz
property float x_axisx
property float x_axisy
property float x_axisz
property float y_axisx
property float y_axisy
property float y_axisz
property float z_axisx
property float z_axisy
property float z_axisz
property float focal
property float scalex
property float scaley
property float centerx
property float centery
property int viewportx
property int viewporty
property float k1
property float k2
end_header
-0.025663054 0.034555584 0.14609486
-0.025575744 0.032156073 0.14605054
-0.025512343 0.029828683 0.14750564
-0.025603259 0.027361512 0.14863326
-0.025688153 0.024901327 0.1515585
-0.026424348 0.021527629 0.1547417
-0.028741343 0.017178414 0.15874532
-0.02900213 0.014385722 0.16016902
-0.028900171 0.011585225 0.16096567
-0.028712327 0.0088280672 0.16150498
-0.02903443 0.0058490415 0.16233127
-0.029402956 0.0028912339 0.16362876
-0.02946792 0.00021074872 0.16383815
-0.023311732 0.034531221 0.14560178
-0.02303881 0.032036036 0.14621601
-0.022808122 0.02970529 0.14699733
-0.02299583 0.027395828 0.14863586
-0.022955155 0.025054699 0.15052992
-0.023618378 0.021904504 0.15287797
-0.024278376 0.017950512 0.15641205
-0.024885712 0.014908886 0.15777417
-0.025191195 0.011948288 0.15948035
-0.025511976 0.0091250753 0.16012439
-0.025694102 0.0062841265 0.16159347
-0.026406489 0.0032028174 0.16342153
-0.026787812 0.0002274368 0.16508085
-0.025684465 -0.0031400765 0.16673519
-0.020436602 0.034580011 0.1454967
-0.020072041 0.032276608 0.14691544
-0.020129444 0.029922511 0.14751658
-0.020296363 0.027491312 0.14912881
-0.02047685 0.02495213 0.15058061
-0.021029728 0.021812979 0.15377
-0.021663716 0.01813418 0.15637231
-0.021845864 0.015069133 0.1569684
-0.022058064 0.012241504 0.15817831
-0.022748711 0.0092221173 0.15983391
-0.022804396 0.005893914 0.16281974
-0.02303415 0.0026140588 0.16416048
-0.023365622 -0.00053112302 0.16655196
-0.022831321 -0.0030809653 0.16782983
-0.022272652 -0.0057625733 0.16909926
-0.016981581 0.034645643 0.14663686
-0.017432814 0.032404914 0.14772448
-0.017508583 0.029990671 0.14796321
-0.017934166 0.027843306 0.15004012
-0.017986916 0.025035629 0.15071529
-0.018317547 0.022164503 0.15337554
-0.019109897 0.018441193 0.15709069
-0.019059686 0.015548331 0.15720963
-0.019333737 0.012430197 0.15889436
-0.019492311 0.00797386 0.16085087
-0.020344056 0.0052693607 0.16310355
-0.020502508 0.0029035187 0.16485116
-0.020832984 0.00056531001 0.16752894
-0.020507595 -0.0020388863 0.16865721
-0.020109873 -0.0045301472 0.17060481
-0.014279463 0.034804195 0.14712833
-0.014767069 0.032483675 0.14796853
-0.014784682 0.030274017 0.14810352
-0.015390057 0.027640773 0.1505288
-0.015538086 0.024923109 0.15176414
-0.01578863 0.022205854 0.15398583
-0.016440239 0.01876026 0.15823583
-0.016413134 0.015807876 0.15790831
-0.016616484 0.01299769 0.15953492
-0.016891163 0.008927471 0.16150275
-0.017196441 0.0056732446 0.16308905
-0.017752334 0.0036091676 0.16612887
-0.018217614 0.0013867621 0.16820505
-0.018088145 -0.0012335045 0.1698754
-0.017188894 -0.0038311 0.17097092
-0.011861164 0.034837808 0.1472159
-0.012126915 0.032569084 0.148237
-0.012395229 0.03003177 0.14949399
-0.012753833 0.027398348 0.15098779
-0.012981058 0.02480972 0.15231152
-0.013156004 0.022254117 0.15405066
-0.013714855 0.019423474 0.15778187
-0.013778948 0.016100954 0.15823945
-0.013801169 0.013170713 0.15990853
-0.014317386 0.0095384652 0.16264224
-0.015205513 0.0060649966 0.16471818
-0.015938954 0.0038757704 0.16690327
-0.015792295 0.0019717615 0.16923133
-0.015825782 -0.00074010284 0.16990052
-0.01421585 -0.0037773631 0.17007722
-0.0092877354 0.034818508 0.1469976
-0.0095541747 0.032705974 0.14834306
-0.009922686 0.029890146 0.15062644
-0.010256871 0.02728134 0.15165143
-0.010207632 0.024830677 0.15306093
-0.010313784 0.022312187 0.15528117
-0.010255671 0.01990984 0.15773953
-0.010699624 0.016606309 0.15752669
-0.010600466 0.013664285 0.1603788
-0.011370551 0.010652438 0.16390821
-0.012862103 0.0064500961 0.16526964
-0.013178256 0.0044535222 0.16776377
-0.013012373 0.0021655294 0.16914634
-0.012704265 -0.00015300997 0.1700642
-0.011792255 -0.0031249265 0.17035334
-0.0068482477 0.03488401 0.14715888
-0.0071860109 0.032568749 0.14885511
-0.0074646496 0.029858219 0.15124816
-0.0074077654 0.027306862 0.15187812
-0.0073371138 0.024959667 0.15298302
-0.0072443262 0.022379979 0.15629448
-0.0071477224 0.019522144 0.1580887
-0.0069642635 0.017141212 0.15867978
-0.0073625175 0.014335486 0.16117698
-0.0077200225 0.011550603 0.16518766
-0.0086162752 0.0073500671 0.16738917
-0.01045497 0.0049932417 0.16960019
-0.010396838 0.0027296452 0.17107885
-0.0099005383 0.00029565493 0.17150283
-0.0099825533 -0.0016635793 0.1725374
-0.0041973726 0.034795243 0.14747009
-0.0046022004 0.032327197 0.14937373
-0.0049346471 0.029678898 0.1513142
-0.0047370098 0.027437778 0.15298203
-0.0046722032 0.024979109 0.15450503
-0.0044832723 0.022202354 0.15819073
-0.0044824705 0.019802902 0.15906897
-0.0046134219 0.017239438 0.16010484
-0.0047051325 0.014446726 0.16265088
-0.0049210857 0.011557615 0.16663891
-0.0054248394 0.0080602588 0.16921139
-0.0068720523 0.0057288338 0.17177093
-0.0076887491 0.0028837125 0.17218359
-0.007384161 0.00057693146 0.17209518
-0.0058943066 -0.0033116953 0.17546159
-0.001754882 0.034787979 0.14811172
-0.0020111217 0.032239463 0.14919215
-0.0020045713 0.029794538 0.15094763
-0.0019567283 0.027339615 0.15256138
-0.0018004626 0.025120901 0.15470976
-0.0018695217 0.022147439 0.158471
-0.0017209525 0.019775245 0.15946451
-0.0018800922 0.017299328 0.16132079
-0.0018236073 0.014449697 0.16369782
-0.001848074 0.011429134 0.16795476
-0.0026384068 0.0086874142 0.16988835
-0.0030062441 0.0064361156 0.17262793
-0.0041352804 0.0041517396 0.17415115
-0.003705373 0.0012774843 0.17509662
-0.0023772211 -0.003064143 0.17820834
0.00044706397 0.034288075 0.14914359
0.00085754262 0.032254659 0.15033837
0.00054065639 0.029634036 0.15210368
0.00096637348 0.027767394 0.15401089
0.0010519928 0.024843665 0.15608051
0.00096621184 0.022212332 0.1579335
0.00095029559 0.019925212 0.15990372
0.00077627803 0.017392943 0.16206668
0.00083778589 0.014700834 0.16412808
0.0010929294 0.011653303 0.16809297
0.00047014418 0.0090610124 0.17033176
0.00022463631 0.006661383 0.17265891
-0.00024413114 0.0043190694 0.1743663
-8.1062492e-05 0.0014988763 0.17643555
7.9716374e-05 -0.0019209113 0.17815319
0.0028909082 0.035037879 0.14958493
0.0031130449 0.032671623 0.15104468
0.0033510586 0.030239629 0.15256418
0.0037128867 0.027750826 0.15492859
0.0038919416 0.025283309 0.15626237
0.0038206757 0.02269713 0.15749358
0.0037643744 0.020205902 0.15866692
0.0036628244 0.017412953 0.16208765
0.0034803806 0.014869534 0.16467953
0.0039681816 0.012042456 0.16805452
0.0037969674 0.0091498177 0.17030559
0.0032844769 0.0067947046 0.17181261
0.0034226077 0.004394595 0.17355664
0.0028478785 0.0018439369 0.17644469
0.0031160007 -0.0011727921 0.17771189
0.0055618961 0.035453144 0.14926434
0.0057289181 0.033208862 0.15095298
0.0057890881 0.030853588 0.15249939
0.0063065011 0.027799899 0.15519077
0.006323799 0.025291743 0.15722027
0.0063241064 0.022851842 0.15853372
0.0065223034 0.020323867 0.15972875
0.0064779725 0.017684126 0.1611004
0.0067586536 0.015184594 0.16492698
0.0067569637 0.012672592 0.16873015
0.0067393277 0.0096242474 0.16968788
0.0064347265 0.0072871759 0.17183515
0.0059598205 0.0052490006 0.1746569
0.0058331913 0.0017770969 0.17724232
0.0057495707 -0.00099069637 0.17897145
0.0078745726 0.035849877 0.14992133
0.0080270749 0.033609826 0.1518535
0.0085009541 0.031310108 0.15244801
0.0087979659 0.028262803 0.15720002
0.0083826492 0.025704075 0.15932991
0.0084330877 0.023193249 0.15977851
0.0086102383 0.020507874 0.16064367
0.0098640583 0.017476337 0.16397074
0.0096761398 0.015158179 0.16587977
0.0094490517 0.012685097 0.16863547
0.0097452682 0.010033332 0.16958016
0.0094481446 0.0078340145 0.17175649
0.0085458616 0.0053784694 0.17560758
0.0091883345 0.00070928229 0.17867796
0.0091006262 -0.0019834789 0.18027087
0.010432204 0.036239803 0.14989635
0.010739882 0.034067094 0.15100151
0.010914419 0.031618673 0.15299234
0.010935215 0.028736163 0.15865731
0.010755075 0.026031477 0.16015157
0.011015122 0.023521911 0.16035017
0.010697522 0.02058145 0.16168712
0.012150487 0.017735014 0.16464925
0.01211759 0.015380641 0.16651997
0.012198997 0.01294036 0.16781983
0.012545823 0.010241166 0.16918536
0.012130664 0.0080787074 0.17202382
0.011371573 0.0049422844 0.17631203
0.012797635 0.00046729614 0.17775951
0.012993147 0.036676154 0.14935173
0.013367705 0.034310054 0.15058404
0.013256183 0.031625237 0.15515307
0.013572472 0.028539721 0.15962937
0.013570076 0.026268352 0.16071206
0.013588819 0.024115058 0.16133562
0.013140784 0.021164147 0.16379856
0.014432566 0.018218609 0.16496417
0.014474709 0.015872108 0.16669963
0.01453674 0.013452007 0.16807853
0.015137803 0.010609022 0.16933589
0.01443498 0.0081566144 0.17246293
0.014289403 0.0051789847 0.17539543
0.014936831 0.001164312 0.17542753
0.015379255 -0.0020053363 0.17691675
0.015252447 0.036807325 0.14892437
0.015985992 0.034083568 0.15050973
0.015716076 0.030778233 0.1563562
0.015703825 0.026625767 0.16111487
0 0 0 1 0 0 0 1 0 0 0 1 0 0 0 0 0 240 1 0 0
