ply
format ascii 1.0
comment PCL generated
element vertex 240
property float x
property float y
property float z
element camera 1
property float view_px
property float view_py
property float view_pz
property float x_axisx
property float x_axisy
property float x_axisz
property float y_axisx
property float y_axisy
property float y_axisz
property float z_axisx
property float z_axisy
property float z_axisz
property float focal
property float scalex
property float scaley
property float centerx
property float centery
property int viewportx
property int viewporty
property float k1
property float k2
end_header
-0.026082916 0.034346953 0.14701936
-0.02595783 0.031997241 0.1470394
-0.025800364 0.029618686 0.14848877
-0.025803439 0.027064277 0.14941078
-0.025960134 0.024060052 0.15146849
-0.026814453 0.0202599 0.15399446
-0.029672395 0.015338404 0.15687677
-0.029909279 0.012455322 0.15808177
-0.029711204 0.0096052913 0.15877552
-0.029222982 0.0067739249 0.15892498
-0.029114192 0.0036064042 0.15913497
-0.029361416 0.00059367664 0.16013423
-0.029294336 -0.0020194373 0.16050136
-0.023783762 0.03433802 0.14643022
-0.023411801 0.031855818 0.14707568
-0.02308484 0.029535167 0.14776553
-0.023178777 0.027082331 0.1491822
-0.023124069 0.024482848 0.15053357
-0.023856618 0.020936772 0.15240401
-0.02471157 0.016650558 0.15576994
-0.025473433 0.013580331 0.15695287
-0.025869815 0.010602832 0.15840653
-0.026025761 0.0078072376 0.15877078
-0.025823275 0.0048135067 0.15944609
-0.026377123 0.0012815947 0.16050415
-0.026914477 -0.0017330133 0.162172
-0.025459539 -0.0047225165 0.16368115
-0.020851899 0.034460425 0.14628793
-0.02031371 0.03208936 0.14763439
-0.020340528 0.029705655 0.14807376
-0.020467017 0.027151039 0.14951304
-0.0206591 0.024393188 0.150686
-0.021379987 0.020915734 0.15356912
-0.022181304 0.01701441 0.1561987
-0.022336382 0.013948811 0.15689763
-0.022569314 0.011213329 0.15795493
-0.02331908 0.0083738854 0.15931806
-0.023325551 0.004733122 0.16147104
-0.023234464 0.0015021845 0.16232705
-0.023379195 -0.001781537 0.16411027
-0.022698371 -0.0043813479 0.16502915
-0.022053368 -0.0070624459 0.16621758
-0.017237348 0.034626413 0.14786495
-0.017635066 0.032235302 0.1485572
-0.017696792 0.029768508 0.14850889
-0.018120307 0.027455712 0.15047321
-0.018145114 0.024524238 0.15083866
-0.018605061 0.021418139 0.1533532
-0.019785285 0.017477358 0.15730907
-0.019681508 0.014576212 0.15763886
-0.020026883 0.011588763 0.15933155
-0.020489953 0.0076260017 0.16089498
-0.021121994 0.0046143564 0.16230568
-0.021015236 0.0021254458 0.16363055
-0.021141663 -0.00056431477 0.16544886
-0.020613786 -0.0031934693 0.16625145
-0.020234657 -0.0057654558 0.16810381
-0.014614169 0.034902908 0.14872631
-0.014998279 0.032425337 0.14907095
-0.014961508 0.030157605 0.14881703
-0.015605411 0.027257567 0.15102009
-0.015718568 0.024403108 0.15196291
-0.015989026 0.021396725 0.15402614
-0.017153131 0.017861405 0.15856633
-0.017111845 0.014993383 0.1586132
-0.017373927 0.012323935 0.16042826
-0.017828254 0.0086910008 0.16217294
-0.018084168 0.0055273394 0.16279365
-0.018517047 0.002888873 0.16527145
-0.018714484 0.00044569714 0.16637471
-0.018431054 -0.0023335663 0.1677388
-0.017442791 -0.0047809551 0.16898113
-0.012187407 0.035081875 0.1489989
-0.012389388 0.032655619 0.14962892
-0.012596924 0.029848149 0.15030196
-0.012963026 0.027071362 0.15155622
-0.013200629 0.024361646 0.15268458
-0.013347008 0.021637538 0.15419966
-0.014171625 0.0184724 0.15794942
-0.014420343 0.01538672 0.15899566
-0.014570084 0.012670063 0.16113599
-0.01540028 0.0092734005 0.16357991
-0.016294528 0.005722519 0.16428305
-0.016730409 0.0031584501 0.16580994
-0.01640841 0.0011179337 0.16769493
-0.016205503 -0.0015678724 0.16817445
-0.014410178 -0.0044340142 0.16882029
-0.0096209254 0.035244357 0.14875795
-0.0098072076 0.032943033 0.14976104
-0.010075917 0.029641345 0.15132089
-0.010378654 0.026961407 0.1522347
-0.01032327 0.024490863 0.15351786
-0.010499111 0.021755751 0.15563981
-0.010433484 0.019339152 0.15812284
-0.011107175 0.016034899 0.1583306
-0.011077065 0.013278649 0.16161388
-0.012272085 0.010369505 0.16495599
-0.014010061 0.0062141009 0.16462694
-0.014021139 0.0038324788 0.16638625
-0.013619201 0.0014873613 0.16771448
-0.013114645 -0.00076536235 0.16875146
-0.01197002 -0.0036455884 0.16912711
-0.0071751159 0.035348289 0.14881179
-0.0074403286 0.032780748 0.15014233
-0.0076015876 0.029631808 0.1519282
-0.0073968042 0.027006516 0.15238942
-0.0072239605 0.024661561 0.15355402
-0.0073479088 0.02217716 0.15728827
-0.0073129907 0.019678643 0.15944882
-0.0070481747 0.017296776 0.16005743
-0.0072757094 0.01412799 0.16218179
-0.0076226727 0.011120902 0.16605915
-0.009228589 0.0069808625 0.16658956
-0.010981229 0.0043272055 0.16813667
-0.010684554 0.0020798575 0.16941075
-0.010158107 -0.00021415672 0.16986164
-0.010175434 -0.0021019219 0.1709158
-0.004543744 0.03519639 0.14872086
-0.0048427298 0.032449123 0.15035781
-0.0050135963 0.029389232 0.15191762
-0.004726524 0.02718755 0.15356357
-0.0046809637 0.024827817 0.15516718
-0.0047768904 0.022420734 0.15950911
-0.0047674216 0.02022147 0.16070858
-0.0048381384 0.017541843 0.16157994
-0.0047454727 0.014468567 0.1638867
-0.0048570484 0.011575066 0.16783996
-0.0050313631 0.0078552011 0.16916445
-0.0069674542 0.0050272248 0.17058648
-0.0078837564 0.0021669504 0.17058623
-0.0076234913 5.6642479e-05 0.17049591
-0.0057892324 -0.0039519682 0.17421956
-0.0020422302 0.035100449 0.14908291
-0.00226778 0.032402333 0.14982839
-0.0019587099 0.029482989 0.15151918
-0.0018850402 0.027121056 0.1532961
-0.0018089978 0.024988823 0.15555078
-0.0021446599 0.022647319 0.16000621
-0.0020716495 0.020557586 0.16147794
-0.0022223066 0.017809505 0.16306238
-0.0020573975 0.01489781 0.16531296
-0.001662201 0.011590292 0.16915213
-0.0023048893 0.0085756844 0.17027901
-0.0026448355 0.0058736228 0.17249553
-0.0037846512 0.0033451892 0.1732128
-0.0033102983 0.00039825373 0.17392398
-0.0019992914 -0.0040002652 0.17729951
0.00038714969 0.034094911 0.14917831
0.00072935782 0.032000437 0.1503347
0.00045956031 0.029417256 0.15234302
0.00097345625 0.027342116 0.1544247
0.00099499174 0.024665764 0.15681121
0.00075244304 0.022569515 0.15936145
0.0006947759 0.020832967 0.16190794
0.00042252816 0.018076612 0.16398659
0.00055599271 0.015303701 0.16581792
0.0013089341 0.01181447 0.16931632
0.00077088125 0.0089879027 0.17102097
0.00055098895 0.0062454287 0.17279536
0.00010012114 0.0036605259 0.17399819
0.00025708092 0.00066310848 0.17601953
0.00040061603 -0.0027492705 0.17760818
0.0028899654 0.034537423 0.14916407
0.0030915567 0.03227577 0.15078019
0.0033053942 0.029940331 0.15246947
0.0038223262 0.027172843 0.15495721
0.0039114077 0.025017038 0.15672818
0.0036802315 0.022837883 0.15854535
0.0034586019 0.020761026 0.16031577
0.0033234102 0.017948164 0.16378111
0.0032003003 0.01540432 0.16620958
0.0042339466 0.012106164 0.1692559
0.0041163955 0.0090731895 0.17109217
0.0036572611 0.0066537498 0.17224318
0.0038314627 0.0040332684 0.17376846
0.0030721647 0.0012628041 0.17644703
0.0033998911 -0.0017179614 0.17778853
0.0055345879 0.034627546 0.14844282
0.0057103904 0.032549627 0.15036319
0.0057546753 0.030358231 0.15212059
0.006343246 0.027143903 0.15507704
0.0063807466 0.025097553 0.15752928
0.00616307 0.023090182 0.15938033
0.0062536742 0.020956086 0.161281
0.0060499222 0.018480508 0.16294459
0.00683193 0.015162751 0.16623946
0.0069157709 0.012638188 0.16994058
0.006976428 0.0097070225 0.1707885
0.0066823834 0.0072625531 0.17262465
0.0061297487 0.0049146665 0.17508963
0.0058915322 0.0014727466 0.17773633
0.0058517908 -0.0012729097 0.17937684
0.0079195183 0.034796804 0.14870307
0.0081061041 0.032773975 0.15085325
0.0084478864 0.030548122 0.15169474
0.0090773646 0.027709108 0.15673043
0.0086501213 0.025666179 0.15924336
0.0083941231 0.02353812 0.16040233
0.0082568927 0.021415139 0.16217633
0.010007143 0.017651379 0.16564637
0.0097889202 0.015219716 0.16737399
0.0096182451 0.012700272 0.1698602
0.0099230539 0.010129711 0.17071831
0.0096249497 0.0078705326 0.17259391
0.0087221684 0.0050160768 0.17608292
0.009400418 0.0005056035 0.17920014
0.0092088031 -0.00190039 0.18059607
0.010404737 0.034930971 0.14831695
0.010634082 0.032898609 0.14964479
0.010856248 0.03069694 0.15190896
0.011347148 0.028234478 0.15783626
0.011125162 0.025749991 0.15959936
0.011018193 0.023569908 0.16065286
0.010389104 0.02152543 0.16313688
0.012273005 0.01774136 0.16606629
0.0122224 0.015393779 0.16781157
0.012291748 0.012951704 0.16908601
0.012679214 0.010337361 0.17042698
0.012235118 0.0080498429 0.17280057
0.011576992 0.0046307947 0.17666967
0.013128513 0.00034541919 0.17815344
0.012841298 0.035123445 0.14743067
0.013171662 0.032926526 0.14890926
0.013574326 0.030510487 0.1539149
0.014331107 0.027682101 0.15841134
0.014102862 0.025703877 0.15989731
0.013878589 0.023753863 0.16114418
0.013292256 0.021569915 0.16445363
0.014519849 0.018006725 0.16599378
0.014556086 0.015648888 0.16772811
0.014558095 0.013301237 0.16908416
0.015239645 0.010661437 0.17056087
0.014490624 0.0081451014 0.17311378
0.01445141 0.0049977931 0.17570792
0.015269901 0.0010953606 0.17576192
0.015739014 -0.0018341523 0.17700393
0.015007159 0.035070233 0.14678727
0.015822357 0.032599542 0.14873298
0.016420353 0.02881952 0.15467779
0.016334068 0.025896844 0.16012993
0 0 0 1 0 0 0 1 0 0 0 1 0 0 0 0 0 240 1 0 0
