-3.966986000000000123e-02 7.606812800000000395e-03 1.995097500000000135e-01
-3.966986000000000123e-02 7.606812800000000395e-03 1.995097500000000135e-01
-3.966986000000000123e-02 7.606812800000000395e-03 1.995097500000000135e-01
-3.966986000000000123e-02 7.606812800000000395e-03 1.995097500000000135e-01
-3.974106200000000061e-02 7.168286000000000276e-03 1.989620199999999894e-01
-3.985663099999999653e-02 6.569794399999999597e-03 1.986337800000000098e-01
-3.994497699999999957e-02 6.105667900000000259e-03 1.981923899999999961e-01
-4.008815400000000084e-02 5.631037999999999669e-03 1.979321500000000011e-01
-4.012422999999999684e-02 5.211326300000000168e-03 1.977669400000000022e-01
-4.017927100000000251e-02 4.721951200000000341e-03 1.975028199999999956e-01
-4.015850299999999817e-02 4.332667699999999920e-03 1.967941800000000130e-01
-3.998562700000000275e-02 3.782168299999999917e-03 1.960020799999999952e-01
-3.996815499999999827e-02 3.546581400000000175e-03 1.957113000000000047e-01
-3.990640499999999896e-02 3.225052500000000124e-03 1.955795300000000014e-01
-3.986663700000000338e-02 2.788082900000000194e-03 1.953318099999999946e-01
-3.981041500000000177e-02 2.246565700000000085e-03 1.946892699999999976e-01
-3.974507000000000040e-02 1.820204099999999997e-03 1.944738199999999917e-01
-3.969849999999999768e-02 1.418007300000000094e-03 1.944494499999999959e-01
-3.970470699999999881e-02 1.088199800000000037e-03 1.943212599999999957e-01
-3.963369900000000140e-02 6.647583799999999933e-04 1.940641600000000133e-01
-3.961816800000000222e-02 3.146612400000000048e-04 1.937543200000000077e-01
-3.946845999999999688e-02 1.404966600000000068e-06 1.936202499999999938e-01
-3.936588800000000166e-02 -1.731735699999999894e-04 1.938162900000000022e-01
-3.929498800000000291e-02 -3.584122499999999869e-04 1.938548999999999967e-01
-3.922623799999999661e-02 -5.692210400000000201e-04 1.936820300000000050e-01
-3.921180600000000183e-02 -7.418570499999999719e-04 1.936571900000000068e-01
-3.924067700000000158e-02 -8.326389899999999669e-04 1.940066099999999960e-01
-3.918873900000000021e-02 -1.046232899999999895e-03 1.941742399999999980e-01
-3.928240000000000204e-02 -1.173228400000000038e-03 1.943799300000000063e-01
-3.935607199999999889e-02 -1.259399800000000078e-03 1.945794999999999886e-01
-3.944593700000000036e-02 -1.418478099999999961e-03 1.945452799999999871e-01
-3.952861600000000253e-02 -1.536592000000000036e-03 1.946512900000000046e-01
-3.956433399999999961e-02 -1.663932699999999933e-03 1.948038599999999954e-01
-3.958095999999999837e-02 -1.924564199999999987e-03 1.944641599999999970e-01
-3.971488399999999891e-02 -2.063052299999999784e-03 1.943464099999999972e-01
-3.975066499999999753e-02 -2.130615099999999800e-03 1.944801399999999958e-01
-3.983027100000000043e-02 -2.278346599999999875e-03 1.943875399999999976e-01
-3.990574899999999731e-02 -2.384331799999999790e-03 1.943607800000000108e-01
-3.988497700000000201e-02 -2.486955099999999929e-03 1.943838900000000036e-01
-3.989462900000000090e-02 -2.596026500000000146e-03 1.942846000000000017e-01
-3.987363000000000018e-02 -2.534798600000000204e-03 1.945900000000000130e-01
-3.981963200000000064e-02 -2.526753300000000174e-03 1.947232299999999972e-01
-3.975383200000000283e-02 -2.600431700000000075e-03 1.946711399999999925e-01
-3.968688799999999656e-02 -2.566867300000000122e-03 1.947533599999999865e-01
-3.958115000000000244e-02 -2.630198399999999961e-03 1.947431099999999971e-01
-3.956619699999999740e-02 -2.629454900000000126e-03 1.948262799999999906e-01
-3.961164500000000088e-02 -2.569837499999999900e-03 1.948258400000000001e-01
-3.966255099999999728e-02 -2.602116900000000111e-03 1.945202099999999990e-01
-3.961376099999999734e-02 -2.540610300000000106e-03 1.945382400000000012e-01
-3.957867600000000013e-02 -2.387063599999999803e-03 1.947450799999999871e-01
-3.953801500000000274e-02 -2.325407900000000128e-03 1.949937499999999935e-01
-3.952336299999999886e-02 -2.169046799999999834e-03 1.953010699999999933e-01
-3.949416800000000310e-02 -2.068908200000000013e-03 1.955340700000000043e-01
-3.946895500000000001e-02 -1.991524599999999930e-03 1.958573799999999976e-01
-3.951584200000000241e-02 -1.950621299999999924e-03 1.962256000000000000e-01
-3.959586799999999934e-02 -1.847291600000000025e-03 1.966445099999999946e-01
-3.970386499999999791e-02 -1.813133399999999895e-03 1.969872300000000132e-01
-3.982137899999999703e-02 -1.692411800000000058e-03 1.971915499999999932e-01
-3.989749399999999863e-02 -1.603441099999999972e-03 1.975444600000000051e-01
-3.996140900000000329e-02 -1.527655300000000044e-03 1.978248200000000123e-01
-3.993931399999999660e-02 -1.363873100000000073e-03 1.984481399999999951e-01
-3.986181700000000078e-02 -1.206006699999999940e-03 1.990173000000000081e-01
-3.990231100000000281e-02 -1.092524299999999985e-03 1.993031799999999965e-01
-3.986718499999999943e-02 -1.016426599999999949e-03 1.995920800000000050e-01
-3.988438500000000136e-02 -1.031579900000000006e-03 1.998290000000000066e-01
-3.988605700000000254e-02 -9.779670499999999593e-04 2.000985600000000086e-01
-3.993210900000000035e-02 -9.119653300000000237e-04 2.001853399999999894e-01
-4.002028700000000161e-02 -9.388571500000000240e-04 2.000180000000000013e-01
-4.013061500000000142e-02 -9.010817700000000414e-04 1.996849300000000105e-01
-4.020507300000000089e-02 -8.917655199999999661e-04 1.994860300000000086e-01
-4.033466100000000082e-02 -9.014530200000000050e-04 1.991419899999999910e-01
-4.037783699999999976e-02 -8.838209899999999522e-04 1.990735200000000038e-01
-4.042974099999999821e-02 -8.633914999999999819e-04 1.989633100000000043e-01
-4.047656399999999960e-02 -8.495626400000000399e-04 1.989034600000000041e-01
-4.050057399999999752e-02 -7.726828299999999490e-04 1.987795499999999993e-01
-4.048363499999999698e-02 -8.130345400000000330e-04 1.989571599999999940e-01
-4.046713200000000288e-02 -8.085658199999999976e-04 1.990513800000000000e-01
-4.045509500000000341e-02 -7.758160899999999929e-04 1.991018800000000089e-01
-4.045509500000000341e-02 -7.758160899999999929e-04 1.991018800000000089e-01
-4.045509500000000341e-02 -7.758160899999999929e-04 1.991018800000000089e-01
-4.045509500000000341e-02 -7.758160899999999929e-04 1.991018800000000089e-01
