ply
format ascii 1.0
comment PCL generated
element vertex 348
property float x
property float y
property float z
element camera 1
property float view_px
property float view_py
property float view_pz
property float x_axisx
property float x_axisy
property float x_axisz
property float y_axisx
property float y_axisy
property float y_axisz
property float z_axisx
property float z_axisy
property float z_axisz
property float focal
property float scalex
property float scaley
property float centerx
property float centery
property int viewportx
property int viewporty
property float k1
property float k2
end_header
-0.055277366 0.030626547 0.18513235
-0.056257516 0.028324706 0.18677233
-0.056910779 0.025349976 0.18894958
-0.057444125 0.022041867 0.19141813
-0.058215398 0.018643534 0.19375819
-0.058384694 0.015381606 0.19522667
-0.058494668 0.012115593 0.19624551
-0.051407378 0.032498837 0.18087849
-0.05239711 0.03101995 0.18263181
-0.052793112 0.028504997 0.18439393
-0.053350303 0.025347315 0.18643518
-0.053911652 0.021969642 0.18927057
-0.054618903 0.018391123 0.19164956
-0.055381771 0.015052155 0.1934427
-0.056173783 0.01150893 0.19558302
-0.056650504 0.0074122837 0.19693871
-0.056476768 0.003822173 0.1987474
-0.047870092 0.034969617 0.1778421
-0.048505396 0.0331949 0.1790632
-0.048666224 0.031080583 0.18080075
-0.049072091 0.028593596 0.18269674
-0.050021548 0.025640197 0.18571375
-0.050344601 0.021544904 0.18960029
-0.051161002 0.017963978 0.19157359
-0.052086029 0.014699189 0.19354744
-0.053006738 0.011106381 0.19524159
-0.053669166 0.006865812 0.19642082
-0.05399869 0.0030790356 0.19841941
-0.054581061 0.00037072971 0.20109953
-0.054653574 -0.001689046 0.20346646
-0.054318108 -0.0025029725 0.20649979
-0.045307554 0.03609084 0.17727868
-0.045362532 0.033631276 0.17852405
-0.045630548 0.031342965 0.18043381
-0.046122335 0.029333163 0.18292309
-0.046751436 0.026490651 0.18562374
-0.047250494 0.020776909 0.19041055
-0.048268408 0.017059928 0.19265962
-0.049297292 0.013867451 0.19410288
-0.050497357 0.0097033968 0.1948166
-0.050869696 0.0055781165 0.19509752
-0.050935484 0.0023400213 0.19768052
-0.051156469 0.00029445748 0.20038067
-0.051719006 -0.0013772321 0.20416424
-0.052290242 -0.0028923461 0.20780963
-0.052521784 -0.0048545687 0.21113652
-0.051998138 -0.007918275 0.21453705
-0.042097557 0.039564338 0.17664556
-0.042589359 0.036974177 0.17754364
-0.042625997 0.034328878 0.17904551
-0.042766586 0.032107532 0.18098819
-0.043466114 0.029939832 0.18384026
-0.043915439 0.027156666 0.18637185
-0.044262238 0.021736769 0.18995149
-0.046020821 0.016420804 0.19282328
-0.046964467 0.012587916 0.19406286
-0.047899093 0.0080960356 0.1938424
-0.04810977 0.0035969608 0.19382945
-0.048195973 0.0011198806 0.19623688
-0.048035104 0.00048217038 0.20041366
-0.04843108 -0.0010914425 0.20495793
-0.04886486 -0.0028942039 0.2087526
-0.049397837 -0.0055826842 0.21164066
-0.049820427 -0.0085581979 0.21412882
-0.050196737 -0.011075587 0.21848097
-0.039309584 0.040967558 0.17695186
-0.040258974 0.037699893 0.17829734
-0.039842639 0.035184093 0.17976819
-0.040187273 0.032952495 0.18181612
-0.040606469 0.030631837 0.1842019
-0.04094623 0.027845319 0.18659763
-0.041466806 0.023467081 0.18950458
-0.043921795 0.015426797 0.19308215
-0.044387545 0.01137701 0.19394267
-0.044676252 0.0069516506 0.19334613
-0.044734973 0.002742873 0.19360058
-0.044663776 0.0010657891 0.19709621
-0.044565074 0.00062978407 0.20163517
-0.045077059 -0.00085394731 0.20585759
-0.045399576 -0.0030177939 0.20990178
-0.045712661 -0.0059950366 0.21276572
-0.046267617 -0.0087203067 0.21524949
-0.047158428 -0.011500898 0.21869549
-0.04752266 -0.015275153 0.22157778
-0.047106914 -0.018716795 0.22345744
-0.035624649 0.043139923 0.17536621
-0.036203254 0.041424148 0.17719202
-0.03557054 0.038623668 0.17877705
-0.036811922 0.036058143 0.17996861
-0.037344106 0.03371717 0.18216662
-0.037798528 0.031092672 0.18477196
-0.03769885 0.028215054 0.18709639
-0.03908306 0.023160387 0.19012479
-0.041099787 0.015266591 0.19308621
-0.041169465 0.011045457 0.19415726
-0.041172106 0.0066356845 0.19375524
-0.040978044 0.003115756 0.1950663
-0.040659938 0.0013892518 0.19896962
-0.040856559 0.00088668946 0.20296364
-0.041704308 -0.00045485821 0.20716405
-0.042141981 -0.003149613 0.21010551
-0.042601176 -0.0059543652 0.212431
-0.043388043 -0.0086739659 0.21472186
-0.043454073 -0.011684747 0.21734542
-0.04381375 -0.015415891 0.21988951
-0.044550713 -0.01923277 0.22288172
-0.044316966 -0.021845389 0.22464792
-0.03311567 0.043280777 0.17538814
-0.033151738 0.041674595 0.17719489
-0.033294052 0.039112028 0.17875813
-0.033689205 0.036367375 0.18005869
-0.034005228 0.033971865 0.1823252
-0.034525163 0.031298798 0.18552673
-0.034519073 0.028271947 0.18785584
-0.036220331 0.022975914 0.19068506
-0.038029108 0.016034532 0.1931728
-0.037456043 0.011114439 0.19482522
-0.037248839 0.0071575362 0.19478445
-0.036706325 0.0037399682 0.19651289
-0.036649719 0.0024242667 0.20045528
-0.037386075 0.0013151004 0.20430069
-0.038329087 -0.00035317856 0.20778216
-0.038946137 -0.0029099972 0.21014541
-0.039677631 -0.0055808113 0.2127946
-0.040225185 -0.0088376468 0.21491247
-0.039787237 -0.012081206 0.21687992
-0.039905723 -0.015603101 0.21890682
-0.040549066 -0.019304389 0.22173473
-0.040783051 -0.022202635 0.22452365
-0.030133499 0.043523595 0.17607389
-0.030232493 0.041950747 0.17736021
-0.030508397 0.039473839 0.17938966
-0.030884132 0.036569148 0.18145256
-0.031006629 0.034087606 0.18342115
-0.031357426 0.031278647 0.1862485
-0.031336807 0.027994167 0.18897557
-0.031839184 0.024126826 0.19108215
-0.034569249 0.01770691 0.19334251
-0.034124937 0.012114503 0.19568545
-0.032729376 0.0082728285 0.19781813
-0.03258168 0.005713746 0.20026143
-0.033460654 0.0038433047 0.2026706
-0.034173194 0.0017810438 0.20549588
-0.034874991 -0.00022283893 0.20853983
-0.035687018 -0.0026631837 0.21076293
-0.036253508 -0.0056020832 0.21349485
-0.036722124 -0.0088078408 0.21556987
-0.036321077 -0.011739033 0.2173882
-0.036138292 -0.014768693 0.2199218
-0.037036479 -0.019461872 0.2216851
-0.036819443 -0.022037789 0.22468959
-0.0271558 0.043825272 0.17659305
-0.027281066 0.042182103 0.17807472
-0.027500516 0.039608561 0.17998262
-0.027869562 0.037026115 0.18254615
-0.027997594 0.034338709 0.18448852
-0.028349765 0.031464171 0.18705896
-0.028394707 0.028244704 0.18963948
-0.028395563 0.024762014 0.19140545
-0.030564945 0.019598989 0.1939944
-0.030832224 0.013404244 0.19703701
-0.029339164 0.0097453175 0.200186
-0.029480897 0.0066027693 0.20274915
-0.02990162 0.0042147711 0.20451963
-0.030292315 0.0031742556 0.20572606
-0.031817716 -0.00060294539 0.2097608
-0.032233637 -0.0025847703 0.21168147
-0.033030476 -0.00542751 0.21433572
-0.033424176 -0.0085924109 0.21653354
-0.032787643 -0.011089392 0.21883135
-0.03281099 -0.014496934 0.22211325
-0.032698441 -0.018190764 0.22384045
-0.033381265 -0.021904115 0.2261693
-0.033564854 -0.023807883 0.22954638
-0.024145313 0.044136178 0.17781514
-0.024399396 0.042469814 0.17912671
-0.024430806 0.039782126 0.18042012
-0.024659451 0.037149854 0.1827452
-0.024970895 0.034587365 0.18515767
-0.025344621 0.031694617 0.18763588
-0.025301773 0.028612198 0.19049133
-0.025512323 0.024809634 0.19252081
-0.026656864 0.020761311 0.19511448
-0.02736979 0.014965146 0.19825317
-0.026216416 0.01103297 0.2021427
-0.02639582 0.0079354616 0.20456026
-0.026635375 0.0052941712 0.20705901
-0.02707874 0.0031885523 0.20928948
-0.027839957 0.00071450527 0.21181472
-0.02904767 -0.0020101541 0.21369144
-0.029792223 -0.0051851785 0.21622372
-0.029899845 -0.0081282463 0.21899036
-0.029270891 -0.011186425 0.22087702
-0.029330697 -0.014781914 0.22355431
-0.02959979 -0.01850209 0.22568037
-0.030117407 -0.02221573 0.22777468
-0.030563636 -0.024474084 0.23065826
-0.022002323 0.044573378 0.17821999
-0.021585375 0.042509962 0.1802884
-0.021293322 0.040182933 0.18161148
-0.021405427 0.037425488 0.18313822
-0.021653503 0.034818202 0.18594232
-0.022217099 0.032116022 0.18813582
-0.022390468 0.028708532 0.19122057
-0.022450406 0.025027901 0.19396557
-0.022892728 0.021142207 0.19632082
-0.023361042 0.016041407 0.19978404
-0.023461759 0.0123435 0.20340416
-0.023336934 0.0091978572 0.20600265
-0.023597147 0.006586534 0.2085744
-0.024273185 0.0039808466 0.21134105
-0.025017764 0.0013405483 0.21372722
-0.02534502 -0.0014745571 0.21566918
-0.025810461 -0.0044064326 0.21850155
-0.026080439 -0.0076832883 0.22146378
-0.025893211 -0.011523526 0.22215319
-0.026262173 -0.015524201 0.22500102
-0.026282579 -0.01895177 0.22674681
-0.026733277 -0.022760181 0.2285662
-0.027109371 -0.025535665 0.23166274
-0.018180257 0.04260296 0.18176116
-0.01885926 0.039937966 0.18330933
-0.018355345 0.037715107 0.18461441
-0.018556464 0.035083752 0.18661644
-0.019095011 0.032375872 0.18897352
-0.019554527 0.029292155 0.19154924
-0.019351358 0.025273507 0.19546773
-0.019558752 0.020802384 0.19779184
-0.020289594 0.016904829 0.20072471
-0.020450024 0.013752603 0.20393236
-0.020359628 0.010603646 0.20689201
-0.020580372 0.007734389 0.20989749
-0.021016 0.0046882713 0.21280135
-0.021400006 0.0019722395 0.21531039
-0.02166507 -0.0011084786 0.21765874
-0.022063015 -0.0041205948 0.22107036
-0.022448659 -0.0076041985 0.22339714
-0.022353956 -0.01170265 0.22399291
-0.022799147 -0.016194237 0.22655453
-0.022713453 -0.019482788 0.22691359
-0.022982813 -0.023108583 0.22798899
-0.023574509 -0.025917929 0.23175585
-0.015824813 0.04078193 0.18446636
-0.015512134 0.037923638 0.18587087
-0.015825361 0.035181411 0.18743873
-0.016094299 0.032487787 0.18948749
-0.016332855 0.029330147 0.19176434
-0.016542727 0.026016308 0.19631217
-0.016840018 0.020642484 0.19951063
-0.017119288 0.017618129 0.20233804
-0.017166244 0.014697164 0.20485057
-0.017453831 0.011972873 0.20816404
-0.017245997 0.0089410627 0.21077889
-0.017350383 0.0052903863 0.21357647
-0.017602699 0.0020238629 0.21653128
-0.017748903 -0.0010371562 0.21970466
-0.018151946 -0.0041072732 0.22268458
-0.018694898 -0.0075909784 0.2248373
-0.018739371 -0.011502897 0.22559737
-0.018952131 -0.015366795 0.22671705
-0.019259045 -0.018887153 0.22776391
-0.019416431 -0.02266724 0.22949713
-0.020036178 -0.026136961 0.2334249
-0.012978371 0.037942 0.1868898
-0.012770555 0.03543894 0.18827856
-0.012998352 0.0326364 0.19023883
-0.013239354 0.029454645 0.19169693
-0.013359519 0.026167147 0.19593893
-0.014063937 0.021961382 0.20036064
-0.014356604 0.018377049 0.20418637
-0.014388354 0.015823415 0.20692094
-0.014309474 0.012932805 0.20958608
-0.014012094 0.0096933814 0.21198502
-0.013884792 0.0057295952 0.21468219
-0.014030138 0.0023740756 0.21755882
-0.014242548 -0.0007136116 0.22049102
-0.0142891 -0.0041419575 0.22335739
-0.014508087 -0.0077130692 0.22498445
-0.014841649 -0.011465271 0.22570984
-0.015090561 -0.015125457 0.22712237
-0.015466173 -0.018837743 0.22857083
-0.016143868 -0.022778727 0.231608
-0.016124375 -0.025803128 0.2351376
-0.010331552 0.035140187 0.1888559
-0.0098611005 0.032633912 0.19055702
-0.009882207 0.02936708 0.19258881
-0.010170978 0.026091756 0.19606903
-0.011100531 0.02231078 0.20053993
-0.011024491 0.01888719 0.20464344
-0.011009093 0.016230261 0.20747346
-0.010874403 0.013408973 0.20991631
-0.01062381 0.010370838 0.21199934
-0.010336875 0.0067295814 0.21512581
-0.010334501 0.0028666016 0.217998
-0.010429035 -0.00053859659 0.22096877
-0.010516927 -0.0040895874 0.22311004
-0.010616152 -0.0078121526 0.22486946
-0.010793493 -0.011479598 0.22456473
-0.010985686 -0.015332344 0.22757734
-0.011066896 -0.018618992 0.22927138
-0.011500997 -0.023564342 0.23399238
-0.0069240234 0.031679604 0.19222975
-0.0069258944 0.028902082 0.19444731
-0.0074464963 0.025292352 0.1973899
-0.0081585152 0.022927122 0.19962457
-0.0074478718 0.018712541 0.2043494
-0.0072623813 0.016310949 0.20695804
-0.0070123924 0.013656438 0.2095011
-0.0065817432 0.010677991 0.21185093
-0.006747378 0.007482159 0.21521524
-0.0067107026 0.0033754723 0.2185261
-0.006808525 -0.00033007172 0.22199276
-0.0067322664 -0.0040303697 0.222755
-0.0067836428 -0.0077353991 0.22457027
-0.0068773399 -0.011469346 0.22491987
-0.0069941608 -0.015332259 0.22736929
-0.0078924941 -0.018942667 0.22968303
-0.0091114556 -0.022017777 0.23187137
-0.0037918021 0.028164465 0.19594133
-0.0042157848 0.024741553 0.19751751
-0.0034719515 0.021329589 0.19917899
-0.0038420316 0.019046934 0.20267721
-0.0033571518 0.016405182 0.20608109
-0.0030339572 0.014039537 0.20913553
-0.0026798293 0.011266941 0.21213178
-0.0028852562 0.0038031875 0.21857539
-0.0029323276 -0.00029254251 0.22186522
-0.0030109831 -0.0040923283 0.22246026
-0.0030439741 -0.0078598913 0.22373444
-0.0037037183 -0.011477471 0.22455211
-0.0044823722 -0.014639436 0.22686124
-0.0011046081 0.02692881 0.19625671
-0.0012143366 0.024264261 0.19711241
-0.0010116647 0.021444507 0.1986296
-0.00022532287 0.019455666 0.2019556
0.0003864397 0.016943015 0.2057827
0.00062028895 0.014425894 0.20897065
0.00091154553 0.011964809 0.21194917
0.0007445566 0.0092238039 0.21486214
0.00098696258 0.0053589018 0.21729913
0.00022058008 0.00020493146 0.22039673
-0.00032012755 -0.0036600439 0.22219576
0.0012576545 0.023608038 0.19674183
0.0023253227 0.021628994 0.19787566
0.0031092104 0.019737147 0.20134358
0.003347852 0.017412705 0.20523565
0.0033932843 0.015018328 0.20843969
0.0034000129 0.013323708 0.21088412
0 0 0 1 0 0 0 1 0 0 0 1 0 0 0 0 0 348 1 0 0
