ply
format ascii 1.0
comment PCL generated
element vertex 348
property float x
property float y
property float z
element camera 1
property float view_px
property float view_py
property float view_pz
property float x_axisx
property float x_axisy
property float x_axisz
property float y_axisx
property float y_axisy
property float y_axisz
property float z_axisx
property float z_axisy
property float z_axisz
property float focal
property float scalex
property float scaley
property float centerx
property float centery
property int viewportx
property int viewporty
property float k1
property float k2
end_header
-0.055817541 0.027714923 0.1856117
-0.056713495 0.025304871 0.1874043
-0.057198614 0.022055762 0.18978395
-0.05756589 0.018687043 0.19208947
-0.057956837 0.015214007 0.19419253
-0.057936806 0.012078376 0.19548401
-0.057824295 0.008921314 0.19695602
-0.051901616 0.030310759 0.18220297
-0.053070903 0.028518597 0.18315096
-0.053289223 0.025667217 0.18463336
-0.053803504 0.022392079 0.18696378
-0.054232217 0.018599449 0.1897928
-0.054836251 0.014825652 0.1920253
-0.055487547 0.01128403 0.19398423
-0.055833716 0.0081240227 0.19632794
-0.055374458 0.0044747456 0.19815229
-0.055160321 0.0010506902 0.20018618
-0.048245747 0.033675853 0.18026911
-0.048922282 0.031693365 0.18095089
-0.04913114 0.02916597 0.18165706
-0.04966557 0.026315996 0.18258858
-0.050495714 0.022714902 0.18565676
-0.050858803 0.017664205 0.18939321
-0.051625594 0.013687001 0.19113244
-0.052334044 0.010417538 0.19318779
-0.052475896 0.0069978191 0.19570416
-0.05273224 0.0032541666 0.19766498
-0.053145692 -8.6097185e-05 0.19950145
-0.05364785 -0.0022065281 0.20236929
-0.053398505 -0.0037280146 0.20481363
-0.053104293 -0.004957818 0.20636107
-0.045855373 0.034925774 0.17958944
-0.045913164 0.032271359 0.18014847
-0.046154346 0.029629068 0.18105289
-0.046584658 0.027015006 0.18247181
-0.047195621 0.023472682 0.18431142
-0.047962628 0.016052226 0.18883932
-0.048880491 0.011981053 0.19112858
-0.049580209 0.0088128773 0.19307032
-0.049932919 0.0047648535 0.19537877
-0.050420478 0.0010896708 0.19615875
-0.050537657 -0.0016043236 0.19851513
-0.050518136 -0.0028294469 0.20102972
-0.050488118 -0.0036924738 0.20475937
-0.051098555 -0.0056957616 0.20726651
-0.051527578 -0.00819695 0.20994133
-0.050955534 -0.011571801 0.21299624
-0.042630784 0.03842723 0.17858088
-0.043046802 0.0357925 0.17966139
-0.043075778 0.032849491 0.18042272
-0.04327317 0.030188043 0.18133397
-0.043845125 0.02728028 0.18294272
-0.044229262 0.023846051 0.18433128
-0.045096602 0.016626136 0.18693085
-0.046930015 0.010722794 0.19073707
-0.047428682 0.0067854696 0.19292872
-0.047810793 0.0022827 0.19474734
-0.048317183 -0.0020578473 0.19482604
-0.048476908 -0.0033676692 0.19665797
-0.047466185 -0.0029388962 0.20026897
-0.047160935 -0.0040476685 0.20455441
-0.047409926 -0.0061399518 0.20769414
-0.048332922 -0.0091870632 0.21014029
-0.049027409 -0.012290946 0.2124843
-0.049822923 -0.01438037 0.21690387
-0.039852511 0.039800014 0.17815633
-0.040763542 0.03646807 0.18013683
-0.04023863 0.033510201 0.18102422
-0.040580355 0.030776218 0.18193707
-0.040956587 0.027898364 0.18321474
-0.041174363 0.024477841 0.18442269
-0.041945115 0.018934155 0.1858836
-0.045185085 0.0093340799 0.19063923
-0.045301341 0.0051437803 0.19251849
-0.045232553 0.00033996819 0.19334881
-0.04562569 -0.0034533178 0.19345643
-0.044981807 -0.0041396753 0.19646393
-0.043917008 -0.0033101814 0.20041467
-0.043794323 -0.004536781 0.20440722
-0.043963037 -0.0069978987 0.20790565
-0.044496737 -0.010138605 0.21048158
-0.045651287 -0.012742945 0.21308702
-0.047031369 -0.014296505 0.21758507
-0.047289547 -0.016819196 0.22163832
-0.046654448 -0.019448163 0.22431938
-0.03624374 0.04212825 0.17657398
-0.036787912 0.0404891 0.17843702
-0.036227591 0.038005531 0.18058363
-0.037269048 0.035012588 0.18160591
-0.037632175 0.031801198 0.1824847
-0.038013157 0.028308386 0.1837835
-0.037736323 0.024886655 0.18471323
-0.039450061 0.018627632 0.18626952
-0.04281719 0.0089813806 0.1902028
-0.042567708 0.0046856841 0.1918077
-0.042148814 -7.7087636e-05 0.19192138
-0.04166567 -0.0032759188 0.19345658
-0.040613558 -0.0037696597 0.19712116
-0.040171005 -0.0034806796 0.20021982
-0.040243406 -0.0052696201 0.20404835
-0.040762797 -0.0081838807 0.20653413
-0.041867595 -0.010702405 0.20891236
-0.043453638 -0.012601182 0.21174204
-0.043351956 -0.014441095 0.21647196
-0.043352842 -0.017247245 0.22027183
-0.044075817 -0.020040909 0.2239307
-0.043727845 -0.022269284 0.22580238
-0.033769257 0.042526152 0.17676327
-0.033749152 0.040931415 0.17871574
-0.033849906 0.038418107 0.18069339
-0.034154199 0.035418414 0.18161075
-0.034159169 0.032368768 0.18277395
-0.034357902 0.028739331 0.18473254
-0.034036294 0.02505601 0.18545713
-0.03679299 0.017870432 0.18677981
-0.039866254 0.0097922366 0.18960276
-0.038893972 0.0050931559 0.19166282
-0.038421616 0.00097459304 0.19187813
-0.037174843 -0.0020551758 0.19360417
-0.036282044 -0.0024713753 0.19719338
-0.03626867 -0.0041870433 0.20011069
-0.036987275 -0.0061646318 0.20309423
-0.037563324 -0.0084590362 0.20554258
-0.038988207 -0.010460181 0.20924276
-0.040634647 -0.012638726 0.21241006
-0.040046509 -0.014474502 0.21623962
-0.039745141 -0.017187908 0.21956255
-0.04011146 -0.020184984 0.22288597
-0.040387653 -0.022881396 0.22528599
-0.030831795 0.042813335 0.1772463
-0.030867994 0.041304711 0.1786999
-0.031103086 0.038660098 0.18113616
-0.031189032 0.035293039 0.18247056
-0.030978078 0.032362565 0.18341339
-0.030932764 0.028916042 0.18523845
-0.030735703 0.024894802 0.18697877
-0.031365164 0.020356707 0.18809883
-0.036171433 0.011697473 0.18898392
-0.035229679 0.0064574792 0.19184965
-0.032886121 0.0034978886 0.19411871
-0.032372545 0.0015252579 0.19655859
-0.03307816 -0.00067689939 0.19916736
-0.033173598 -0.003074676 0.20151745
-0.033765942 -0.0054246439 0.20445421
-0.034487739 -0.0077303904 0.20693325
-0.035934396 -0.0097367652 0.21051893
-0.037492577 -0.012057154 0.21396619
-0.037072133 -0.013783107 0.21677604
-0.036475774 -0.016274424 0.21977744
-0.036897227 -0.020296039 0.22208208
-0.03630133 -0.022939017 0.22448252
-0.027862091 0.043314334 0.17784968
-0.027939152 0.041656248 0.17933084
-0.02803386 0.0389512 0.18143134
-0.028032599 0.035691142 0.1831293
-0.027832074 0.032620709 0.18412305
-0.028060442 0.029343762 0.18632825
-0.028068675 0.025561431 0.18835528
-0.027878009 0.022049787 0.18961611
-0.030862434 0.015013845 0.18982947
-0.03124612 0.0080330009 0.19235811
-0.028172242 0.0052213264 0.19558385
-0.028076682 0.0026016112 0.19846056
-0.028963078 0.00044870915 0.20083156
-0.029896535 -0.00055230886 0.20249093
-0.031299934 -0.0044112229 0.20640332
-0.031698465 -0.0062928894 0.20848903
-0.033057723 -0.0087021021 0.21199054
-0.034413766 -0.011166139 0.21531419
-0.033426721 -0.012920021 0.2178081
-0.033019051 -0.015755143 0.22174354
-0.032523036 -0.01902158 0.22352096
-0.032938495 -0.022829786 0.22556235
-0.032886907 -0.024818774 0.22852108
-0.024921607 0.043687221 0.17885131
-0.025038095 0.041978799 0.1801966
-0.024905687 0.039333574 0.18150087
-0.024836749 0.036084946 0.18323182
-0.024865448 0.033023015 0.18491507
-0.025215281 0.029811369 0.18737213
-0.025367457 0.026195191 0.18967956
-0.025351791 0.022510869 0.19115655
-0.026255885 0.01790869 0.19281358
-0.027143274 0.010601874 0.19363016
-0.024285026 0.0071203485 0.19751078
-0.024079869 0.0041030571 0.20003566
-0.024172943 0.0017100018 0.20280927
-0.025332017 -0.00019159992 0.20561714
-0.027141657 -0.0024072693 0.20863293
-0.028782077 -0.0050480282 0.21085788
-0.02984306 -0.0077788122 0.21386889
-0.029931454 -0.010204076 0.21708997
-0.02942384 -0.012699837 0.21950918
-0.029487981 -0.015788522 0.22306404
-0.029390564 -0.019295916 0.22499283
-0.029620219 -0.023021774 0.22694711
-0.029883668 -0.025264567 0.22989509
-0.02278161 0.044243567 0.17920578
-0.022101043 0.042219695 0.18115997
-0.021587856 0.039829619 0.18236242
-0.021453306 0.036690727 0.18365648
-0.021561464 0.033431679 0.18592569
-0.022182122 0.03062783 0.18811437
-0.022635534 0.026866563 0.19080722
-0.022645865 0.023108378 0.19306758
-0.022684881 0.019557061 0.19527335
-0.022535721 0.01509557 0.1976397
-0.02184779 0.0099653509 0.19987059
-0.021140028 0.0061334344 0.20206684
-0.021551469 0.0035038691 0.20477155
-0.022716021 0.00080016855 0.20770632
-0.0240604 -0.0015550555 0.21052594
-0.02497765 -0.0039268434 0.2130571
-0.025671963 -0.0065361569 0.21594636
-0.025673416 -0.0094633922 0.21921346
-0.025838153 -0.012806253 0.22089615
-0.026415784 -0.016335862 0.2243547
-0.026047248 -0.019695209 0.22569749
-0.026262958 -0.023527969 0.22771575
-0.026455237 -0.026030635 0.23069489
-0.018469147 0.042199012 0.18234092
-0.018821584 0.039319284 0.18372163
-0.018073605 0.036706313 0.18473749
-0.018406101 0.033878233 0.1866677
-0.019007295 0.03118429 0.18911508
-0.019661792 0.028180858 0.19158134
-0.019690078 0.023910243 0.19484957
-0.019553989 0.020114318 0.19685224
-0.019789597 0.016331905 0.19895603
-0.019546727 0.01261232 0.2013063
-0.019027052 0.0087188361 0.20369883
-0.019032616 0.005161982 0.20669319
-0.019771496 0.0019214064 0.20963582
-0.020714493 -0.00055112637 0.21269324
-0.021428261 -0.0031832899 0.21536231
-0.021947674 -0.0060465904 0.21860376
-0.022152483 -0.009195351 0.22120339
-0.022220131 -0.012797754 0.22280413
-0.022938043 -0.016786946 0.22583953
-0.022567153 -0.020249762 0.22558542
-0.022712233 -0.023778185 0.22692658
-0.02315028 -0.026434485 0.23085523
-0.015699491 0.040041585 0.18485749
-0.015226826 0.037170984 0.18617724
-0.015496673 0.034305822 0.18781622
-0.015883921 0.031631503 0.18998651
-0.0159152 0.028487762 0.19229864
-0.01590633 0.024458082 0.19598396
-0.016741768 0.020400744 0.19843937
-0.016660092 0.017086929 0.20061265
-0.016426006 0.013715424 0.20257936
-0.016375694 0.010472427 0.20581082
-0.016408334 0.0073227561 0.20858334
-0.016891211 0.0035938208 0.21159042
-0.01750976 0.00026252645 0.21472213
-0.018032404 -0.0026133044 0.21810387
-0.018537765 -0.0054587182 0.2213535
-0.018739644 -0.0086842952 0.22315525
-0.018634927 -0.012333428 0.22430246
-0.019043626 -0.016136341 0.22609559
-0.019141862 -0.019644309 0.22670618
-0.01919793 -0.023469377 0.22849639
-0.01968538 -0.026569556 0.23250993
-0.012662441 0.037397988 0.18742046
-0.012413043 0.034826871 0.18896249
-0.012632946 0.032052472 0.19101948
-0.012561947 0.028849835 0.19260636
-0.011780988 0.025048034 0.19632937
-0.011923486 0.021052919 0.19958319
-0.013274873 0.017380357 0.20255996
-0.013476711 0.014444064 0.20482576
-0.013632121 0.011874624 0.20781566
-0.013766389 0.0089330813 0.21060127
-0.014133763 0.0049010972 0.21370715
-0.01432586 0.0011938534 0.21667284
-0.014748102 -0.0016083802 0.21993543
-0.015006592 -0.0045408886 0.22329491
-0.014940795 -0.0079219248 0.22491808
-0.015133853 -0.012073197 0.22531773
-0.01535185 -0.015818285 0.22714178
-0.01545155 -0.019531546 0.22819529
-0.015987705 -0.023375604 0.23068954
-0.015852405 -0.026196579 0.23436217
-0.010046587 0.034808569 0.18979472
-0.0094650937 0.03239001 0.19183347
-0.0088448869 0.029107148 0.19397409
-0.0082598478 0.025373122 0.19699228
-0.0086176023 0.021542225 0.20061168
-0.0095335608 0.018252872 0.20395046
-0.010240961 0.015496071 0.2067087
-0.010558522 0.012980388 0.20926702
-0.010661715 0.010245522 0.21161661
-0.011078279 0.0067820735 0.21527202
-0.010838093 0.0023547809 0.21794623
-0.010868959 -0.00071216159 0.22104454
-0.010931712 -0.0041430662 0.22358127
-0.01089297 -0.0077127237 0.22555009
-0.010878148 -0.011646344 0.22547595
-0.011287771 -0.015579727 0.22847401
-0.011340274 -0.018835437 0.22989771
-0.011706731 -0.023845956 0.23393857
-0.0057078535 0.031675879 0.19390142
-0.0051076603 0.02873995 0.195866
-0.0050684237 0.024651686 0.19836545
-0.0058129183 0.022584736 0.2007848
-0.0059597036 0.018653614 0.20504604
-0.006579225 0.016253915 0.20758642
-0.0069607864 0.013884326 0.2102329
-0.0068140859 0.011146173 0.21300466
-0.0075210794 0.0080606611 0.21616462
-0.0070982366 0.0031691627 0.21874213
-0.0072385231 -0.00029149515 0.22243811
-0.0069478648 -0.0040399157 0.22329526
-0.0069712726 -0.0077205752 0.22540741
-0.0069395741 -0.011589944 0.2259856
-0.0072195181 -0.01533972 0.228604
-0.0082128793 -0.018915312 0.23084573
-0.0094750375 -0.022194942 0.23269947
-0.0015988669 0.027987853 0.19769415
-0.0018047038 0.024580194 0.19910707
-0.0009380565 0.021616789 0.20138536
-0.0018359198 0.019071111 0.20465828
-0.0022127926 0.016380765 0.20786385
-0.002335907 0.014043904 0.21083857
-0.0024270692 0.011323726 0.21383432
-0.0032621834 0.0035998754 0.21909942
-0.0032597668 -0.00015841129 0.22245987
-0.0031515285 -0.0040582321 0.22319493
-0.0031519192 -0.0079161255 0.22476643
-0.0037584454 -0.011649558 0.22585072
-0.0046589407 -0.014685049 0.22823048
0.0010912805 0.027031478 0.19844367
0.001257741 0.024491418 0.19950493
0.0016053497 0.021686323 0.20152067
0.0018243819 0.018994013 0.20452543
0.0017469398 0.016119877 0.20759638
0.0015143201 0.013667036 0.21076795
0.0013509576 0.011275161 0.2136378
0.00073258497 0.0086052064 0.21653897
0.00071670592 0.0045659519 0.21837515
5.8506248e-05 0.00018105781 0.22106479
-0.00041019404 -0.0038101242 0.22306029
0.0036880763 0.024190886 0.19990955
0.0050029201 0.022036063 0.20176092
0.0050188224 0.018940365 0.20459062
0.0046665715 0.016159628 0.20720768
0.0044205873 0.013884439 0.21018305
0.0041308384 0.012153275 0.21267223
0 0 0 1 0 0 0 1 0 0 0 1 0 0 0 0 0 348 1 0 0
