ply
format ascii 1.0
comment PCL generated
element vertex 348
property float x
property float y
property float z
element camera 1
property float view_px
property float view_py
property float view_pz
property float x_axisx
property float x_axisy
property float x_axisz
property float y_axisx
property float y_axisy
property float y_axisz
property float z_axisx
property float z_axisy
property float z_axisz
property float focal
property float scalex
property float scaley
property float centerx
property float centery
property int viewportx
property int viewporty
property float k1
property float k2
end_header
-0.056893673 0.023591487 0.18788777
-0.057308804 0.021181613 0.18974166
-0.057624564 0.018089762 0.19153343
-0.057873826 0.015145989 0.19325933
-0.058080688 0.012364053 0.19498771
-0.05814451 0.0097890785 0.19660465
-0.057875115 0.0072098724 0.19816391
-0.05379511 0.025321487 0.18391833
-0.054676943 0.024325239 0.18501231
-0.05453353 0.021726407 0.18662256
-0.054717891 0.01847625 0.18861596
-0.054948363 0.015079129 0.19049653
-0.055503316 0.011913962 0.19238366
-0.056130778 0.0090605933 0.19481353
-0.056155022 0.0057593076 0.19651835
-0.055300783 0.0017627056 0.19697925
-0.055159736 -0.0008888818 0.19943292
-0.050889857 0.027362961 0.18099138
-0.051418535 0.025881954 0.18221244
-0.051555727 0.024040718 0.18338406
-0.051823758 0.022028239 0.18482487
-0.051870774 0.018743273 0.18677662
-0.051776808 0.014583847 0.18892524
-0.052235253 0.011162196 0.19057833
-0.052660782 0.0078702029 0.19278878
-0.053385761 0.0037639991 0.19391854
-0.05317568 1.7673463e-05 0.19648321
-0.053523723 -0.0022332214 0.19939847
-0.054179408 -0.0034162928 0.20243658
-0.053913448 -0.004309719 0.20476331
-0.053643893 -0.004525213 0.20622164
-0.048407637 0.028231455 0.1798296
-0.048742842 0.026338371 0.18086734
-0.049075589 0.024357816 0.1822499
-0.049413547 0.022261119 0.18387423
-0.049545541 0.019132532 0.18593597
-0.049136084 0.013372927 0.18738683
-0.04957315 0.0096512949 0.18940565
-0.050237633 0.0059860563 0.19090736
-0.052167431 0.00038767522 0.19282402
-0.051679261 -0.0026420578 0.1957531
-0.051159393 -0.0043226699 0.19794394
-0.051168881 -0.0047093611 0.20065318
-0.051314786 -0.0042117345 0.20425886
-0.05166826 -0.004323768 0.20757301
-0.051845357 -0.0056313965 0.21091323
-0.051075798 -0.0079410067 0.21511085
-0.045241788 0.031358726 0.1783471
-0.045564625 0.029355876 0.17916965
-0.046052922 0.026994711 0.18045634
-0.046552811 0.024941055 0.18181354
-0.047015432 0.022554902 0.18337379
-0.047265306 0.019378953 0.1849166
-0.04705077 0.014017311 0.1860065
-0.04802965 0.0083534811 0.18830715
-0.049468793 0.0035315081 0.18949106
-0.051109619 -0.0027748269 0.19272244
-0.050842572 -0.0067358264 0.19488785
-0.050146963 -0.0072309575 0.19667958
-0.048916727 -0.0051853564 0.19898531
-0.048115194 -0.0042833202 0.20392311
-0.04809384 -0.0046486082 0.20762064
-0.048667148 -0.0067242836 0.2111191
-0.049427737 -0.0090753008 0.2145191
-0.050469112 -0.012156134 0.21837607
-0.042951807 0.033516202 0.1782251
-0.043253601 0.030256901 0.17942233
-0.04302977 0.027942004 0.1803281
-0.043972261 0.025606966 0.18162367
-0.04429708 0.023281917 0.18269224
-0.044406451 0.020226758 0.18376191
-0.044719402 0.015770454 0.18479694
-0.047072284 0.0077520721 0.18716967
-0.049332719 0.0011795608 0.18828878
-0.049570274 -0.0060448619 0.19181457
-0.048602168 -0.0085929548 0.19392644
-0.047097418 -0.0075107487 0.19633716
-0.046068214 -0.0052168071 0.19827773
-0.045145549 -0.0045979032 0.20338501
-0.044680551 -0.0052924762 0.20743914
-0.044568185 -0.0070178527 0.21104603
-0.046146292 -0.0097973365 0.21422195
-0.048390046 -0.013555098 0.2181413
-0.048773173 -0.017512979 0.22078377
-0.048321005 -0.02042786 0.22216997
-0.039452359 0.039359983 0.17738523
-0.040043592 0.036198676 0.17897423
-0.038644996 0.033129856 0.1802424
-0.039710745 0.030456699 0.18078427
-0.040139113 0.027735187 0.18148635
-0.040985025 0.02424513 0.18227559
-0.040942643 0.021004982 0.18274444
-0.042455673 0.016134739 0.18408316
-0.045913935 0.0077771964 0.18548843
-0.047692001 0.0022655998 0.18503042
-0.047278166 -0.0072515076 0.1902263
-0.045059763 -0.0086033447 0.19343272
-0.043643318 -0.0067505524 0.19612715
-0.043377366 -0.0054418016 0.19725749
-0.042540021 -0.0053300019 0.20152301
-0.042716447 -0.0065683066 0.20534427
-0.043659821 -0.00789838 0.20843297
-0.045025468 -0.0090960888 0.21182759
-0.045325026 -0.014016433 0.21601164
-0.045318287 -0.018038763 0.2190983
-0.045978587 -0.021596821 0.22169425
-0.045290116 -0.024022197 0.22275686
-0.03675222 0.040874321 0.1768793
-0.036311701 0.039071936 0.1787152
-0.03615303 0.034547694 0.18019468
-0.036735971 0.031809501 0.18090025
-0.036214452 0.029437523 0.18166594
-0.036030479 0.02593792 0.18304059
-0.036470238 0.022973383 0.18333086
-0.040059302 0.016948501 0.18371914
-0.044088002 0.0092834095 0.18397258
-0.044829153 0.0042465106 0.18168047
-0.043095585 -0.0085002705 0.18881464
-0.041521542 -0.0094250999 0.19236162
-0.041032374 -0.0073162066 0.19299991
-0.040483404 -0.0057713259 0.19573483
-0.040538561 -0.0063230554 0.19981773
-0.041269287 -0.0073790411 0.20263562
-0.042347621 -0.0085912533 0.20697354
-0.043595359 -0.010165034 0.21083958
-0.04258002 -0.014874363 0.21423183
-0.041939951 -0.018678805 0.21744834
-0.042162485 -0.021832803 0.22043231
-0.042179283 -0.02446476 0.22215241
-0.033536289 0.041649949 0.17697716
-0.033288892 0.039937381 0.17865549
-0.033524692 0.034983523 0.18089886
-0.03357457 0.031668752 0.18178606
-0.032946385 0.029713916 0.18256029
-0.032736313 0.026840501 0.18353952
-0.0337548 0.022808628 0.18390408
-0.034619018 0.01943827 0.18355891
-0.041108157 0.012005881 0.18276268
-0.040653422 0.0059642317 0.18044086
-0.039435167 0.0020517942 0.17981918
-0.038323481 -0.0067946506 0.186024
-0.037751049 -0.0061323382 0.19100064
-0.037500553 -0.0047404948 0.1949216
-0.037376858 -0.005794799 0.19963454
-0.038289379 -0.0076273992 0.20293345
-0.039670046 -0.009667974 0.20678051
-0.040868204 -0.012316022 0.21052586
-0.039943822 -0.01617948 0.21350594
-0.038586643 -0.019583808 0.21715339
-0.039090905 -0.022551019 0.21970299
-0.038608424 -0.024343016 0.22150175
-0.030627651 0.041953623 0.17744339
-0.030249508 0.040140726 0.17911702
-0.030453226 0.03561718 0.18147603
-0.030484729 0.032417383 0.18263625
-0.029939184 0.030304456 0.18346284
-0.030240981 0.027107395 0.18436904
-0.030810159 0.023687366 0.18488055
-0.030616621 0.021046089 0.18482308
-0.03493965 0.015361409 0.18283087
-0.035960387 0.0078210142 0.1806162
-0.032471839 0.0049892669 0.18232608
-0.032350842 0.0013988605 0.18511195
-0.033658382 -0.0023665193 0.18908308
-0.034163505 -0.0031895877 0.1925738
-0.034529813 -0.0060255509 0.20134909
-0.035257973 -0.0080570383 0.20375982
-0.03689602 -0.011239499 0.20694812
-0.037799425 -0.014451057 0.21032965
-0.035829794 -0.017081134 0.21403362
-0.034953412 -0.019221526 0.21841611
-0.034809332 -0.021487139 0.22027268
-0.035302397 -0.02422113 0.22247227
-0.034883283 -0.025451731 0.22508414
-0.027431892 0.042210914 0.17813581
-0.027105417 0.040470373 0.17955214
-0.026573328 0.037506301 0.18141659
-0.027287312 0.033721607 0.18294623
-0.02711379 0.030885639 0.1842209
-0.027379055 0.02747152 0.1854313
-0.027988629 0.024340261 0.18588156
-0.028381841 0.02134862 0.18578924
-0.029728053 0.016816366 0.18521987
-0.030982394 0.010347009 0.18263258
-0.02693847 0.0061539537 0.18690069
-0.026550677 0.0030684313 0.19037047
-0.02611596 4.3872966e-05 0.1951102
-0.027568763 -0.0036868558 0.20182155
-0.03002519 -0.0061326977 0.20520654
-0.032054137 -0.0089899674 0.20715448
-0.033820305 -0.01267576 0.20987061
-0.033147953 -0.015400333 0.21435125
-0.032266866 -0.017500697 0.21728875
-0.032322932 -0.019634379 0.21981941
-0.032228056 -0.02182165 0.2215744
-0.032308154 -0.024017626 0.22355089
-0.031960402 -0.024799181 0.22595769
-0.025233602 0.042836241 0.17834893
-0.023687253 0.041045174 0.18021987
-0.022649769 0.038799573 0.1816214
-0.022889454 0.035398308 0.18349279
-0.023530599 0.031702846 0.185405
-0.023894917 0.028562052 0.18696266
-0.025232492 0.024904005 0.18707673
-0.026217733 0.021331593 0.18720695
-0.026089065 0.017831316 0.18797524
-0.02462147 0.014606663 0.18868905
-0.022628717 0.0090289973 0.19049853
-0.022502802 0.004574873 0.19357894
-0.023052393 0.00098046754 0.19781406
-0.024556411 -0.0035104051 0.2037833
-0.026607735 -0.0062350403 0.20807707
-0.02818289 -0.0092442585 0.21156594
-0.029009026 -0.012767239 0.21526246
-0.029023364 -0.015674731 0.21881323
-0.02964399 -0.018587954 0.22051618
-0.03037174 -0.020332439 0.22137006
-0.029708821 -0.02192059 0.22208744
-0.029102907 -0.023330035 0.22382912
-0.02876512 -0.024855873 0.22650301
-0.019443067 0.041485567 0.18168972
-0.019437036 0.038719755 0.18316036
-0.018097224 0.035682473 0.18470064
-0.018812656 0.032648917 0.18634044
-0.019548625 0.029822189 0.18836495
-0.020411247 0.026575552 0.18983737
-0.023435524 0.021529922 0.1897548
-0.023546033 0.018858766 0.19029358
-0.022741452 0.01621769 0.1912979
-0.021289807 0.012348211 0.19216122
-0.020054879 0.0072731413 0.19464995
-0.020063365 0.0017521762 0.20066576
-0.021086037 -0.0034552729 0.20627256
-0.022821065 -0.0072177411 0.21249744
-0.023931559 -0.010051885 0.21576951
-0.02458927 -0.013092477 0.2192142
-0.025656842 -0.015810067 0.22094622
-0.026355518 -0.018337008 0.22237341
-0.027455151 -0.020286098 0.22313504
-0.026809253 -0.021892253 0.22251664
-0.02616268 -0.023553912 0.22369245
-0.025881216 -0.025098709 0.22671807
-0.015615251 0.038869396 0.18436243
-0.014634081 0.035968605 0.1857048
-0.014921408 0.033244416 0.18727161
-0.015235539 0.030788673 0.18913493
-0.014556142 0.028197853 0.19143625
-0.014550863 0.024966525 0.1943561
-0.020705646 0.020340972 0.19289339
-0.020171037 0.017072724 0.19410831
-0.018407747 0.013178751 0.1950819
-0.016934264 0.0084696775 0.19881004
-0.016994026 0.0032584285 0.20312251
-0.017620353 -0.0028736638 0.20854975
-0.019117506 -0.0078467503 0.2153326
-0.019735044 -0.011020329 0.21865234
-0.019738723 -0.014022755 0.22161403
-0.021785513 -0.015906123 0.22239687
-0.023233637 -0.01773781 0.22399299
-0.024002513 -0.019265024 0.22408247
-0.023961393 -0.020864658 0.2234813
-0.02329226 -0.022780536 0.22454356
-0.023370981 -0.025378272 0.22821477
-0.011577357 0.036333404 0.18668215
-0.011237747 0.033843596 0.18797876
-0.011078306 0.031532396 0.18969211
-0.010574656 0.028889591 0.19190271
-0.0093271192 0.025875844 0.19677033
-0.011861445 0.020666387 0.19901265
-0.015167491 0.016339755 0.1982533
-0.014279352 0.012439286 0.19967796
-0.014438455 0.0090867048 0.20215304
-0.014751938 0.0051324628 0.20472053
-0.014762176 -0.0018996028 0.21033067
-0.015319984 -0.0082162861 0.2171848
-0.014923223 -0.010991534 0.2200561
-0.014666168 -0.013583392 0.22276032
-0.015512756 -0.015754437 0.22399156
-0.018758994 -0.016925506 0.22356333
-0.020305425 -0.018546442 0.22371945
-0.020771138 -0.020581312 0.22430193
-0.020940728 -0.022880368 0.22638054
-0.020680765 -0.02521568 0.22986296
-0.0085781347 0.0340393 0.18869548
-0.007324025 0.031870555 0.19072513
-0.0062052207 0.029231191 0.19442248
-0.005818293 0.02551752 0.19868407
-0.0076779327 0.020402869 0.20183845
-0.010509517 0.016185794 0.20275721
-0.011298457 0.012721627 0.20387101
-0.011770385 0.0097805224 0.20499448
-0.012296489 0.0063246381 0.20652185
-0.012438718 0.00014270912 0.21078801
-0.011018656 -0.0074079861 0.21815804
-0.010512002 -0.01014104 0.22123244
-0.010632057 -0.012896586 0.22365662
-0.011202621 -0.015078099 0.22524115
-0.013171292 -0.016629918 0.2252546
-0.015479992 -0.018241301 0.22595525
-0.017093765 -0.020764759 0.22721018
-0.018367613 -0.024395877 0.2305792
-0.0027891714 0.030796705 0.19476624
-0.0025669031 0.027641738 0.19773771
-0.0034964716 0.023655036 0.20091566
-0.0048007397 0.021032117 0.20273778
-0.006881949 0.016291283 0.2046672
-0.007839568 0.012772329 0.20608482
-0.0083609186 0.0096325567 0.20733041
-0.0088060033 0.0062331101 0.20957834
-0.010160822 0.0021507246 0.21145438
-0.0069386521 -0.0062878476 0.2189981
-0.0066260872 -0.0095053241 0.2225261
-0.0070205103 -0.012587956 0.22409572
-0.0079653906 -0.014999175 0.2260965
-0.0088940887 -0.017044712 0.22749846
-0.010869715 -0.019121159 0.22925019
-0.01381272 -0.021417247 0.23004004
-0.016182315 -0.023669176 0.23107815
0.00029129491 0.025659766 0.19914868
-0.00046794175 0.022474378 0.20150875
-0.00014855932 0.019469358 0.20330919
-0.0021677911 0.016786419 0.20512325
-0.0034204696 0.011764678 0.20658524
-0.0033474641 0.007951458 0.20849949
-0.0034394003 0.0047896113 0.21060051
-0.0029451989 -0.0046649561 0.21901883
-0.0029557785 -0.0091743041 0.22296511
-0.0035771441 -0.012731128 0.22470166
-0.0045607951 -0.015280222 0.22673106
-0.0058392044 -0.017347597 0.22832878
-0.0076646041 -0.019188853 0.23052342
0.0023275723 0.023923071 0.19983596
0.0020337151 0.021638408 0.20122528
0.0019844698 0.019129418 0.20272376
0.001808084 0.015855953 0.20495515
0.0012486146 0.011081408 0.20677799
0.00094525557 0.0073702745 0.2087778
0.0008587435 0.0045451331 0.21087292
0.00021594334 0.0015659935 0.21328062
0.00059894612 -0.002890588 0.21708535
0.00013512278 -0.0078769708 0.22169414
-0.00089975767 -0.012259173 0.2249752
0.0040647001 0.02072493 0.20099445
0.0052600279 0.018650725 0.20235889
0.0049406253 0.015038327 0.20507365
0.0042889882 0.011116303 0.20689425
0.0040122783 0.0078108208 0.20871058
0.003767272 0.0055183894 0.21071222
0 0 0 1 0 0 0 1 0 0 0 1 0 0 0 0 0 348 1 0 0
