-4.203430200000000255e-02 8.640741000000000394e-03 1.979337499999999916e-01
-4.203430200000000255e-02 8.640741000000000394e-03 1.979337499999999916e-01
-4.203430200000000255e-02 8.640741000000000394e-03 1.979337499999999916e-01
-4.203430200000000255e-02 8.640741000000000394e-03 1.979337499999999916e-01
-4.182936599999999977e-02 8.465243500000000504e-03 1.976412100000000116e-01
-4.191455999999999654e-02 8.447906899999999691e-03 1.977480199999999966e-01
-4.179400199999999677e-02 8.293365100000000059e-03 1.974257399999999885e-01
-4.169071500000000319e-02 8.215723600000000501e-03 1.972824800000000101e-01
-4.144838800000000267e-02 8.076292500000000277e-03 1.969086100000000117e-01
-4.110669000000000128e-02 7.925710600000000078e-03 1.964142000000000110e-01
-4.097611100000000256e-02 7.867084800000000155e-03 1.961187600000000031e-01
-4.076864599999999866e-02 7.618078000000000349e-03 1.954979900000000104e-01
-4.048443200000000075e-02 7.270743100000000118e-03 1.948343700000000067e-01
-4.044288800000000322e-02 7.031596299999999869e-03 1.945471000000000006e-01
-4.024564800000000192e-02 6.786144299999999699e-03 1.939483899999999983e-01
-4.029530299999999760e-02 6.538096299999999854e-03 1.935414500000000038e-01
-4.038913200000000120e-02 6.256416899999999760e-03 1.932450400000000068e-01
-4.046957600000000016e-02 5.974386800000000206e-03 1.931117800000000106e-01
-4.050401599999999686e-02 5.701760799999999567e-03 1.929177900000000057e-01
-4.052102600000000165e-02 5.486597799999999581e-03 1.925931999999999922e-01
-4.066271300000000311e-02 5.411704500000000424e-03 1.927349100000000093e-01
-4.079236800000000246e-02 5.238175400000000433e-03 1.926495900000000094e-01
-4.101141900000000035e-02 5.168870600000000093e-03 1.926763099999999895e-01
-4.131520500000000068e-02 5.115865699999999627e-03 1.929655500000000135e-01
-4.161518399999999951e-02 4.971713299999999669e-03 1.929014900000000088e-01
-4.202395700000000067e-02 4.930586600000000028e-03 1.930571600000000054e-01
-4.245726400000000150e-02 4.902706500000000335e-03 1.933507200000000037e-01
-4.267689999999999678e-02 4.757074200000000093e-03 1.930661399999999972e-01
-4.309947000000000084e-02 4.771524099999999678e-03 1.933663899999999991e-01
-4.341757699999999887e-02 4.635589699999999660e-03 1.936412600000000095e-01
-4.359578699999999696e-02 4.442432900000000372e-03 1.935293700000000061e-01
-4.379084300000000290e-02 4.300808500000000319e-03 1.937479099999999954e-01
-4.390452400000000033e-02 4.180099300000000156e-03 1.938397400000000104e-01
-4.406610500000000125e-02 3.964467000000000164e-03 1.941667499999999991e-01
-4.426817999999999725e-02 3.670017499999999981e-03 1.946018899999999996e-01
-4.439192599999999822e-02 3.220988199999999784e-03 1.946778700000000029e-01
-4.453770099999999899e-02 2.723343400000000167e-03 1.948483299999999863e-01
-4.471358300000000119e-02 2.229393000000000086e-03 1.951389299999999882e-01
-4.479919000000000262e-02 1.813111199999999914e-03 1.952489199999999925e-01
-4.487729099999999971e-02 1.317128500000000046e-03 1.953621200000000002e-01
-4.481861699999999810e-02 9.054091100000000256e-04 1.953253600000000034e-01
-4.473232500000000333e-02 4.856276499999999819e-04 1.952062699999999873e-01
-4.457098599999999994e-02 7.624683299999999336e-05 1.950746800000000003e-01
-4.440201099999999818e-02 -1.477005100000000073e-04 1.949761100000000080e-01
-4.421710200000000118e-02 -3.771504599999999838e-04 1.950267300000000092e-01
-4.389520400000000017e-02 -5.861237300000000363e-04 1.947737499999999955e-01
-4.358031200000000299e-02 -7.181716499999999835e-04 1.945180699999999874e-01
-4.325218100000000065e-02 -8.520699899999999508e-04 1.941766900000000129e-01
-4.292285800000000123e-02 -9.937426100000000973e-04 1.940081399999999956e-01
-4.269925900000000329e-02 -9.900119599999999097e-04 1.941576499999999872e-01
-4.240134699999999895e-02 -1.154175599999999894e-03 1.940551299999999924e-01
-4.200783000000000295e-02 -1.291602700000000006e-03 1.938129700000000011e-01
-4.192369399999999746e-02 -1.440386299999999982e-03 1.940371700000000088e-01
-4.186311000000000199e-02 -1.590877199999999941e-03 1.944976300000000047e-01
-4.182680700000000057e-02 -1.664651199999999916e-03 1.949568499999999871e-01
-4.182394999999999863e-02 -1.743212500000000014e-03 1.951541199999999865e-01
-4.180120699999999995e-02 -1.816241899999999996e-03 1.953637500000000027e-01
-4.173976599999999759e-02 -1.747874200000000024e-03 1.952511100000000055e-01
-4.174650099999999836e-02 -1.630841600000000049e-03 1.952841700000000069e-01
-4.163075599999999793e-02 -1.453386600000000075e-03 1.950581399999999910e-01
-4.153715399999999974e-02 -1.293656999999999923e-03 1.944588299999999992e-01
-4.150421199999999866e-02 -1.120181800000000097e-03 1.938748399999999927e-01
-4.137044000000000138e-02 -8.332500000000000063e-04 1.931846299999999961e-01
-4.132270799999999966e-02 -6.260258999999999789e-04 1.924239500000000103e-01
-4.130116100000000290e-02 -4.037762999999999986e-04 1.917858000000000063e-01
-4.135171700000000311e-02 -2.204458399999999988e-04 1.911040099999999908e-01
-4.137596500000000066e-02 -7.513815899999999950e-05 1.903362299999999951e-01
-4.151350300000000021e-02 5.057540700000000283e-05 1.900523000000000073e-01
-4.161453600000000058e-02 3.688233100000000241e-05 1.897705600000000048e-01
-4.179276900000000045e-02 4.462238899999999809e-05 1.898440600000000089e-01
-4.193496000000000029e-02 1.363908100000000027e-04 1.899308899999999911e-01
-4.213672899999999777e-02 1.736975499999999985e-04 1.902895900000000085e-01
-4.225600899999999716e-02 2.316951000000000037e-04 1.903569300000000075e-01
-4.248136999999999747e-02 2.791495099999999883e-04 1.909794400000000003e-01
-4.261732800000000293e-02 3.064200299999999991e-04 1.912954600000000005e-01
-4.269601800000000225e-02 4.011394600000000145e-04 1.915382399999999985e-01
-4.288833200000000123e-02 4.773495899999999868e-04 1.917150499999999980e-01
-4.306674399999999708e-02 4.598098200000000184e-04 1.919341999999999993e-01
-4.328295599999999743e-02 5.018851399999999657e-04 1.923131200000000041e-01
-4.350291900000000100e-02 5.163322799999999543e-04 1.926418199999999914e-01
-4.375318799999999841e-02 5.361363899999999506e-04 1.929719599999999979e-01
-4.380971599999999855e-02 5.801198400000000385e-04 1.929211500000000135e-01
-4.400409000000000265e-02 5.686509499999999702e-04 1.930828500000000003e-01
-4.417781900000000012e-02 6.011706399999999827e-04 1.934007699999999996e-01
-4.433363299999999729e-02 6.475633700000000192e-04 1.935033899999999973e-01
-4.433363299999999729e-02 6.475633700000000192e-04 1.935033899999999973e-01
-4.433363299999999729e-02 6.475633700000000192e-04 1.935033899999999973e-01
-4.433363299999999729e-02 6.475633700000000192e-04 1.935033899999999973e-01
