ply
format ascii 1.0
comment PCL generated
element vertex 346
property float x
property float y
property float z
element camera 1
property float view_px
property float view_py
property float view_pz
property float x_axisx
property float x_axisy
property float x_axisz
property float y_axisx
property float y_axisy
property float y_axisz
property float z_axisx
property float z_axisy
property float z_axisz
property float focal
property float scalex
property float scaley
property float centerx
property float centery
property int viewportx
property int viewporty
property float k1
property float k2
end_header
-0.058031011 0.02482141 0.18990365
-0.058236904 0.022165079 0.19159216
-0.05484828 0.030449791 0.18515511
-0.055633068 0.028154779 0.18657659
-0.055921633 0.025231469 0.18809168
-0.056198962 0.021924797 0.19041114
-0.056626413 0.018466171 0.19242589
-0.056959443 0.014867452 0.19413385
-0.056746367 0.011765504 0.1951673
-0.05135278 0.033074006 0.18150848
-0.051960621 0.031227082 0.18293482
-0.052604437 0.028416522 0.18439755
-0.052725084 0.025446376 0.18588942
-0.052965607 0.022220343 0.18864225
-0.053550173 0.018269926 0.1909499
-0.05427869 0.014549866 0.19290935
-0.054713991 0.010951692 0.19501193
-0.05508725 0.0076478347 0.19645475
-0.048065662 0.035720579 0.17878529
-0.048573527 0.033951145 0.1796785
-0.048835315 0.031463172 0.18111071
-0.049125183 0.028346876 0.18280114
-0.049739338 0.025633724 0.18554191
-0.050250329 0.022072084 0.18853457
-0.050839357 0.018293001 0.19065146
-0.051407345 0.014215506 0.19297604
-0.052130584 0.011288703 0.19605088
-0.052183446 0.0063549057 0.19612332
-0.052734274 0.0020790976 0.19719084
-0.053246431 -0.0015623923 0.19822304
-0.04599316 0.036487043 0.17786765
-0.045718186 0.03416051 0.17882445
-0.045687515 0.031421252 0.18045861
-0.046229668 0.028411178 0.18323676
-0.046923164 0.025566617 0.18589254
-0.047403648 0.0222256 0.18857019
-0.048003398 0.018313562 0.19082993
-0.048616383 0.014331662 0.19279851
-0.049317293 0.010132932 0.19514881
-0.049355917 0.0055437288 0.19510467
-0.04960933 0.0015409209 0.19613771
-0.050163116 -0.0029819682 0.19783577
-0.050534278 -0.0047539887 0.20270169
-0.052728809 -0.0050685434 0.20839562
-0.052631952 -0.0068233949 0.21294393
-0.043448154 0.039718889 0.17637323
-0.043307282 0.037467618 0.17750517
-0.042934101 0.034983169 0.17884964
-0.042838838 0.032316782 0.18065791
-0.043263778 0.028837552 0.18352561
-0.043692309 0.025849937 0.18614103
-0.04423739 0.022438567 0.18840547
-0.044695571 0.018625332 0.19040364
-0.046230223 0.01505866 0.19468334
-0.046514191 0.0096748872 0.19467242
-0.046288211 0.0050950977 0.19417784
-0.045966148 0.0009867358 0.19471481
-0.04561856 -0.002356034 0.19949172
-0.048599269 -0.0031563635 0.20502779
-0.049909931 -0.0045375461 0.20954518
-0.050185148 -0.0068997066 0.21280718
-0.050025128 -0.0094769699 0.21595614
-0.050063822 -0.012185704 0.22028448
-0.040954877 0.040920105 0.17637795
-0.040420342 0.038331795 0.17793719
-0.039952777 0.035870619 0.1792046
-0.03974719 0.033056058 0.18132059
-0.039853197 0.02995801 0.18380645
-0.040223729 0.026550917 0.18600862
-0.041028429 0.022779055 0.18836357
-0.041759383 0.018395517 0.19027193
-0.042975649 0.013370766 0.19316706
-0.043113437 0.009217917 0.19540392
-0.042599943 0.0043391697 0.19504604
-0.042001579 0.000854338 0.19742016
-0.042750444 -0.0012761249 0.20200649
-0.044967744 -0.0028144058 0.20618005
-0.046519987 -0.0041629602 0.2106435
-0.046550393 -0.006518086 0.2140011
-0.046438862 -0.0092373211 0.21647175
-0.046923239 -0.012458092 0.21995546
-0.047360364 -0.017067181 0.22344889
-0.046624023 -0.02085153 0.22571912
-0.038264748 0.044333261 0.17557694
-0.037967861 0.042578537 0.17663066
-0.037285585 0.040039685 0.1780221
-0.036631331 0.036831021 0.17977566
-0.03670891 0.033625279 0.18203261
-0.036763716 0.030591857 0.18440484
-0.037252862 0.027198263 0.18669264
-0.03774666 0.022840718 0.1894044
-0.038810808 0.018382153 0.19298817
-0.040003892 0.013015979 0.1953501
-0.039735042 0.0080838259 0.19570546
-0.039003648 0.0044286116 0.19697966
-0.038768046 0.0016879934 0.20038757
-0.039856669 -0.00045265761 0.20398691
-0.041503899 -0.0022219496 0.20779632
-0.042890366 -0.0039356747 0.21152948
-0.042965017 -0.0063382909 0.21473549
-0.04325559 -0.0096882898 0.21637049
-0.043721959 -0.012604418 0.21905264
-0.04353803 -0.016516469 0.22143809
-0.043963395 -0.021006223 0.22509639
-0.034361731 0.045885764 0.17521836
-0.033965178 0.044291422 0.17674381
-0.033762917 0.041600101 0.1786242
-0.033497103 0.038308997 0.17975137
-0.03360831 0.03449722 0.18225424
-0.033776224 0.031132879 0.18520813
-0.034405187 0.027220916 0.18802994
-0.034857877 0.022873988 0.19076814
-0.035492107 0.018673807 0.19424865
-0.037274096 0.012588738 0.19592142
-0.036546674 0.0082440665 0.19676243
-0.035796173 0.0049893879 0.19880272
-0.035710428 0.0024083995 0.20162876
-0.0367245 0.00028899737 0.20570299
-0.038122293 -0.0014937742 0.20994271
-0.039098263 -0.0038698507 0.21279393
-0.039573636 -0.0065750522 0.21550986
-0.039883673 -0.01004363 0.21685117
-0.040098593 -0.013265588 0.21869837
-0.039794881 -0.016685622 0.22051886
-0.040047102 -0.020297419 0.22383736
-0.039956734 -0.023624027 0.22592258
-0.030585766 0.046293028 0.17724632
-0.030564751 0.044412781 0.17763652
-0.030612962 0.041879319 0.17903943
-0.030529579 0.038803458 0.18075034
-0.030572444 0.035470411 0.18261865
-0.030951751 0.031577919 0.18542889
-0.031726375 0.027046133 0.18930277
-0.031938452 0.02314675 0.19147335
-0.032569543 0.018102694 0.19389877
-0.0343978 0.013166648 0.19630046
-0.033568073 0.0095202643 0.19820459
-0.032757919 0.0058403625 0.20002182
-0.032918606 0.0037888899 0.20332481
-0.033852104 0.0012435956 0.20682384
-0.034632858 -0.001096472 0.2111757
-0.035448119 -0.0038511571 0.21391013
-0.036213759 -0.0074410411 0.21558735
-0.036667421 -0.010229236 0.21746863
-0.036843188 -0.013288019 0.21945588
-0.036849108 -0.016147394 0.22183605
-0.036368702 -0.019475726 0.22353001
-0.036555417 -0.023174508 0.22625691
-0.027722664 0.046738673 0.17727569
-0.02754209 0.044770081 0.17789207
-0.027386246 0.04188646 0.17927381
-0.027524458 0.038960475 0.18135272
-0.027623186 0.035937615 0.18314059
-0.02821531 0.031880569 0.18613201
-0.028787216 0.027199624 0.19025312
-0.029116098 0.023675093 0.19209483
-0.029581761 0.018972205 0.19483037
-0.031186778 0.014249815 0.19698589
-0.030489037 0.011590197 0.19922543
-0.029913934 0.0086378558 0.20150469
-0.029759532 0.0055100033 0.20418073
-0.030070495 0.0037702289 0.20616981
-0.031371288 -0.001792752 0.21155609
-0.031843022 -0.0042994074 0.21400537
-0.033275142 -0.0070424704 0.21675907
-0.033305693 -0.0097970041 0.218695
-0.033277202 -0.012664001 0.22090502
-0.033406753 -0.015341041 0.22339895
-0.033421796 -0.018600648 0.2251673
-0.033678688 -0.022124339 0.22682968
-0.034831658 -0.024465602 0.22917967
-0.024280692 0.046315156 0.17768249
-0.024310827 0.044412874 0.17852935
-0.024270477 0.041497305 0.17955391
-0.024502257 0.038531147 0.18132401
-0.024821403 0.035813428 0.18374483
-0.025365304 0.032284889 0.18668324
-0.025697138 0.027570391 0.19143838
-0.02609824 0.023972837 0.19382304
-0.026042623 0.0205182 0.19661562
-0.027059171 0.016287137 0.19744748
-0.026868457 0.013318648 0.1992206
-0.026711859 0.0099771703 0.20157169
-0.026382601 0.006684802 0.20444284
-0.026410613 0.0038441946 0.20781517
-0.027486129 0.00036091168 0.21176356
-0.028500024 -0.0031812368 0.21503998
-0.02923538 -0.0064385263 0.21800968
-0.029363286 -0.0095823724 0.22047803
-0.029706208 -0.012846893 0.2222847
-0.030177766 -0.016252615 0.22508059
-0.030523906 -0.019406825 0.22674777
-0.031001296 -0.022559727 0.22837408
-0.031515215 -0.026016168 0.23167734
-0.020936511 0.045077767 0.17834966
-0.020999661 0.043394152 0.17980064
-0.021172695 0.040591959 0.18117084
-0.0214977 0.037849005 0.18233858
-0.022081889 0.035352286 0.18483552
-0.022445166 0.031942602 0.18810779
-0.022299383 0.027829431 0.19246607
-0.022000076 0.024271507 0.19549899
-0.022462016 0.021425935 0.19795775
-0.022954222 0.018495137 0.19949387
-0.023434589 0.015101369 0.201381
-0.02343264 0.01194096 0.20328237
-0.023240712 0.0080833463 0.20629889
-0.023552954 0.0044117062 0.21042629
-0.024338342 0.0011162288 0.21312861
-0.024670644 -0.0022103728 0.21592429
-0.025341403 -0.0050565801 0.21916263
-0.025667259 -0.0087277088 0.22228548
-0.025907554 -0.012798512 0.22342157
-0.026471095 -0.01636303 0.22645755
-0.026949173 -0.019313643 0.22814642
-0.027272504 -0.022780394 0.22939916
-0.027552873 -0.026456617 0.23267651
-0.018382395 0.042892065 0.18124332
-0.018456189 0.040636484 0.1831596
-0.018612564 0.037810955 0.18416344
-0.018722538 0.03508617 0.18610872
-0.018804466 0.031814452 0.18911804
-0.018861165 0.027842645 0.19336309
-0.018843591 0.024135794 0.19684003
-0.019542018 0.021119248 0.19860302
-0.019347262 0.018569576 0.20096058
-0.019752689 0.015571877 0.20287536
-0.020114178 0.012346077 0.20486553
-0.020200603 0.0086015956 0.2081584
-0.020454315 0.0048978333 0.2117465
-0.020979637 0.001627552 0.2148087
-0.02130091 -0.0015644358 0.21772863
-0.021997612 -0.0049504773 0.22128239
-0.022544688 -0.0085328994 0.22361134
-0.022761697 -0.012352195 0.2244516
-0.02308758 -0.016426215 0.22709373
-0.023187798 -0.019498272 0.22790366
-0.023582753 -0.022952866 0.22857969
-0.023670888 -0.027141118 0.23353653
-0.015390808 0.040531568 0.1848385
-0.015308177 0.038008638 0.18605299
-0.015438155 0.034951832 0.1877481
-0.015710987 0.031523459 0.19034205
-0.015366948 0.027858734 0.19389744
-0.015744725 0.024639236 0.19796343
-0.016207211 0.021408549 0.2001119
-0.016285088 0.018400501 0.20256117
-0.016382929 0.015541608 0.20410268
-0.016635757 0.012486642 0.20650333
-0.016962044 0.0089140534 0.20974977
-0.016933311 0.0052701542 0.21311276
-0.017556572 0.0020310911 0.21612081
-0.017935682 -0.0014822478 0.21974905
-0.018328952 -0.0050741644 0.22304705
-0.01890412 -0.0088474816 0.22485533
-0.019110521 -0.012661164 0.22547606
-0.019295389 -0.016484706 0.22688223
-0.019515906 -0.020133097 0.22805253
-0.019958673 -0.023910036 0.2302447
-0.019866053 -0.027501006 0.23513715
-0.012602792 0.037789233 0.18761818
-0.012340697 0.03487606 0.1893072
-0.012366725 0.031759996 0.19152303
-0.01184741 0.02806839 0.19381933
-0.012193104 0.024799885 0.19800393
-0.01284082 0.021932509 0.20091704
-0.013295816 0.018521728 0.2038907
-0.013221566 0.015480127 0.20627925
-0.013486534 0.012167803 0.20881227
-0.013680797 0.0091314642 0.21122432
-0.013691841 0.0057552229 0.21420915
-0.013993817 0.0023166933 0.21755897
-0.01443103 -0.0014965401 0.22071838
-0.014757067 -0.0052101687 0.22362624
-0.015099557 -0.0091288807 0.22528687
-0.015450027 -0.012793699 0.22590932
-0.015579249 -0.016497573 0.22733741
-0.015694313 -0.020376312 0.22903752
-0.01563024 -0.024605731 0.23295787
-0.015238569 -0.027814941 0.23767839
-0.0098051345 0.034500197 0.1900215
-0.0089145275 0.031688042 0.19214657
-0.0086848866 0.028319897 0.19489916
-0.0085615497 0.024983143 0.19853066
-0.0092483191 0.021954564 0.2020691
-0.0099804997 0.018801294 0.2050848
-0.010099186 0.015673472 0.20744564
-0.010216685 0.012541539 0.2097479
-0.010087482 0.0095359636 0.21178335
-0.010420734 0.006519787 0.21479319
-0.010292361 0.0030818533 0.21783313
-0.010638396 -0.00059577252 0.22079943
-0.011248636 -0.0044196928 0.22302108
-0.011253393 -0.0084210606 0.22483753
-0.011584814 -0.012358411 0.22511929
-0.011504182 -0.016519435 0.22807169
-0.011684374 -0.020524779 0.23028119
-0.011069503 -0.024886591 0.23495524
-0.0058159837 0.031119592 0.19440943
-0.0051803547 0.028016245 0.19722737
-0.004842916 0.024634512 0.19984402
-0.005515628 0.021527508 0.20268592
-0.0063206712 0.018725796 0.20544025
-0.0065877298 0.015721597 0.20806155
-0.0068466002 0.012937083 0.21041927
-0.0068251481 0.010072771 0.21243663
-0.0068163252 0.0069102994 0.21540673
-0.0066193808 0.0035504065 0.21802393
-0.0068927761 -0.00040285254 0.22165316
-0.0073170317 -0.0041829268 0.22255714
-0.0074292715 -0.0080366973 0.22477613
-0.007440622 -0.012062857 0.22573015
-0.007537073 -0.016255371 0.2283925
-0.0083419196 -0.020511268 0.23075171
-0.0084659122 -0.0237047 0.23338267
-0.0027355382 0.029993763 0.19703797
-0.0013465418 0.02734012 0.19838187
-0.0012847257 0.02398848 0.20022811
-0.0020267128 0.021188144 0.20243444
-0.002593664 0.018534893 0.20505589
-0.0024862646 0.016045041 0.2075212
-0.0029371034 0.013247197 0.21000747
-0.002960843 0.010374833 0.21283045
-0.0027624601 0.0070836586 0.21548256
-0.0026656976 0.0037472069 0.21748205
-0.0031449765 -0.00014654777 0.22158197
-0.0035052334 -0.003878664 0.22269437
-0.0034569271 -0.0076967175 0.2242129
-0.0042107571 -0.011331107 0.22542696
0.0014165939 0.025974892 0.19892336
0.0017985342 0.023736747 0.20014927
0.001159575 0.021041544 0.20195626
0.0010550116 0.01863057 0.20429555
0.0013382513 0.015978647 0.20683411
0.0013196109 0.013355196 0.20938839
0.0012808102 0.010628195 0.21209867
0.00077723339 0.0072834375 0.21494703
0.0005582766 0.0037617392 0.21697354
3.4684439e-05 0.00018807061 0.22011158
-0.00097470661 -0.0035324723 0.22279423
0.0044408091 0.023336489 0.2005184
0.0043612653 0.02105231 0.20161858
0.0042843316 0.018461788 0.20351362
0.0042517427 0.015876718 0.20632069
0.0040360214 0.013364937 0.2090065
0.00393807 0.011537605 0.21109448
0 0 0 1 0 0 0 1 0 0 0 1 0 0 0 0 0 346 1 0 0
