ply
format ascii 1.0
comment PCL generated
element vertex 346
property float x
property float y
property float z
element camera 1
property float view_px
property float view_py
property float view_pz
property float x_axisx
property float x_axisy
property float x_axisz
property float y_axisx
property float y_axisy
property float y_axisz
property float z_axisx
property float z_axisy
property float z_axisz
property float focal
property float scalex
property float scaley
property float centerx
property float centery
property int viewportx
property int viewporty
property float k1
property float k2
end_header
-0.058043074 0.01982023 0.19174613
-0.058563009 0.017190525 0.19328588
-0.05513043 0.024913104 0.18752861
-0.055600457 0.022998463 0.18892536
-0.056069806 0.020114593 0.19038363
-0.056564789 0.017177703 0.19218977
-0.057408579 0.013933894 0.19389348
-0.057481121 0.010740263 0.19568351
-0.057060573 0.0075723114 0.19712071
-0.053263027 0.027709384 0.18489477
-0.053282317 0.025738982 0.18562123
-0.053070143 0.023309646 0.18686213
-0.05298261 0.020626001 0.1881852
-0.053375449 0.017537301 0.19020192
-0.054725233 0.013772751 0.19235449
-0.055216845 0.010134685 0.19455217
-0.055509567 0.0062037548 0.19661421
-0.055233192 0.0021274383 0.19693589
-0.050235603 0.030283989 0.18238376
-0.050893504 0.028927596 0.18312065
-0.050867815 0.026488565 0.18399233
-0.050392918 0.023596089 0.18561555
-0.050766654 0.020843321 0.1876135
-0.051630713 0.017061822 0.18972524
-0.05275102 0.013465856 0.19151278
-0.053031489 0.0093330983 0.19354439
-0.053296838 0.0051726662 0.1943074
-0.052855033 -8.421926e-05 0.19367497
-0.052680429 -0.0047231135 0.19394557
-0.052713342 -0.007639322 0.19502039
-0.048740868 0.030863333 0.18155117
-0.048437651 0.029136736 0.18202874
-0.04818587 0.026641453 0.1832716
-0.048286662 0.023736252 0.18561724
-0.048695993 0.02050397 0.18750766
-0.049325127 0.016741941 0.18914442
-0.050491016 0.012475704 0.19087906
-0.051312134 0.0086126681 0.19205847
-0.051384117 0.0024985017 0.19080757
-0.050862193 -0.0026888831 0.18913831
-0.050692547 -0.0065292879 0.19011511
-0.050894406 -0.0099810259 0.19332078
-0.051231612 -0.010326748 0.19704258
-0.052664757 -0.0064068958 0.20289548
-0.051561799 -0.003563009 0.21075419
-0.047159906 0.033824597 0.17996232
-0.046593364 0.031936213 0.18056564
-0.046023197 0.030038077 0.18131945
-0.045632146 0.027491314 0.18268387
-0.04577649 0.02406963 0.18514374
-0.045815583 0.020145595 0.18695499
-0.046424367 0.016075607 0.18834774
-0.047591403 0.011202352 0.18930078
-0.049435519 0.0061915703 0.18859771
-0.049096409 0.00027947151 0.18654914
-0.048549563 -0.004793935 0.18506069
-0.048071593 -0.0084721018 0.1858357
-0.046332918 -0.010187975 0.19305532
-0.049463574 -0.0084020682 0.19836858
-0.050049189 -0.0048599048 0.20481542
-0.049625341 -0.0042370632 0.21089628
-0.048932854 -0.0058428794 0.21538161
-0.049078643 -0.011098181 0.21968646
-0.044857807 0.035022661 0.17894721
-0.043918714 0.032834634 0.18011738
-0.043288283 0.03092405 0.18117337
-0.042999268 0.028733512 0.18234704
-0.042998545 0.025634559 0.18413527
-0.042986311 0.019825699 0.18610422
-0.043971363 0.014999191 0.1873834
-0.046060264 0.0097768391 0.18763375
-0.046921872 0.0038988867 0.18505572
-0.045770254 -0.0021290365 0.18350355
-0.044606216 -0.0067228498 0.18441522
-0.04314002 -0.0089067426 0.18909553
-0.043301065 -0.0075838538 0.19554815
-0.0457257 -0.0060083955 0.20142974
-0.046273407 -0.004219796 0.2072141
-0.046148937 -0.0050289002 0.21164759
-0.045840293 -0.0077564218 0.21578291
-0.047592457 -0.013900808 0.22035421
-0.048284147 -0.019878816 0.22344746
-0.047384076 -0.023810273 0.22494207
-0.042598851 0.040207576 0.17706446
-0.042120855 0.038227119 0.17773029
-0.040788908 0.036631506 0.17884453
-0.040357862 0.032860965 0.18099728
-0.040365219 0.029748539 0.18253963
-0.04002985 0.026338287 0.18441223
-0.040381432 0.020012759 0.18579967
-0.041652706 0.01382829 0.18643472
-0.043859728 0.0079236999 0.18420218
-0.044566892 0.0017316622 0.18177663
-0.04240397 -0.0042714491 0.18339343
-0.04063819 -0.0065866634 0.18665878
-0.040150233 -0.0058807721 0.19218275
-0.041208785 -0.0052860933 0.19703676
-0.042153507 -0.0044421046 0.20227776
-0.043064501 -0.0048463116 0.20798504
-0.042820789 -0.0069582975 0.21279012
-0.0436505 -0.010963619 0.21604063
-0.044622064 -0.014379431 0.21907908
-0.044894617 -0.018801238 0.22258882
-0.04481528 -0.02368775 0.22471645
-0.03924473 0.044154052 0.17430376
-0.038045846 0.043148644 0.17557709
-0.03687872 0.041067362 0.17771141
-0.036002107 0.037172951 0.17995335
-0.036959361 0.031206619 0.18279982
-0.036828328 0.026977954 0.18501154
-0.03759633 0.019629933 0.18579254
-0.038439352 0.01357866 0.18584038
-0.040255543 0.0081876144 0.18289229
-0.042432584 0.00020565232 0.18116939
-0.039622705 -0.0037468118 0.18441391
-0.038013835 -0.0040731104 0.18814586
-0.037962116 -0.0039832178 0.19206497
-0.038553488 -0.0037543625 0.19746304
-0.038874809 -0.0036998547 0.20500693
-0.039912291 -0.0063428963 0.20985492
-0.040163629 -0.0091858339 0.21360068
-0.040825631 -0.012701811 0.21613672
-0.041459959 -0.015797364 0.21866313
-0.041076697 -0.019069212 0.22152537
-0.041103791 -0.022846963 0.2245263
-0.040988319 -0.025967261 0.22573179
-0.03422296 0.045712311 0.17585416
-0.033983275 0.044185579 0.17622086
-0.033354618 0.042026948 0.1777619
-0.032574452 0.039174769 0.17982262
-0.032924045 0.033399191 0.18317109
-0.034205023 0.028017996 0.18527196
-0.035382234 0.019575018 0.18605889
-0.035516337 0.014393827 0.18591197
-0.037244689 0.0084152576 0.18394977
-0.040233858 0.00081717223 0.18081002
-0.037729435 -0.0010622231 0.18403575
-0.036364786 -0.0013025559 0.18819153
-0.036094215 -0.0017448232 0.19274966
-0.036513325 -0.0028409788 0.19782595
-0.035878863 -0.0043558651 0.20638415
-0.036974497 -0.0076442887 0.21109948
-0.037741717 -0.011008954 0.21406685
-0.037906032 -0.014097074 0.21717216
-0.038155012 -0.017024355 0.21937539
-0.037910536 -0.019269126 0.22167587
-0.037245214 -0.021930883 0.22387511
-0.037360325 -0.02502835 0.22597672
-0.031485036 0.046862125 0.17531087
-0.030874286 0.045406833 0.17608491
-0.029918021 0.043061506 0.17760564
-0.029109068 0.040625978 0.17978384
-0.029415337 0.036299963 0.18258636
-0.031072374 0.029348673 0.18562852
-0.033023342 0.020131739 0.1867566
-0.032897327 0.015846713 0.18666741
-0.033899713 0.010836447 0.18564127
-0.036930908 0.0045301327 0.18194811
-0.0354339 0.0038822752 0.18372805
-0.033992264 0.0028521253 0.18673155
-0.033251978 0.00094485871 0.19114017
-0.033305161 -0.0012944859 0.19552776
-0.033528406 -0.0054365718 0.20826387
-0.03417762 -0.0086346511 0.2119651
-0.035256978 -0.01123634 0.21475776
-0.034376629 -0.014924582 0.21877578
-0.034830734 -0.017552961 0.22063896
-0.034869596 -0.019478714 0.22234933
-0.034648769 -0.022164803 0.22377107
-0.034918107 -0.023958802 0.22474399
-0.035672519 -0.024889074 0.22587462
-0.02749246 0.047018919 0.17598693
-0.027079245 0.045523632 0.1768717
-0.026108319 0.043265749 0.17851527
-0.025666492 0.040608082 0.18027593
-0.026620435 0.037070692 0.18282898
-0.028371684 0.030627128 0.18630086
-0.030415276 0.020840354 0.18792382
-0.030346168 0.017183878 0.18795452
-0.029964885 0.01525709 0.18816474
-0.0325162 0.011547118 0.18605581
-0.032203719 0.0095175449 0.18582226
-0.031386491 0.0065973205 0.18780731
-0.030243075 0.0040846108 0.19129819
-0.028599823 0.0015613184 0.19771406
-0.031148707 -0.0038603423 0.20677944
-0.032245815 -0.0080921054 0.21276043
-0.031418893 -0.012602863 0.21786961
-0.031728528 -0.016444083 0.22063707
-0.032245941 -0.018642759 0.22161293
-0.032970086 -0.021069733 0.22349428
-0.032795008 -0.022390543 0.22425579
-0.033068433 -0.023436885 0.22536774
-0.032779876 -0.024795318 0.22787638
-0.023000859 0.044857383 0.17857175
-0.022675155 0.043288153 0.17980514
-0.022826543 0.040887602 0.18106802
-0.023365114 0.038527139 0.18210344
-0.024498619 0.036047522 0.18401267
-0.025624394 0.030237351 0.18804736
-0.027105149 0.023045383 0.19004789
-0.027277347 0.020146139 0.19024263
-0.027621048 0.018735943 0.19022308
-0.026959781 0.018642507 0.19060379
-0.026760641 0.016191447 0.19053726
-0.026216399 0.01327869 0.19124651
-0.024524186 0.0087735718 0.19477195
-0.02359825 0.0026943916 0.20446067
-0.027450062 -0.0038737243 0.21015224
-0.029487129 -0.008110499 0.21470128
-0.028932709 -0.012331588 0.21817966
-0.028919496 -0.015482745 0.22260946
-0.029020986 -0.018018611 0.22303529
-0.029488511 -0.020181902 0.22398324
-0.029927189 -0.021263996 0.22461103
-0.029822703 -0.022567144 0.22562937
-0.029585088 -0.024830649 0.22817686
-0.019578721 0.041485395 0.18206261
-0.020063274 0.03939005 0.18344192
-0.020584751 0.036838062 0.18434724
-0.021110928 0.034325194 0.18612434
-0.020782361 0.031092137 0.18950278
-0.02040809 0.025989074 0.19358677
-0.022105711 0.023944844 0.19262972
-0.024334323 0.022028364 0.1924247
-0.023012402 0.020706128 0.19470146
-0.022608824 0.018543942 0.19544087
-0.022029268 0.015816087 0.19591652
-0.02030639 0.0096280193 0.20025536
-0.021208586 0.0036790373 0.20663828
-0.023636181 -0.0016490672 0.21137384
-0.025690591 -0.0077415672 0.21654795
-0.025939502 -0.011879485 0.22015591
-0.02650504 -0.01525914 0.22354542
-0.02703898 -0.017742731 0.22410555
-0.027204663 -0.019510886 0.22460945
-0.027114941 -0.020372812 0.22431849
-0.027042627 -0.022101989 0.22500588
-0.026716255 -0.024905188 0.22862619
-0.017061418 0.038373001 0.18529986
-0.01710495 0.036198922 0.1863672
-0.017454058 0.033345718 0.18830825
-0.017829537 0.029801529 0.19125812
-0.014809672 0.026248699 0.1952495
-0.016630022 0.024444181 0.19592325
-0.019729013 0.022604698 0.1962561
-0.019334024 0.020192355 0.19799392
-0.018934725 0.01835075 0.19869679
-0.017921394 0.015334588 0.20008685
-0.017325083 0.0093158204 0.20462097
-0.018474422 0.0041780714 0.20909168
-0.020523319 -0.00018661933 0.21265602
-0.022466838 -0.0074866349 0.21828179
-0.022684403 -0.011682917 0.22266123
-0.0235902 -0.01460072 0.22469735
-0.024442615 -0.017590277 0.22508402
-0.024486516 -0.019389378 0.22531694
-0.02459676 -0.020359671 0.22476617
-0.024466632 -0.022219282 0.22597426
-0.02369085 -0.025300149 0.23053269
-0.014028787 0.035647336 0.18783292
-0.014266874 0.032606784 0.18975131
-0.013868237 0.02944204 0.1922327
-0.010397959 0.026208598 0.19622165
-0.011994386 0.024011204 0.1983709
-0.015371078 0.022573195 0.19812928
-0.016051145 0.019588789 0.19985992
-0.014530916 0.016440423 0.20223758
-0.013474303 0.012835597 0.2047943
-0.014093307 0.0095293755 0.2073178
-0.015280273 0.005319261 0.21049388
-0.016684376 0.0011001674 0.21477717
-0.019203478 -0.0074829594 0.22060603
-0.019478388 -0.011154452 0.22380015
-0.020576602 -0.01399791 0.22531419
-0.022077829 -0.016252454 0.22546774
-0.022307891 -0.018537141 0.22570957
-0.021937029 -0.0204053 0.22599716
-0.020735484 -0.023415171 0.22946507
-0.019655684 -0.027587522 0.23489778
-0.01071724 0.032033511 0.19099694
-0.008202997 0.029772783 0.19387269
-0.0064564911 0.026276374 0.19835331
-0.0072011831 0.02351743 0.20100851
-0.010450169 0.022202777 0.20078354
-0.012684273 0.019789709 0.20143957
-0.011306377 0.016096821 0.20443527
-0.010967999 0.012580619 0.20696159
-0.011314029 0.0097281467 0.20866536
-0.012418738 0.0065573887 0.2113903
-0.012964453 0.00090568245 0.21727893
-0.014395989 -0.0055872668 0.22202624
-0.016009217 -0.009206159 0.22377999
-0.016508842 -0.012663395 0.2257544
-0.018873472 -0.014641608 0.22567244
-0.01954338 -0.017489968 0.22670262
-0.018971663 -0.02057869 0.22791499
-0.016238568 -0.024531482 0.23305939
-0.0040370529 0.028760811 0.19723654
-0.002077349 0.026044318 0.20001377
-0.0015260876 0.023611326 0.20165433
-0.0034857974 0.021431517 0.20314452
-0.0075571858 0.019814743 0.20354427
-0.0086658122 0.016632676 0.20598061
-0.0085584316 0.01272516 0.20827307
-0.0089165624 0.010131882 0.20999761
-0.0096142627 0.006535681 0.2137814
-0.0091340337 -1.6104816e-05 0.21947689
-0.010239763 -0.0054863924 0.2230175
-0.011272097 -0.0085398555 0.22404408
-0.011915985 -0.011901263 0.22610228
-0.013252934 -0.014652138 0.22716144
-0.015476519 -0.016800223 0.22782806
-0.016092502 -0.020159023 0.22953534
-0.014136144 -0.023321746 0.23262888
0.00013742268 0.027297625 0.19946627
0.0020213213 0.025440264 0.20028909
0.0025371993 0.023033394 0.20170584
0.0014301562 0.020921405 0.20322756
0.00020635503 0.018990794 0.20502418
-0.001324153 0.016764157 0.20683113
-0.004494749 0.013134669 0.2093536
-0.0048570861 0.008720723 0.2129129
-0.0046525896 0.0043463698 0.21672678
-0.0046411292 -0.0004947877 0.22043355
-0.0061579291 -0.0051204497 0.22328979
-0.0068399385 -0.0084407236 0.22443479
-0.0074195536 -0.011540556 0.2262405
-0.0088745831 -0.014317452 0.22769642
0.0047959806 0.024168584 0.20059378
0.0052831005 0.022363933 0.20150365
0.0044743395 0.020518899 0.20278028
0.0041230498 0.018704003 0.20465639
0.0037974492 0.016729148 0.20693016
0.0028675655 0.012450025 0.21016248
0.0015879257 0.0070812744 0.21371117
0.00013867175 0.0032988589 0.21731958
-0.00097150117 -0.00054932362 0.22032316
-0.0025416675 -0.0048577143 0.22270738
-0.0038972113 -0.0082234917 0.22464837
0.0076235705 0.021861471 0.2017549
0.0074276519 0.020250695 0.20283487
0.0071809827 0.01844178 0.20465277
0.0068043922 0.016238086 0.207314
0.0055079935 0.012748662 0.21039073
0.0046441974 0.0089607239 0.21195607
0 0 0 1 0 0 0 1 0 0 0 1 0 0 0 0 0 346 1 0 0
