ply
format ascii 1.0
comment PCL generated
element vertex 346
property float x
property float y
property float z
element camera 1
property float view_px
property float view_py
property float view_pz
property float x_axisx
property float x_axisy
property float x_axisz
property float y_axisx
property float y_axisy
property float y_axisz
property float z_axisx
property float z_axisy
property float z_axisz
property float focal
property float scalex
property float scaley
property float centerx
property float centery
property int viewportx
property int viewporty
property float k1
property float k2
end_header
-0.058441043 0.019769575 0.1923348
-0.05904926 0.017150318 0.19385527
-0.055371717 0.024842208 0.18822552
-0.055867869 0.02295357 0.1896351
-0.056386106 0.020088624 0.19110754
-0.056983691 0.017166588 0.19288968
-0.057873823 0.01395749 0.19464926
-0.057977639 0.010836277 0.19659381
-0.05754232 0.0077098929 0.1981632
-0.053500693 0.02757984 0.18551697
-0.053504955 0.025639629 0.18634468
-0.05328045 0.023265529 0.18774383
-0.053196315 0.02063847 0.18913355
-0.05372579 0.017519465 0.19108915
-0.055109359 0.013838584 0.19332251
-0.055617753 0.010279897 0.19568224
-0.055956524 0.006342038 0.1977455
-0.055688314 0.0024024963 0.19871677
-0.050455276 0.029985139 0.18280222
-0.051119279 0.028705876 0.18365107
-0.051058754 0.026350033 0.18472505
-0.050584294 0.023579232 0.18669438
-0.051047001 0.020886395 0.18873978
-0.052017156 0.01706839 0.19074824
-0.053182684 0.013548696 0.19264609
-0.05339887 0.009471098 0.19484483
-0.053632837 0.005489469 0.19621086
-0.053262401 5.5840927e-05 0.19546804
-0.053137153 -0.0046693361 0.19562325
-0.053221799 -0.007626276 0.19662751
-0.048956193 0.030507356 0.18193081
-0.04863422 0.028826335 0.18253472
-0.048383497 0.026539147 0.18409176
-0.048527997 0.02378851 0.18684109
-0.049045756 0.020579183 0.18883689
-0.049729105 0.016778996 0.1904673
-0.05092163 0.012574585 0.19229904
-0.051658548 0.0087286327 0.1934416
-0.051667284 0.00269197 0.19272652
-0.051155064 -0.0025611711 0.1909796
-0.051037442 -0.0064314804 0.19189584
-0.051340703 -0.0099817235 0.195003
-0.051800739 -0.010417557 0.19864866
-0.053547602 -0.0070060147 0.20400032
-0.05346486 -0.0048828879 0.21134636
-0.047390584 0.033413563 0.18028945
-0.046792947 0.031525496 0.18090767
-0.046183664 0.029684164 0.18176478
-0.045825303 0.027346795 0.18345836
-0.046018455 0.024163846 0.18653494
-0.046181038 0.020227889 0.18862796
-0.046855889 0.016118843 0.19007012
-0.048028532 0.011232588 0.19111095
-0.049741667 0.0064304397 0.19087045
-0.049321961 0.0004224646 0.18853588
-0.04874178 -0.0046642991 0.1870203
-0.048289336 -0.0083668828 0.18776472
-0.046744436 -0.010265145 0.19497581
-0.050102662 -0.0085727768 0.20001499
-0.051289 -0.0056749871 0.20577832
-0.05145869 -0.0053684092 0.2117016
-0.05091529 -0.006946187 0.21632609
-0.049781565 -0.011531818 0.22063354
-0.04508565 0.034531392 0.1792025
-0.044116732 0.032413166 0.1804617
-0.043478008 0.030582273 0.18169227
-0.043211374 0.028554225 0.18308988
-0.043239426 0.025684869 0.18531208
-0.043502714 0.019766806 0.18807389
-0.044621073 0.014903054 0.18943515
-0.046627305 0.0097066443 0.1896003
-0.047299504 0.00383652 0.18675356
-0.045917768 -0.0020130572 0.18565951
-0.044757307 -0.0066166515 0.18656866
-0.043482333 -0.0088975327 0.19128798
-0.043900538 -0.0076459371 0.19771256
-0.046683256 -0.0062520476 0.20311861
-0.047800142 -0.0048584887 0.2084398
-0.048001714 -0.0057971962 0.21282461
-0.047563758 -0.0084522981 0.21714525
-0.048179254 -0.014259419 0.22137764
-0.048755951 -0.020195404 0.22435403
-0.047778055 -0.024113664 0.22574745
-0.042899784 0.039962769 0.17733602
-0.042375661 0.03789534 0.17795071
-0.041011743 0.036303468 0.17906116
-0.040587954 0.032567695 0.1814402
-0.040593863 0.029636543 0.18328317
-0.040311124 0.026423434 0.18557717
-0.041109622 0.019825134 0.18789622
-0.042435478 0.013672637 0.18865003
-0.044457145 0.0078238603 0.18714389
-0.044730753 0.001742456 0.18433297
-0.042532694 -0.004129794 0.185761
-0.040906377 -0.0064639999 0.18909253
-0.040702701 -0.0058529205 0.19467242
-0.042020056 -0.0052732974 0.19939229
-0.04329285 -0.004464421 0.20432937
-0.044616215 -0.0051578567 0.20958051
-0.044508737 -0.0073406128 0.21443613
-0.044308446 -0.011037895 0.21728094
-0.045173533 -0.014534409 0.2202082
-0.04538434 -0.019015808 0.22362897
-0.045207206 -0.023922915 0.22557761
-0.039564565 0.044064637 0.17444246
-0.0383173 0.043058407 0.17566644
-0.037083201 0.040965859 0.17773457
-0.036151316 0.037048839 0.18009377
-0.037224401 0.031238142 0.1835195
-0.037197214 0.02711246 0.18623538
-0.038449731 0.019409398 0.18799575
-0.039327692 0.013350662 0.18825527
-0.040814698 0.0080375345 0.1862909
-0.042537499 0.00027300109 0.18382911
-0.039828684 -0.0035508214 0.18700989
-0.038438093 -0.0038982038 0.1908711
-0.038578529 -0.0038816482 0.194737
-0.039450794 -0.0036213065 0.19998601
-0.040338162 -0.0034290378 0.20734708
-0.041506436 -0.0062510767 0.21195367
-0.041629076 -0.0091865212 0.21560766
-0.0414261 -0.012611317 0.21741478
-0.041972123 -0.015727604 0.21986552
-0.041519526 -0.019113721 0.22264294
-0.041501835 -0.022981664 0.22552298
-0.041330386 -0.026122151 0.22658747
-0.034432534 0.045576729 0.17581151
-0.034183927 0.044056218 0.17618184
-0.033518218 0.04191586 0.17771898
-0.032685444 0.039073825 0.17982513
-0.033163313 0.033423826 0.18377501
-0.034636263 0.028101493 0.18643624
-0.036304347 0.019327195 0.18831854
-0.036497187 0.014136169 0.18845423
-0.037981834 0.0082757315 0.18665466
-0.04036627 0.00093227456 0.18373044
-0.038035307 -0.00082350336 0.18689059
-0.036942262 -0.0011383703 0.19113405
-0.036838029 -0.0015662143 0.19554599
-0.03749048 -0.0025884009 0.20050378
-0.037519749 -0.0035880886 0.20920418
-0.038615294 -0.0070673604 0.21365476
-0.0384974 -0.010727213 0.21550258
-0.038519699 -0.013895124 0.21847416
-0.038692392 -0.016939769 0.22048558
-0.038351234 -0.01927283 0.22270946
-0.037633438 -0.02198186 0.22486404
-0.037744548 -0.025052574 0.22693552
-0.03169987 0.046723623 0.17521527
-0.031070197 0.045276266 0.17598478
-0.030062975 0.042935453 0.17752299
-0.029212115 0.040522788 0.17977856
-0.029570421 0.036272097 0.18291955
-0.03150386 0.029381225 0.18673113
-0.033973407 0.019891024 0.18896212
-0.03397239 0.015621115 0.18924432
-0.034947608 0.010728335 0.18849431
-0.037627738 0.0046042292 0.18559869
-0.036330465 0.0040517631 0.18735769
-0.034981254 0.0029976778 0.19036666
-0.034211963 0.0010966212 0.19455601
-0.03424098 -0.00088026788 0.19845824
-0.034659628 -0.004519274 0.21038799
-0.035158005 -0.0079622762 0.2138429
-0.036034308 -0.010844878 0.21624614
-0.034992147 -0.014811139 0.21992406
-0.035349991 -0.017535051 0.22165771
-0.03531253 -0.019522792 0.223354
-0.035117224 -0.022194983 0.22477001
-0.035389651 -0.023960223 0.22572096
-0.036112655 -0.024866244 0.22682142
-0.027661568 0.046849973 0.17585672
-0.027223492 0.045361187 0.17676908
-0.026203496 0.043111183 0.17849655
-0.025759052 0.040502708 0.18036784
-0.02674434 0.037039861 0.18311
-0.028720098 0.030677313 0.18719491
-0.031383343 0.020642346 0.19001909
-0.031476151 0.017040867 0.19037601
-0.031160949 0.01518926 0.19074693
-0.033691384 0.011448189 0.1888597
-0.033348601 0.0095593873 0.18867283
-0.032365501 0.0066704946 0.19052203
-0.031077074 0.0041290601 0.19388106
-0.029525995 0.0019688404 0.20005961
-0.032369137 -0.0029272102 0.20883581
-0.033340003 -0.007484742 0.21462841
-0.032173462 -0.012431699 0.21919578
-0.032274898 -0.016446013 0.2217954
-0.032775596 -0.018641282 0.22275035
-0.033491079 -0.021078564 0.22459298
-0.03331342 -0.022373356 0.22533602
-0.03359985 -0.02343438 0.22638337
-0.033268891 -0.024852114 0.22881335
-0.023109414 0.044669278 0.17854318
-0.022770422 0.043128677 0.179832
-0.022907089 0.04077537 0.18117683
-0.023443064 0.038460474 0.18231146
-0.024588453 0.036059383 0.18436959
-0.025987493 0.030219836 0.18890004
-0.027967269 0.022935973 0.19176048
-0.028275136 0.020147283 0.19223094
-0.02869181 0.018769255 0.19234826
-0.028009666 0.018717825 0.19268291
-0.027920149 0.016306762 0.19280933
-0.027444445 0.013491 0.19368081
-0.02569231 0.0092010256 0.19714043
-0.024607504 0.0034715186 0.20630625
-0.028706495 -0.0030948562 0.2119679
-0.030596277 -0.007710149 0.21630491
-0.029841539 -0.012223923 0.2195939
-0.029588131 -0.015540432 0.22391421
-0.029644785 -0.018023251 0.2243512
-0.030106666 -0.020153111 0.22520928
-0.030514102 -0.021216162 0.22577479
-0.030363278 -0.02250742 0.22669443
-0.030070612 -0.024858275 0.22907816
-0.019648818 0.041367352 0.1821418
-0.020138504 0.039335132 0.1835645
-0.020646913 0.036822237 0.18459414
-0.021224158 0.034331892 0.18652235
-0.021036642 0.031052941 0.19007374
-0.020711197 0.025734561 0.19429524
-0.022565862 0.023724902 0.19356249
-0.024994973 0.022074385 0.19380133
-0.023553081 0.020936059 0.19597776
-0.023262883 0.018885465 0.19692031
-0.022881242 0.016261833 0.19767334
-0.021317478 0.010256736 0.20209414
-0.022076799 0.0043927305 0.20825753
-0.024690548 -0.00086998864 0.21299483
-0.026749711 -0.0074466099 0.21800129
-0.026870888 -0.011823218 0.22145873
-0.027222978 -0.015371397 0.22475319
-0.027748741 -0.017855834 0.22537972
-0.027866578 -0.01948186 0.22584632
-0.027794441 -0.020297365 0.22551949
-0.027634216 -0.022006752 0.2260907
-0.027153386 -0.024945905 0.22940777
-0.017161584 0.03830789 0.18548444
-0.017250638 0.036143776 0.18666603
-0.017682157 0.033270191 0.18875816
-0.018149374 0.029658496 0.19187789
-0.015158937 0.026071982 0.19596021
-0.016854187 0.024271768 0.19656295
-0.019986428 0.022608584 0.19703366
-0.01971855 0.020366134 0.19899447
-0.019435389 0.018620452 0.19985656
-0.018625826 0.015743548 0.20152275
-0.018115979 0.0099688675 0.20617972
-0.019249696 0.0048048277 0.2104737
-0.021399517 0.00048963656 0.21406744
-0.023493929 -0.0072677936 0.21955997
-0.023479527 -0.011741912 0.22372417
-0.024282146 -0.014723236 0.22570077
-0.025168825 -0.017726308 0.22611675
-0.025207715 -0.019451631 0.22636768
-0.025309658 -0.020335604 0.22583529
-0.02509141 -0.022141242 0.2268952
-0.024047446 -0.025424752 0.23112179
-0.014206828 0.035564002 0.18816222
-0.014523213 0.032471985 0.1902173
-0.014176225 0.02925944 0.19282845
-0.01069979 0.026084306 0.19671036
-0.012284395 0.023953941 0.19900638
-0.015711108 0.02247411 0.19886543
-0.016488994 0.019680493 0.20084031
-0.015087892 0.016694119 0.20333737
-0.014045852 0.013222609 0.2057998
-0.014592032 0.010053124 0.20841709
-0.015893767 0.0058978223 0.21168359
-0.01730944 0.0016122506 0.21593779
-0.020090429 -0.007425393 0.22170481
-0.02018518 -0.011253365 0.2246953
-0.021197772 -0.01409999 0.2261076
-0.022756223 -0.016371639 0.22631343
-0.022995889 -0.018622654 0.22656736
-0.022600908 -0.020420488 0.22680244
-0.021131588 -0.023506219 0.2300234
-0.019662032 -0.027772402 0.23532669
-0.010945307 0.031927608 0.19140986
-0.0083918963 0.029649289 0.19414161
-0.0066263136 0.026131503 0.19856292
-0.0073934472 0.023515815 0.20141053
-0.010745516 0.022209536 0.20142603
-0.01312325 0.019859832 0.20232962
-0.0116901 0.01628256 0.20516945
-0.011308298 0.012772504 0.20761953
-0.011677028 0.010036117 0.20937416
-0.012790238 0.0070672529 0.21226674
-0.01342799 0.0011130929 0.21819741
-0.015086184 -0.005657678 0.22293526
-0.016754868 -0.0092530949 0.2246353
-0.017150169 -0.012795665 0.22643235
-0.019552253 -0.014760045 0.22633211
-0.020159626 -0.017596884 0.2273245
-0.019505305 -0.020685753 0.22842884
-0.016374169 -0.024612252 0.23342384
-0.0040710578 0.028543876 0.19727118
-0.0019853571 0.025864741 0.20012829
-0.001399918 0.023507832 0.20187311
-0.0034628152 0.021464191 0.20350651
-0.0078236051 0.019875675 0.20408611
-0.0088629415 0.016645631 0.20638125
-0.0087769991 0.01276206 0.20864429
-0.0091460161 0.010297032 0.21043123
-0.0098113809 0.0068843858 0.21442884
-0.0095277894 -0.00012447133 0.22028424
-0.0107075 -0.0056872545 0.22365737
-0.011823867 -0.0086901486 0.22461364
-0.012424007 -0.012082709 0.22656746
-0.013787598 -0.014858261 0.22757988
-0.016001938 -0.016975446 0.22817566
-0.016523227 -0.020321246 0.22985932
-0.014331263 -0.023389217 0.23292366
0.00032641433 0.027032752 0.19951577
0.002232515 0.025182061 0.20043066
0.0027254978 0.022824109 0.20191501
0.0015333848 0.020771941 0.2035155
0.00025233746 0.018904677 0.20533636
-0.0014041506 0.016644901 0.20708628
-0.0046499884 0.012969973 0.20945753
-0.0050032423 0.0087429918 0.21320346
-0.0047738156 0.0043244543 0.21734129
-0.0049023679 -0.00070261105 0.22119977
-0.0064954506 -0.005364629 0.22384451
-0.0071802074 -0.0086176395 0.22488168
-0.0077429684 -0.011694053 0.22659774
-0.0092016403 -0.014479107 0.22801647
0.004951267 0.023851817 0.2007308
0.0054147239 0.022036189 0.2017224
0.0045570983 0.020248314 0.20304944
0.0041582691 0.01845438 0.20494874
0.0037864612 0.016481984 0.20720865
0.0027083722 0.012196076 0.21052785
0.001512467 0.0068790675 0.21415833
9.6521406e-05 0.0031231316 0.21792296
-0.0011076458 -0.00073069375 0.2209937
-0.0027815429 -0.0050540245 0.22325478
-0.0041309511 -0.0083785597 0.22509237
0.0077422238 0.021452708 0.20196174
0.0074966131 0.019857384 0.20307535
0.0072081308 0.018062402 0.20493756
0.00678284 0.015866317 0.20760971
0.0053641847 0.012375937 0.2107393
0.0044992673 0.0086742472 0.21228319
0 0 0 1 0 0 0 1 0 0 0 1 0 0 0 0 0 346 1 0 0
