ply
format ascii 1.0
comment PCL generated
element vertex 346
property float x
property float y
property float z
element camera 1
property float view_px
property float view_py
property float view_pz
property float x_axisx
property float x_axisy
property float x_axisz
property float y_axisx
property float y_axisy
property float y_axisz
property float z_axisx
property float z_axisy
property float z_axisz
property float focal
property float scalex
property float scaley
property float centerx
property float centery
property int viewportx
property int viewporty
property float k1
property float k2
end_header
-0.05814182 0.025165545 0.18970162
-0.058387034 0.022555111 0.19135346
-0.054886632 0.030785371 0.18511325
-0.055653673 0.028503956 0.18646647
-0.055973396 0.025578564 0.18793805
-0.056301165 0.022295952 0.19022617
-0.056773949 0.018913738 0.1922387
-0.057106294 0.01543974 0.19400613
-0.056861158 0.012345766 0.19504626
-0.05132921 0.033386525 0.18144973
-0.051950075 0.031560425 0.18290929
-0.052600358 0.028766897 0.1843982
-0.052711189 0.025786551 0.18581375
-0.05302532 0.022560984 0.18855667
-0.053645775 0.018738402 0.19088355
-0.054362737 0.015191708 0.19293748
-0.054761391 0.011690808 0.19496028
-0.054356258 0.0087746019 0.19423446
-0.047981821 0.036052488 0.17882925
-0.048510715 0.034289759 0.17971745
-0.04880983 0.031808235 0.18119483
-0.049090147 0.028682919 0.18289937
-0.049698178 0.025976809 0.18561992
-0.050255723 0.022469819 0.18859054
-0.050829932 0.018814687 0.19074264
-0.051453777 0.015019992 0.19321132
-0.051247183 0.01240012 0.19420372
-0.051429551 0.0079487432 0.19415699
-0.051868111 0.0037116879 0.19500482
-0.052353807 -0.00012122036 0.19584846
-0.04584967 0.03679106 0.17788655
-0.045613658 0.034472536 0.178866
-0.045633592 0.031784989 0.18057889
-0.046187118 0.028772525 0.18341662
-0.046857238 0.025984775 0.18607549
-0.047377832 0.022755185 0.18882857
-0.047971725 0.018974813 0.19118635
-0.048583049 0.015274376 0.19323778
-0.048167665 0.011855217 0.19315229
-0.048228078 0.0076281023 0.19355249
-0.048475482 0.0035924057 0.1945499
-0.049191337 -0.000860909 0.19627881
-0.051103506 -0.0021778278 0.2029407
-0.053685635 -0.0026681132 0.21051417
-0.053314708 -0.0051383795 0.21476518
-0.04321349 0.039957758 0.17629261
-0.043116678 0.037695106 0.17743294
-0.042792264 0.035205614 0.1787878
-0.042756371 0.03258381 0.18069452
-0.043219514 0.029236419 0.183763
-0.043661021 0.026352756 0.18645692
-0.044198919 0.023087291 0.18885995
-0.044628441 0.019463493 0.19104484
-0.045182962 0.016526494 0.19315717
-0.045086868 0.011788094 0.19299915
-0.044807427 0.007464774 0.19301967
-0.044544365 0.003545054 0.19404943
-0.04599179 0.00086092809 0.20045698
-0.049525499 -0.00019635573 0.20698522
-0.050574433 -0.0022644238 0.21156268
-0.050653029 -0.0051602162 0.21443167
-0.050314464 -0.0082567837 0.21711276
-0.050063059 -0.011914818 0.22055481
-0.040704176 0.041081533 0.17622437
-0.040187784 0.038464766 0.17777792
-0.039774477 0.035980903 0.17904642
-0.039655577 0.033218496 0.18131873
-0.039847244 0.030303828 0.18404026
-0.040212106 0.027069833 0.18644218
-0.040962446 0.023574539 0.1889475
-0.041635133 0.019524505 0.19117501
-0.042906348 0.014839767 0.19435586
-0.041851044 0.011790856 0.19449376
-0.041388851 0.0071265614 0.19505844
-0.041869801 0.0040288498 0.19872616
-0.043646146 0.0020616027 0.2039663
-0.045790255 2.0094316e-05 0.20812042
-0.047110785 -0.0020441455 0.21254459
-0.046947181 -0.0049554748 0.21553226
-0.04671225 -0.0080565512 0.21748631
-0.046865027 -0.012070177 0.2201408
-0.047275286 -0.016794411 0.22339153
-0.04649315 -0.0206248 0.22553015
-0.037969165 0.044410747 0.17541867
-0.037704807 0.042649921 0.17650992
-0.037043367 0.040110234 0.1778442
-0.036460456 0.036803361 0.17957722
-0.03660601 0.033735089 0.18200895
-0.036737021 0.030869076 0.18462443
-0.037225075 0.027686408 0.18707305
-0.037672173 0.02374859 0.19002643
-0.038281471 0.020833027 0.19351976
-0.039298091 0.016180627 0.19627024
-0.038964961 0.011384605 0.19696413
-0.038814873 0.0077711754 0.1990288
-0.039383404 0.0049728793 0.20259464
-0.040709283 0.0025490574 0.20604981
-0.042202394 0.00032724455 0.20960928
-0.0433979 -0.0019250965 0.21324597
-0.043268453 -0.0048254174 0.21618952
-0.043260526 -0.0089672022 0.21694224
-0.043621186 -0.012101243 0.21921428
-0.043431617 -0.016162476 0.22136028
-0.043814365 -0.020749604 0.22484823
-0.034058414 0.045916863 0.175254
-0.033738207 0.044327307 0.17681254
-0.033596244 0.041605581 0.17863439
-0.033356264 0.038301308 0.17969547
-0.033494465 0.034561809 0.1822408
-0.033734601 0.031387772 0.18537399
-0.034308657 0.027763482 0.18838046
-0.034763619 0.023807174 0.1914189
-0.035246652 0.021283912 0.19525234
-0.036703058 0.01619759 0.19806659
-0.036294252 0.011855848 0.19943188
-0.035986196 0.0083774542 0.20150591
-0.036380719 0.0055483123 0.20414174
-0.037515927 0.0030328773 0.20782101
-0.038717728 0.00076455402 0.21152397
-0.039426107 -0.0019824167 0.21415628
-0.039686698 -0.0050897463 0.21680915
-0.039813299 -0.0093116658 0.21728489
-0.039978258 -0.0126978 0.21880323
-0.039700005 -0.016212342 0.2204351
-0.039882477 -0.019972222 0.22351702
-0.039774656 -0.023421057 0.22550194
-0.030404838 0.046344128 0.17737308
-0.030393912 0.044464786 0.17779554
-0.03045995 0.041913874 0.17916085
-0.03042178 0.038852707 0.18083096
-0.030460332 0.035556827 0.1826698
-0.030839976 0.03177809 0.18555766
-0.031558704 0.027625002 0.18962903
-0.031817738 0.023998786 0.19207668
-0.032516904 0.019521225 0.19506161
-0.033744369 0.016946899 0.19906783
-0.033460278 0.012982413 0.20132259
-0.03307461 0.0092477947 0.20310916
-0.033513673 0.0066503664 0.20592134
-0.034540437 0.0038859367 0.20915334
-0.035215799 0.0012482492 0.21273741
-0.035710257 -0.0019932273 0.21492325
-0.036161344 -0.006484556 0.21629053
-0.036549959 -0.0095618516 0.21764031
-0.036697853 -0.012789521 0.21938443
-0.036675192 -0.015769728 0.22170493
-0.036181021 -0.019165734 0.22320445
-0.036318198 -0.022959011 0.22573717
-0.027536945 0.046786331 0.17750415
-0.027374728 0.0448245 0.17813252
-0.02723903 0.041948728 0.17946382
-0.027425831 0.039043225 0.18153472
-0.027515508 0.036025949 0.18326925
-0.028051961 0.032129545 0.18623868
-0.028556261 0.027778454 0.19051735
-0.028925423 0.024474885 0.19258626
-0.029474592 0.020197954 0.19577363
-0.030591885 0.017596358 0.19976333
-0.030399933 0.014432599 0.20217404
-0.030116607 0.011283486 0.20415571
-0.030205054 0.0078586992 0.20651332
-0.030564759 0.0061358348 0.20849429
-0.031588014 -0.00048525602 0.21264075
-0.031835958 -0.0031897826 0.21475044
-0.033085033 -0.0062777186 0.21722388
-0.033113744 -0.0093732262 0.21855436
-0.033064421 -0.012342308 0.2206326
-0.033216909 -0.015108621 0.22313434
-0.033270232 -0.018380875 0.22487602
-0.033528976 -0.021901993 0.22646812
-0.034643006 -0.024308799 0.22888723
-0.024127463 0.046381284 0.17803277
-0.024180917 0.044498082 0.17887354
-0.024159037 0.04161391 0.17979047
-0.024399845 0.038659714 0.18151851
-0.024705406 0.035930157 0.18389148
-0.025204359 0.0325098 0.18678173
-0.02542156 0.02813348 0.19157794
-0.025853168 0.024729215 0.1942164
-0.025836838 0.021365047 0.19723336
-0.027124502 0.017407471 0.19896261
-0.027047392 0.014435718 0.20084806
-0.02693803 0.01107208 0.20314671
-0.026625216 0.0076420102 0.20589535
-0.026713753 0.0047943378 0.20918709
-0.027597018 0.0012264408 0.21276446
-0.028452702 -0.0024455304 0.21564016
-0.029002033 -0.0059359507 0.21811141
-0.02907986 -0.0093242275 0.2201101
-0.029458178 -0.012606351 0.22195391
-0.029999215 -0.016007038 0.22481389
-0.030405629 -0.019164674 0.22650494
-0.030886345 -0.022361936 0.22812398
-0.031408217 -0.025759645 0.231453
-0.020888997 0.045208249 0.17853598
-0.02097005 0.043526147 0.17997092
-0.02116294 0.040722888 0.18130657
-0.021481073 0.037987337 0.18246384
-0.02202338 0.035486944 0.18497701
-0.022328028 0.032186005 0.1881633
-0.022065185 0.028324906 0.19253549
-0.021798925 0.024914695 0.19575845
-0.022236574 0.022009568 0.19848414
-0.022922032 0.019054007 0.20057984
-0.023504138 0.01578078 0.20269534
-0.023632046 0.012704586 0.20473805
-0.023532474 0.0088864388 0.2077828
-0.023807846 0.0051224991 0.21154764
-0.02446264 0.0017144806 0.21392776
-0.024645589 -0.0017957505 0.21639389
-0.025292234 -0.0048080417 0.21941335
-0.025522793 -0.0085899467 0.2222479
-0.025739986 -0.012654376 0.22320271
-0.02633784 -0.016176125 0.22624213
-0.026832167 -0.019136075 0.2279115
-0.027152352 -0.022617482 0.22912097
-0.027460894 -0.026258029 0.23243999
-0.018350756 0.043004274 0.18127991
-0.018379217 0.040758014 0.18321429
-0.018573683 0.03791466 0.18419842
-0.018692486 0.035186186 0.18614414
-0.01878391 0.031953298 0.18912515
-0.018863449 0.028167257 0.19351248
-0.018887317 0.024535822 0.19729526
-0.019549321 0.021490104 0.19933538
-0.019404776 0.018977432 0.2018656
-0.019847415 0.01599445 0.20390894
-0.020245213 0.012792142 0.20598067
-0.02038666 0.0091311652 0.20922476
-0.020596342 0.0054050009 0.21258453
-0.021011889 0.0020683287 0.2154973
-0.021231838 -0.0012787036 0.21813889
-0.021935755 -0.0048095165 0.22154249
-0.022436559 -0.0084535768 0.2237083
-0.022628903 -0.012275125 0.22441117
-0.022955175 -0.016348302 0.22696656
-0.023029549 -0.019393621 0.22764726
-0.023449134 -0.022830833 0.22829305
-0.023605049 -0.027018098 0.23334201
-0.015333304 0.040621374 0.1848197
-0.015244554 0.038082648 0.18607336
-0.015409366 0.035046879 0.18775105
-0.015678098 0.031690799 0.19027503
-0.015476328 0.028117329 0.19402999
-0.015831053 0.024980498 0.19839756
-0.016276753 0.021727275 0.20082253
-0.016340863 0.01873176 0.20334476
-0.016463678 0.015853146 0.20493282
-0.016694214 0.012771335 0.2072383
-0.017019831 0.00922966 0.21044441
-0.016987363 0.0056008021 0.21371196
-0.01753759 0.0023578741 0.21667498
-0.017854379 -0.0013136977 0.22017501
-0.018255094 -0.005005456 0.2233146
-0.018836996 -0.0088113127 0.2249999
-0.019020589 -0.012625275 0.22555706
-0.019186329 -0.016457664 0.22684462
-0.019352632 -0.020083778 0.22788599
-0.019802062 -0.02386133 0.22999536
-0.019793363 -0.027474636 0.23496829
-0.012581816 0.037868064 0.18767208
-0.012303304 0.034966376 0.18929315
-0.012339233 0.03191838 0.19145176
-0.011978189 0.028307332 0.19386294
-0.012272491 0.025154321 0.19827133
-0.01285909 0.022233529 0.20148708
-0.01332133 0.018806931 0.20459132
-0.013238457 0.015727846 0.20691821
-0.0134602 0.012314798 0.20928977
-0.013648846 0.0092856232 0.21169379
-0.013671114 0.0059476038 0.21467294
-0.013928283 0.0025364151 0.21800661
-0.01435934 -0.0013797354 0.22104397
-0.014689719 -0.0051612677 0.22385827
-0.015008281 -0.0091152815 0.22545262
-0.015321329 -0.012794808 0.22597362
-0.015468063 -0.016529029 0.22732231
-0.015570898 -0.02042889 0.2289149
-0.015530994 -0.024636375 0.23281382
-0.015247663 -0.027834462 0.23757768
-0.0097874599 0.034612596 0.18994816
-0.0089480625 0.031854074 0.19205789
-0.0087892571 0.028574632 0.19484514
-0.0086439811 0.025380462 0.1986368
-0.0092578838 0.022312168 0.20254475
-0.009973336 0.019051211 0.20570077
-0.010020426 0.015803792 0.20784692
-0.010115898 0.012581388 0.20999312
-0.0099989818 0.0095314318 0.21199277
-0.010349942 0.0065658139 0.21508288
-0.010327547 0.0032262702 0.21810076
-0.010611663 -0.0005257678 0.2209415
-0.011140463 -0.0044348571 0.22315332
-0.011117961 -0.008445709 0.22501777
-0.011453658 -0.01242002 0.22517534
-0.011402246 -0.016638268 0.2280573
-0.011578958 -0.020616742 0.23021679
-0.011050265 -0.024920637 0.23489915
-0.005837637 0.031344987 0.19422661
-0.0052597104 0.028388411 0.19712575
-0.0049350844 0.025107352 0.1998976
-0.0055003972 0.021976858 0.20292181
-0.0062501561 0.019012505 0.20587872
-0.0064639943 0.015709555 0.20822768
-0.0066770026 0.012819218 0.21044736
-0.0066784988 0.0099461088 0.21246356
-0.0067192707 0.0068678651 0.21551159
-0.0066257524 0.0035872981 0.21807003
-0.0068406546 -0.00036426776 0.22166091
-0.007243562 -0.0041930736 0.22259215
-0.0072940835 -0.0080479858 0.22486216
-0.0072873156 -0.012132877 0.22581933
-0.0074140159 -0.016446207 0.22838217
-0.0082467068 -0.020606555 0.23073301
-0.0084229857 -0.023752928 0.23334417
-0.0027547295 0.030362429 0.19685371
-0.0014684252 0.027791271 0.19823378
-0.0014296329 0.024430899 0.20013706
-0.0021066433 0.021610983 0.20243666
-0.0025855899 0.018813958 0.20512909
-0.0024666318 0.016129946 0.20753865
-0.0028519051 0.013070778 0.20986591
-0.002874685 0.010201639 0.21273834
-0.0027263402 0.0069815125 0.21542235
-0.0026921914 0.003673092 0.21733166
-0.0031024213 -0.00018378327 0.22144486
-0.0034297311 -0.0039210762 0.22262162
-0.0033458667 -0.007715303 0.22415455
-0.0040611154 -0.011358906 0.22541958
0.001264569 0.026400864 0.19867402
0.001656582 0.024106659 0.19990927
0.0010553636 0.021346707 0.20180319
0.00098837691 0.018788261 0.20414028
0.0012527773 0.016004875 0.20663732
0.0012502497 0.013256998 0.20909283
0.0012497293 0.010459306 0.21185501
0.00076852203 0.0071217106 0.21471497
0.0005313686 0.0036146864 0.21667671
4.9794315e-05 9.968548e-05 0.21980686
-0.00090209214 -0.0035680416 0.22257142
0.0043098894 0.023608288 0.20018139
0.0042296806 0.021247257 0.20132686
0.0041540232 0.018554829 0.20316447
0.0041558025 0.015836537 0.20595615
0.0039528664 0.013199626 0.20857522
0.0038927167 0.011318126 0.21073821
0 0 0 1 0 0 0 1 0 0 0 1 0 0 0 0 0 346 1 0 0
