ply
format ascii 1.0
comment PCL generated
element vertex 346
property float x
property float y
property float z
element camera 1
property float view_px
property float view_py
property float view_pz
property float x_axisx
property float x_axisy
property float x_axisz
property float y_axisx
property float y_axisy
property float y_axisz
property float z_axisx
property float z_axisy
property float z_axisz
property float focal
property float scalex
property float scaley
property float centerx
property float centery
property int viewportx
property int viewporty
property float k1
property float k2
end_header
-0.05744439 0.021486646 0.18975967
-0.057809465 0.018538821 0.19136985
-0.054332517 0.02723169 0.18500695
-0.055025596 0.025020521 0.18654208
-0.055394258 0.021964831 0.18805219
-0.055777796 0.018425349 0.19012959
-0.056252517 0.014552169 0.19220105
-0.056192502 0.010846003 0.1947187
-0.055760682 0.0081191938 0.19708675
-0.05122263 0.030286398 0.18191724
-0.051716331 0.028234972 0.18292508
-0.052174591 0.025288528 0.18414468
-0.052366488 0.022261875 0.18562952
-0.052618403 0.018787408 0.18807599
-0.05331786 0.014434676 0.19061667
-0.053567804 0.010295553 0.19359443
-0.053746518 0.0069585573 0.19742608
-0.053094935 0.0030487946 0.19976309
-0.047748853 0.033475615 0.17981485
-0.048404332 0.031505007 0.18039867
-0.048687141 0.028851353 0.18136127
-0.048848026 0.025557214 0.18265715
-0.049590342 0.022528017 0.1850445
-0.050267562 0.018143864 0.18757123
-0.050988801 0.014328533 0.19006425
-0.050860111 0.0097237509 0.1935261
-0.05092717 0.0061650611 0.19709818
-0.049435638 -8.1380771e-05 0.19921514
-0.049081471 -0.0048670243 0.20082583
-0.048985291 -0.0083272932 0.20178929
-0.045688085 0.034383442 0.17906837
-0.045439694 0.032052889 0.17991172
-0.045561004 0.029041244 0.18100591
-0.04608874 0.025521612 0.1831169
-0.046961356 0.022347841 0.18545958
-0.047660418 0.018046668 0.18743302
-0.048368715 0.013840334 0.18988095
-0.048448298 0.0093714297 0.1929819
-0.047355819 0.0029165875 0.1966648
-0.046295378 -0.0024924849 0.19749539
-0.046091046 -0.0063568898 0.19896984
-0.046297066 -0.010628602 0.20016289
-0.046604563 -0.013041238 0.20177718
-0.049499929 -0.012020065 0.20566864
-0.049832169 -0.01186044 0.21003468
-0.043268364 0.037578631 0.17740533
-0.043067958 0.03549033 0.17867714
-0.042654954 0.033165 0.18010014
-0.042597994 0.030284246 0.18162516
-0.043170933 0.025829758 0.18362755
-0.04385202 0.022297459 0.18594137
-0.044586848 0.017958939 0.18730447
-0.045121595 0.013302177 0.18924077
-0.045600276 0.007781466 0.19306706
-0.044036925 0.00096116652 0.1956743
-0.043339275 -0.0039980626 0.19563818
-0.042750381 -0.0077073383 0.19625558
-0.041342515 -0.010854301 0.19848499
-0.044938982 -0.011955499 0.20238654
-0.046957858 -0.011708456 0.20611201
-0.047782183 -0.012213342 0.20995918
-0.048162036 -0.01295342 0.21384163
-0.04863406 -0.01295741 0.2191411
-0.040757611 0.038785316 0.17722239
-0.040185429 0.036466163 0.17907789
-0.039661273 0.034103747 0.18045667
-0.039455164 0.031194659 0.18212405
-0.039666247 0.027636223 0.18415198
-0.04033266 0.022993004 0.18597804
-0.041350249 0.017804066 0.1874167
-0.042250406 0.012098836 0.18926015
-0.042213514 0.0061306586 0.19317517
-0.040528592 -3.2388289e-05 0.19463553
-0.039707627 -0.004675963 0.19459875
-0.038428787 -0.0074294945 0.19657443
-0.038734801 -0.0093127638 0.20005478
-0.041238807 -0.011605614 0.20321245
-0.043586768 -0.011401094 0.20722301
-0.044255584 -0.011906688 0.21117219
-0.044786017 -0.013100318 0.21447431
-0.046060558 -0.013670676 0.21985976
-0.046944667 -0.017166078 0.22462679
-0.046590026 -0.020716121 0.22743578
-0.038269188 0.041979577 0.17598028
-0.037925877 0.040437538 0.17706102
-0.037082151 0.03837087 0.17882948
-0.036412694 0.035045527 0.18070847
-0.036475938 0.03162523 0.18264593
-0.03653542 0.02822604 0.18476075
-0.03713768 0.023457617 0.18657528
-0.03793218 0.017289387 0.18815795
-0.038977463 0.010414289 0.19029762
-0.039099757 0.0040956405 0.19323166
-0.037665959 -0.00085854559 0.19400999
-0.036448695 -0.0036443025 0.19564359
-0.03566942 -0.0054677431 0.19901811
-0.036305334 -0.0077763596 0.20196538
-0.038072031 -0.010437273 0.20489404
-0.040179335 -0.011442565 0.20813103
-0.040991187 -0.012191537 0.21207477
-0.041747268 -0.013765981 0.21532401
-0.042945359 -0.014473296 0.21925792
-0.043082777 -0.017019765 0.22315355
-0.0439482 -0.020948883 0.22713666
-0.034829929 0.043994006 0.17520829
-0.034219798 0.042700458 0.17675291
-0.033742785 0.040433004 0.17905228
-0.033311613 0.037337463 0.18057002
-0.033387773 0.032719601 0.18290111
-0.033527661 0.028694492 0.18557777
-0.034308512 0.022989422 0.1877369
-0.034995988 0.017429803 0.18934147
-0.035552301 0.011103459 0.19125736
-0.036717679 0.0038290054 0.19350719
-0.0350543 0.00018825071 0.19495739
-0.033686969 -0.0019476778 0.19740961
-0.033140529 -0.0038342352 0.20008329
-0.033654265 -0.0063191601 0.20353365
-0.035025254 -0.0093874438 0.20701082
-0.036672652 -0.011373063 0.20977201
-0.037925266 -0.012455568 0.21348415
-0.038832199 -0.013890868 0.21661386
-0.039628182 -0.015474334 0.21961649
-0.039530318 -0.017790504 0.2226446
-0.040105149 -0.020502506 0.22661613
-0.040277421 -0.02323059 0.22882396
-0.030899864 0.045034565 0.17736095
-0.030766217 0.043301709 0.17776415
-0.030624714 0.040965475 0.17945367
-0.030350499 0.038142703 0.1812757
-0.030296372 0.034494404 0.18320909
-0.030726131 0.029514078 0.18580054
-0.031803682 0.022620555 0.18886031
-0.032124929 0.018059663 0.19020446
-0.032794394 0.011846062 0.19220288
-0.034397878 0.0050231889 0.19367366
-0.03260421 0.0026427549 0.19590913
-0.03111887 0.00013243404 0.19883308
-0.030984564 -0.0017006682 0.20137653
-0.031359795 -0.0047412333 0.2044643
-0.032092575 -0.0083441781 0.20853028
-0.033788018 -0.010521776 0.21178499
-0.034985483 -0.012103426 0.21511915
-0.035896666 -0.013748381 0.21794365
-0.036622982 -0.015438779 0.22094895
-0.036875341 -0.017134853 0.2239434
-0.036533806 -0.019666074 0.22653957
-0.036988877 -0.02284109 0.22950517
-0.028124977 0.045727886 0.17726859
-0.027801177 0.043937311 0.17801762
-0.027456807 0.041326679 0.17963427
-0.027320107 0.038540341 0.18169035
-0.027326744 0.035482939 0.18348965
-0.027999451 0.030059831 0.18634176
-0.029081654 0.022770412 0.18991995
-0.029425723 0.018732393 0.191127
-0.029810553 0.013610091 0.19320174
-0.031310324 0.0075916047 0.19401045
-0.03000924 0.0060847183 0.1959645
-0.028842812 0.0039129429 0.19849692
-0.02820888 0.0010938245 0.20143154
-0.028386697 -0.0010328911 0.20337442
-0.029267371 -0.0073599666 0.21004544
-0.030435991 -0.0093407966 0.21339287
-0.032622401 -0.011109794 0.21657982
-0.03265392 -0.012931262 0.21946974
-0.033378936 -0.014630237 0.2225689
-0.033815138 -0.016303064 0.22525635
-0.033836775 -0.019125273 0.2273571
-0.034214381 -0.02190388 0.22860019
-0.035471279 -0.02368374 0.23046549
-0.024715828 0.045702457 0.1777672
-0.024622748 0.043964203 0.17871059
-0.024370633 0.041374728 0.18005247
-0.024295419 0.038402926 0.18168092
-0.024571812 0.035563562 0.18390387
-0.02514521 0.030871727 0.18674834
-0.026058109 0.023165962 0.19124275
-0.026330978 0.019280894 0.19299282
-0.026231758 0.016227547 0.19496727
-0.027226459 0.012702044 0.19493322
-0.026828058 0.010109021 0.19655018
-0.026223253 0.0068942909 0.19881074
-0.02521202 0.0038505686 0.20183602
-0.024773253 0.00079173729 0.20528047
-0.025940822 -0.0035523574 0.20932594
-0.027345592 -0.0071702232 0.2135963
-0.028599191 -0.01045958 0.21770115
-0.02965311 -0.012631726 0.22146323
-0.030472148 -0.015064111 0.22381262
-0.031305078 -0.017732067 0.22663365
-0.031436853 -0.020121358 0.22769055
-0.031788781 -0.022267133 0.2290803
-0.032173302 -0.02513494 0.23196799
-0.021260047 0.0445248 0.17910145
-0.021128925 0.042945188 0.18034193
-0.021165727 0.040297408 0.18156344
-0.021445174 0.037663288 0.18262331
-0.021992467 0.035096347 0.18477546
-0.022450509 0.030358788 0.18830624
-0.022545133 0.024129262 0.19267489
-0.022251312 0.020169633 0.19511333
-0.023055805 0.018395001 0.19680347
-0.022997046 0.016943507 0.19770758
-0.023229973 0.013501267 0.19893342
-0.022936272 0.010210067 0.20040508
-0.022337675 0.006288243 0.20308572
-0.022300141 0.0021109059 0.20752406
-0.023205662 -0.0018939166 0.21038479
-0.023622598 -0.0052870656 0.21384643
-0.024173753 -0.0080096358 0.21681385
-0.025451651 -0.011502217 0.22114386
-0.026470976 -0.014961082 0.22385472
-0.027284257 -0.017846974 0.22701983
-0.02776547 -0.019839803 0.22819048
-0.027975198 -0.02258821 0.22934169
-0.028175117 -0.025937259 0.23242413
-0.018268337 0.042284291 0.18162188
-0.018365387 0.039971672 0.1833335
-0.018504374 0.037237279 0.18428154
-0.018629085 0.034443084 0.1861725
-0.018716514 0.031053685 0.18936329
-0.018435383 0.026385374 0.1937519
-0.018465148 0.022590453 0.19654845
-0.019900499 0.019572472 0.19774495
-0.019662045 0.017399451 0.19988102
-0.019830704 0.014494807 0.2011497
-0.019906679 0.011206071 0.20257367
-0.019614803 0.0071860095 0.20565936
-0.019758284 0.0031625673 0.20930532
-0.020354481 -0.00058252615 0.2124514
-0.020544983 -0.0041098716 0.21577963
-0.021191524 -0.0073263273 0.21899019
-0.022043239 -0.010861448 0.22181748
-0.022967897 -0.014086789 0.22395979
-0.023833554 -0.017531987 0.22714537
-0.024051229 -0.019967962 0.22761749
-0.024422979 -0.023177033 0.22836025
-0.024348252 -0.027004654 0.23293407
-0.015062877 0.03957263 0.18473567
-0.014951394 0.037129086 0.18592444
-0.015167618 0.034036294 0.1878666
-0.015663546 0.030456865 0.19075944
-0.014318758 0.026919346 0.19475713
-0.015310759 0.023562463 0.19821377
-0.016656999 0.020136023 0.19936532
-0.016708788 0.017233368 0.20141961
-0.016630601 0.014654165 0.20250975
-0.01649408 0.011511493 0.20447443
-0.016698442 0.0077887471 0.20781852
-0.016651599 0.0040098052 0.21124172
-0.017335836 0.00046838092 0.21410808
-0.017430041 -0.0034774907 0.2179925
-0.017969918 -0.0070301918 0.22144563
-0.018573975 -0.010601252 0.22344883
-0.019404538 -0.014023545 0.22516219
-0.019934036 -0.01746599 0.22711556
-0.02030359 -0.020887513 0.22752556
-0.020905973 -0.024416395 0.22967194
-0.020461978 -0.027691776 0.23456582
-0.011982594 0.036841355 0.18729781
-0.011979813 0.033888534 0.1894035
-0.01204517 0.030623194 0.19203414
-0.010464919 0.027227122 0.19541828
-0.011518061 0.023883823 0.19911961
-0.01313665 0.020996284 0.20063353
-0.01356283 0.017436542 0.20276646
-0.013345942 0.014476907 0.20473664
-0.013335186 0.011260482 0.20705633
-0.013484934 0.0083188126 0.2094498
-0.013596823 0.0050160913 0.21248633
-0.014000682 0.0012754275 0.21605299
-0.014279218 -0.0029551242 0.2197483
-0.014683117 -0.0065437849 0.22289835
-0.01504339 -0.010302803 0.22478132
-0.015900852 -0.013772294 0.22606367
-0.016041812 -0.017165933 0.22749113
-0.016345907 -0.020864356 0.22878978
-0.016327726 -0.025046956 0.23241237
-0.015511011 -0.028111035 0.23730153
-0.0091154939 0.03350918 0.19078229
-0.0078023053 0.030779451 0.1936567
-0.0072210003 0.027506547 0.19720842
-0.0074709118 0.024241114 0.20008716
-0.009020702 0.021355337 0.20214197
-0.010244783 0.017995344 0.20414272
-0.010299866 0.014670025 0.20609406
-0.010160661 0.011507782 0.20810376
-0.0100456 0.0088673867 0.21014023
-0.010495547 0.0060454733 0.21338846
-0.010397778 0.0022290908 0.21719663
-0.010765399 -0.0016264674 0.22067498
-0.011356994 -0.0050738142 0.22314833
-0.01132398 -0.008916555 0.22503573
-0.011927832 -0.012871818 0.22550932
-0.012043756 -0.016828177 0.22814609
-0.012206019 -0.02087903 0.23025785
-0.01136053 -0.025164908 0.23481289
-0.0046362281 0.030045133 0.19678816
-0.0035879447 0.026897222 0.19894587
-0.0034011349 0.023668949 0.20011874
-0.0045917225 0.020708146 0.20212564
-0.0061452561 0.018077986 0.20429201
-0.0069286674 0.014891549 0.2064378
-0.0069623687 0.012007248 0.20874211
-0.0068594962 0.0095184427 0.21090917
-0.00702762 0.006604251 0.21443915
-0.0068090828 0.0028248427 0.21814328
-0.0071264897 -0.0013588814 0.22187775
-0.0074389768 -0.0048708883 0.22278494
-0.0076380009 -0.0085127652 0.22514991
-0.0078020724 -0.012253359 0.22606894
-0.0079561761 -0.016328434 0.22843665
-0.0088270893 -0.020678293 0.23068029
-0.0087691061 -0.023959989 0.23364277
-0.001162737 0.028523505 0.19853677
0.00017463644 0.025817942 0.19833961
8.6754633e-05 0.022443479 0.19897901
-0.00085319055 0.019755434 0.20094649
-0.0018039342 0.017278401 0.20330963
-0.0020148768 0.01499356 0.2056964
-0.0028319859 0.012297915 0.20838971
-0.0029533575 0.0097157387 0.21192698
-0.0029495466 0.0065841419 0.21528934
-0.0028322008 0.0031413436 0.21803482
-0.0033494933 -0.00095184764 0.2219912
-0.0037086229 -0.0046070395 0.22291122
-0.0037676438 -0.00834148 0.22463065
-0.0045328289 -0.011855229 0.22607094
0.0026648103 0.024097376 0.19764434
0.0028002805 0.021699537 0.19831946
0.0021695571 0.019286895 0.20002952
0.0019616396 0.017146859 0.20244215
0.0022181764 0.014957372 0.20523877
0.0019482584 0.012794298 0.20868345
0.0014797739 0.0099466201 0.21180201
0.00082038506 0.0067521329 0.21511617
0.00049749733 0.0031607049 0.21763892
-9.4077288e-05 -0.00063105556 0.22072731
-0.0010880695 -0.0042797145 0.22308537
0.0053952583 0.021127691 0.19841497
0.0052068834 0.019071223 0.19958106
0.0052580931 0.016820718 0.2017886
0.0052381963 0.014728866 0.20494869
0.0047099465 0.01278139 0.20862181
0.0042026439 0.010982797 0.21082178
0 0 0 1 0 0 0 1 0 0 0 1 0 0 0 0 0 346 1 0 0
