ply
format ascii 1.0
comment PCL generated
element vertex 346
property float x
property float y
property float z
element camera 1
property float view_px
property float view_py
property float view_pz
property float x_axisx
property float x_axisy
property float x_axisz
property float y_axisx
property float y_axisy
property float y_axisz
property float z_axisx
property float z_axisy
property float z_axisz
property float focal
property float scalex
property float scaley
property float centerx
property float centery
property int viewportx
property int viewporty
property float k1
property float k2
end_header
-0.057375509 0.020938195 0.18992278
-0.057777464 0.017924009 0.19145407
-0.054259125 0.026705781 0.18519732
-0.054944452 0.024512513 0.18677898
-0.055326834 0.021427302 0.18828228
-0.055735368 0.017844535 0.19027345
-0.056210272 0.0139503 0.19224682
-0.056088671 0.010305366 0.19488916
-0.055592682 0.0076367813 0.19744809
-0.051241282 0.029789282 0.18222377
-0.051689055 0.027709471 0.18315117
-0.052095603 0.024757827 0.1843497
-0.052300189 0.021761786 0.18585126
-0.05254253 0.018263571 0.1882479
-0.053269666 0.013893641 0.19077156
-0.053446375 0.0098035149 0.19387816
-0.053553183 0.0065001301 0.19791429
-0.052576166 0.0027798768 0.20134963
-0.047747973 0.033059314 0.18021649
-0.048421163 0.031064719 0.18075342
-0.048696958 0.028387474 0.18166621
-0.048804753 0.025060134 0.18294297
-0.049564146 0.022022657 0.18533809
-0.050215255 0.017592881 0.18780316
-0.050965372 0.01380372 0.19030356
-0.050743256 0.0092664845 0.19390348
-0.050617881 0.0058463472 0.19825692
-0.048731115 -0.00048173341 0.20082106
-0.04833122 -0.0055562183 0.20194112
-0.048284166 -0.0090485662 0.20253341
-0.045713086 0.03399162 0.17948523
-0.045450326 0.031679437 0.1803001
-0.045575533 0.028637957 0.1813658
-0.046085332 0.025061172 0.18346475
-0.046961758 0.021848541 0.18582281
-0.047639027 0.01750334 0.18772674
-0.048367605 0.013296562 0.19021359
-0.048371669 0.0088935951 0.19338979
-0.046842527 0.0024901258 0.19817154
-0.045592993 -0.0030049433 0.19909433
-0.045425396 -0.0069484999 0.20017104
-0.045610391 -0.011279036 0.20098235
-0.045885533 -0.013749349 0.2021676
-0.048847198 -0.012777301 0.20587061
-0.049240399 -0.012426118 0.21029337
-0.04333923 0.037201084 0.17769651
-0.043104224 0.035139922 0.1789988
-0.042653371 0.032844186 0.18040338
-0.042587962 0.02994749 0.18193559
-0.043191962 0.025378602 0.18401369
-0.043854289 0.021768747 0.18632539
-0.044592313 0.017392119 0.18766648
-0.045148712 0.012669489 0.18968469
-0.04549377 0.0071421969 0.19407834
-0.043463256 0.00033525811 0.19757222
-0.042717267 -0.004667039 0.19756283
-0.042161405 -0.0083077345 0.1979716
-0.040641669 -0.011518489 0.1997153
-0.044207849 -0.012685229 0.20282459
-0.046286382 -0.012368615 0.20641889
-0.047187556 -0.012721336 0.21033721
-0.047670383 -0.013329352 0.21426572
-0.048239168 -0.013171791 0.21901332
-0.040851172 0.03840369 0.17736687
-0.040207442 0.036124639 0.17928576
-0.039644729 0.033785287 0.18072599
-0.039454523 0.030919325 0.18241726
-0.039692383 0.027322236 0.18449371
-0.040270496 0.022367129 0.18635111
-0.041381583 0.017143087 0.18783584
-0.04237102 0.01138388 0.18982758
-0.042040512 0.0053383214 0.19381143
-0.040080447 -0.00089601416 0.1967608
-0.039331499 -0.0054407702 0.19679992
-0.037956458 -0.0081451712 0.19822441
-0.037967436 -0.010044341 0.20115402
-0.040481694 -0.012291983 0.20398788
-0.042906187 -0.011970838 0.20773475
-0.043686446 -0.012361652 0.21167836
-0.044323292 -0.013448552 0.21504743
-0.045791902 -0.013948226 0.21997507
-0.046832629 -0.017391825 0.22475791
-0.046615444 -0.020896576 0.22754437
-0.038407274 0.04158536 0.17593423
-0.03801572 0.040106181 0.17701262
-0.037099428 0.038129468 0.17882876
-0.036445796 0.034771182 0.18100724
-0.036515657 0.031347889 0.18296504
-0.036541414 0.027848136 0.18509309
-0.037047449 0.022698946 0.18696149
-0.038001474 0.01644258 0.18854515
-0.039074458 0.0095899636 0.19135983
-0.038894475 0.0032287333 0.19485436
-0.037567317 -0.0016999468 0.19609375
-0.036291745 -0.0044274246 0.19737269
-0.035081927 -0.0062327492 0.20028912
-0.03556237 -0.0084840907 0.20300296
-0.037331138 -0.011082388 0.20573248
-0.03950116 -0.011981795 0.20877068
-0.04044709 -0.012623938 0.21276675
-0.041374587 -0.014210982 0.2154852
-0.042684175 -0.014812897 0.21947104
-0.042928185 -0.017296521 0.22345206
-0.043974355 -0.021190742 0.2274088
-0.035014506 0.043852337 0.17506726
-0.034335945 0.042634413 0.1765954
-0.033763811 0.04046274 0.17895676
-0.033294491 0.037402075 0.18064857
-0.033398859 0.032505348 0.18320276
-0.033502582 0.028309584 0.18586746
-0.034261156 0.022118185 0.18808423
-0.035042886 0.016563687 0.18964753
-0.035611775 0.010401314 0.1922009
-0.036794927 0.0029396133 0.19504261
-0.035132091 -0.0006306771 0.1965638
-0.033431306 -0.0026580936 0.19870308
-0.032597642 -0.0044283438 0.20118165
-0.033010896 -0.0069383876 0.20454623
-0.034278754 -0.010045039 0.20789875
-0.036006965 -0.011943 0.21057257
-0.037437823 -0.012896382 0.21438895
-0.03850019 -0.014392664 0.21687838
-0.039419811 -0.015870264 0.21993999
-0.039395675 -0.01813305 0.22308066
-0.040117994 -0.020763505 0.22707929
-0.040410612 -0.02344707 0.22928777
-0.030998444 0.04509915 0.17722711
-0.0308441 0.043412589 0.17764142
-0.030624898 0.041111704 0.1793692
-0.030304139 0.038370863 0.18127503
-0.030254273 0.034560379 0.1834037
-0.030692158 0.029224725 0.18601455
-0.031828027 0.021774275 0.1891015
-0.032185588 0.017205905 0.1904344
-0.032822087 0.011130071 0.19237338
-0.034766264 0.0042118398 0.19482136
-0.032871142 0.002017505 0.19696207
-0.030924544 -0.00036161838 0.19974589
-0.030691534 -0.0021059902 0.20224619
-0.030966075 -0.0051687649 0.20534277
-0.031368125 -0.0089805806 0.20940873
-0.033147629 -0.011141526 0.2126627
-0.034573957 -0.012745673 0.21534482
-0.035599057 -0.014317227 0.21827431
-0.036448769 -0.015932547 0.22135326
-0.036788501 -0.017519562 0.22444627
-0.036559451 -0.019925395 0.22715282
-0.037141077 -0.023064848 0.23012105
-0.028234173 0.045855023 0.17706774
-0.027860183 0.044110026 0.17784038
-0.027453836 0.041568827 0.17947654
-0.027232565 0.038850848 0.18160436
-0.0272613 0.035746854 0.1835746
-0.027973495 0.029909242 0.18644354
-0.02916106 0.021963987 0.1900437
-0.029496886 0.017929455 0.19126101
-0.029839208 0.01301497 0.1932507
-0.031853925 0.0073856674 0.19487895
-0.030603934 0.0060179387 0.19659224
-0.029206902 0.0039810957 0.19900371
-0.028254092 0.0010695201 0.20193674
-0.02831707 -0.001225058 0.20399694
-0.028722502 -0.0080834227 0.2101192
-0.029917683 -0.01010187 0.21356462
-0.032201208 -0.01180348 0.2167764
-0.032339711 -0.01364693 0.21985331
-0.033233188 -0.015249769 0.22300836
-0.033793826 -0.016783284 0.22581726
-0.0339269 -0.019449694 0.22810084
-0.034317721 -0.022114463 0.22933061
-0.035549723 -0.023808837 0.23112777
-0.024789879 0.045884829 0.17755166
-0.02466014 0.044180043 0.17846987
-0.02431662 0.041622233 0.17984965
-0.024175627 0.038676426 0.18154931
-0.024533328 0.035836518 0.18391006
-0.025152484 0.030834533 0.18675789
-0.026144136 0.022431761 0.19122443
-0.026345177 0.018602574 0.19294591
-0.02613008 0.015767014 0.19468395
-0.027402865 0.012475639 0.19467425
-0.027051199 0.010025847 0.19625552
-0.026421014 0.0068292464 0.19849963
-0.025276193 0.0037737982 0.20154478
-0.024697864 0.00056786899 0.20494403
-0.025731536 -0.0041843341 0.20903057
-0.027031712 -0.0079021836 0.21350935
-0.028266627 -0.011310788 0.21796989
-0.029437751 -0.013480348 0.2219868
-0.030419413 -0.01576566 0.2244624
-0.031442396 -0.018243998 0.22743292
-0.03158436 -0.020439768 0.22852613
-0.031918421 -0.02242391 0.22990298
-0.032253835 -0.025151527 0.23274431
-0.021260718 0.044504199 0.17894933
-0.021091305 0.0429493 0.18018155
-0.021123359 0.04034356 0.18143006
-0.021435618 0.037784811 0.18252225
-0.022029307 0.035255756 0.18466647
-0.022510331 0.030249914 0.1882522
-0.022582568 0.023612039 0.19254199
-0.022153145 0.019742971 0.19486207
-0.022909695 0.018080976 0.19640622
-0.022749592 0.016850097 0.19727559
-0.023109905 0.013483862 0.19845118
-0.022945672 0.010240549 0.19995771
-0.022364013 0.0062878942 0.20262249
-0.022246633 0.0018409546 0.20697598
-0.02312967 -0.0025380666 0.2099178
-0.023541991 -0.0059860116 0.21351984
-0.024094082 -0.0087171486 0.21676895
-0.02542015 -0.012077107 0.2216363
-0.026485136 -0.015550543 0.22461668
-0.027374502 -0.018280217 0.2278157
-0.027903153 -0.020123292 0.22893193
-0.028091382 -0.0227366 0.22997323
-0.028270245 -0.026048524 0.23294216
-0.018200012 0.042240206 0.18152431
-0.018357223 0.039962124 0.18321919
-0.018528871 0.037251029 0.18418455
-0.01868818 0.034462962 0.18608956
-0.018748932 0.031067768 0.18937895
-0.01834609 0.026255544 0.1937914
-0.018163688 0.022421399 0.19637337
-0.019713128 0.019392354 0.19749095
-0.019519301 0.017275225 0.19964315
-0.019749612 0.014433569 0.20086102
-0.01988467 0.011187043 0.20224819
-0.019574713 0.0070780842 0.20523532
-0.019735103 0.0028300511 0.20882201
-0.020343004 -0.0011234685 0.21192411
-0.02049323 -0.0047807153 0.21548575
-0.021116031 -0.0079648774 0.21893117
-0.022024931 -0.011344897 0.22206454
-0.023063743 -0.014481296 0.22443961
-0.023928748 -0.017941266 0.22768544
-0.024185214 -0.020255661 0.22810569
-0.024563985 -0.023425141 0.22881025
-0.02444729 -0.027218124 0.23324348
-0.015047776 0.039514437 0.18467325
-0.014940053 0.037093118 0.18589234
-0.015182544 0.034019548 0.18790919
-0.015668584 0.030453522 0.190862
-0.014056279 0.026823821 0.19496602
-0.014997093 0.02340943 0.19832154
-0.016502557 0.019913664 0.19925778
-0.016628113 0.017055264 0.20127632
-0.016606677 0.014569244 0.20231774
-0.016461974 0.011444801 0.20423275
-0.016667681 0.0075897444 0.20756032
-0.016676309 0.0035919598 0.2108241
-0.017379222 -5.9481528e-05 0.21356824
-0.017380653 -0.0041377763 0.21770509
-0.017863896 -0.0076270928 0.22142155
-0.018534319 -0.011031202 0.22363696
-0.019500908 -0.014390231 0.22546868
-0.02002014 -0.017836738 0.22731665
-0.02043291 -0.021186898 0.22771464
-0.021054825 -0.024716293 0.22990373
-0.020541549 -0.027951028 0.23477833
-0.011976023 0.036814909 0.18735428
-0.011993079 0.033875573 0.18953235
-0.011983203 0.03059411 0.1921827
-0.010084427 0.027116982 0.19569072
-0.011148053 0.023761403 0.19940117
-0.012965785 0.020834511 0.20069166
-0.013489173 0.017232986 0.20269929
-0.013282064 0.014288286 0.20467643
-0.013257136 0.011054561 0.20694095
-0.013458843 0.0080555398 0.20924507
-0.013633441 0.004625035 0.21209796
-0.014091746 0.00072130497 0.21557093
-0.014208009 -0.0035963317 0.21948804
-0.014608685 -0.0070663001 0.22284837
-0.014998108 -0.010690554 0.224979
-0.015981177 -0.014076731 0.22630832
-0.016107019 -0.017385205 0.22763269
-0.016458062 -0.021093581 0.22894083
-0.016435185 -0.025315 0.23258607
-0.01549598 -0.028388139 0.23746249
-0.0090113487 0.033451401 0.19098316
-0.0075115059 0.030680042 0.19386561
-0.0067724618 0.027407406 0.19756499
-0.0070097647 0.024183588 0.20052069
-0.008784296 0.021258984 0.20239671
-0.010225248 0.017797422 0.20423768
-0.010264885 0.014418227 0.20616546
-0.01007535 0.011151974 0.20798366
-0.010011023 0.008498935 0.20982917
-0.01052144 0.0056737373 0.21297841
-0.010421339 0.0017812754 0.21689802
-0.010770014 -0.0020829516 0.22048917
-0.011335382 -0.0054569868 0.22308081
-0.011273908 -0.0092025008 0.22512217
-0.011947287 -0.013029435 0.22574021
-0.012127338 -0.016978722 0.22828338
-0.012270542 -0.021088282 0.23038341
-0.011339482 -0.025433866 0.23494622
-0.0042553418 0.029944289 0.19710344
-0.0030557339 0.026849229 0.19937849
-0.0028011163 0.023645246 0.20056678
-0.0040702741 0.020652285 0.20247658
-0.0059587453 0.017915953 0.20451184
-0.0068978299 0.014577805 0.2064929
-0.0068965154 0.011544842 0.20852347
-0.0068378677 0.0090714544 0.21052925
-0.0070497165 0.0062112128 0.21403459
-0.0068413909 0.0024250296 0.21796682
-0.0071685459 -0.0017066509 0.22185741
-0.0074384944 -0.005157684 0.222828
-0.007620452 -0.0087275887 0.22526374
-0.0077641751 -0.012402081 0.22626393
-0.0079764118 -0.016402511 0.2285766
-0.0088679148 -0.020849114 0.23076838
-0.0087654451 -0.024211144 0.23374178
-0.00062587223 0.028438319 0.19893844
0.00077941519 0.025708592 0.19871227
0.00073977601 0.022334166 0.19930302
-0.00024027171 0.019596549 0.20117269
-0.0012553167 0.017054401 0.20340438
-0.0016409534 0.014672101 0.20562683
-0.0027105019 0.01179768 0.20810731
-0.0029340966 0.0092394827 0.21157722
-0.0029821522 0.0062177312 0.21508881
-0.0028684579 0.0027817017 0.21801437
-0.0034097454 -0.001241872 0.22203346
-0.0037117878 -0.0048378007 0.22299962
-0.0037538062 -0.0085415905 0.22475958
-0.004484368 -0.012023634 0.22623064
0.0032604553 0.0239022 0.19787438
0.003391925 0.021462608 0.19845931
0.0027473976 0.019014012 0.2000889
0.0025101455 0.016794417 0.20239046
0.0027161839 0.014611299 0.20513381
0.0022144455 0.012398918 0.20854352
0.0015171611 0.0095902523 0.21169041
0.00079742278 0.0064318529 0.2151064
0.00046498535 0.0028861247 0.21773234
-0.00013883597 -0.000879339 0.22083488
-0.0011034195 -0.0044843643 0.22320245
0.0059786197 0.020779492 0.19844423
0.0057601389 0.01870014 0.19957492
0.005790574 0.01641144 0.2017055
0.0057174643 0.014324887 0.20483595
0.0049963701 0.01240865 0.20855351
0.0043072891 0.010664509 0.21073684
0 0 0 1 0 0 0 1 0 0 0 1 0 0 0 0 0 346 1 0 0
