ply
format ascii 1.0
comment PCL generated
element vertex 346
property float x
property float y
property float z
element camera 1
property float view_px
property float view_py
property float view_pz
property float x_axisx
property float x_axisy
property float x_axisz
property float y_axisx
property float y_axisy
property float y_axisz
property float z_axisx
property float z_axisy
property float z_axisz
property float focal
property float scalex
property float scaley
property float centerx
property float centery
property int viewportx
property int viewporty
property float k1
property float k2
end_header
-0.057074122 0.019779682 0.18947324
-0.057406951 0.016724067 0.19110012
-0.054030351 0.025478104 0.18450762
-0.054718234 0.023341894 0.18625847
-0.055126376 0.020180635 0.18787019
-0.055432621 0.01668031 0.1898758
-0.055857997 0.012869497 0.19178122
-0.055615645 0.0091395471 0.1941545
-0.054922815 0.0060183881 0.19653635
-0.051258367 0.02856344 0.18171805
-0.051609572 0.026432553 0.18244819
-0.051897742 0.023644529 0.18377472
-0.052076172 0.020696683 0.18537828
-0.052271135 0.017251648 0.1877718
-0.053035274 0.012864017 0.19022237
-0.053094685 0.0086988062 0.19309345
-0.052936569 0.0048809401 0.19681014
-0.051480468 0.00065938116 0.19934721
-0.04777832 0.031882767 0.17984818
-0.048454192 0.029950462 0.18027236
-0.048711855 0.027256424 0.18100135
-0.048733409 0.024016311 0.1823926
-0.049452778 0.021014871 0.18483676
-0.050072841 0.016637631 0.18731399
-0.050776854 0.01276986 0.1896558
-0.050423931 0.0080673164 0.19293311
-0.049974043 0.0040729484 0.19627537
-0.04719289 -0.0027251036 0.19767191
-0.046599466 -0.008116846 0.19774295
-0.046677995 -0.011477159 0.19795381
-0.045844905 0.032892484 0.17922543
-0.045579743 0.030655231 0.17984861
-0.045643032 0.027592411 0.18071052
-0.046207286 0.024141002 0.18289669
-0.046980485 0.020810269 0.18517727
-0.047572773 0.016424926 0.18685697
-0.048259661 0.012166032 0.18928622
-0.048115507 0.0076624774 0.19222473
-0.045731064 0.0005149449 0.19528997
-0.044071164 -0.0053331847 0.19472568
-0.043930735 -0.0094000949 0.19512877
-0.044306818 -0.013600812 0.19622794
-0.044852197 -0.01587037 0.19761361
-0.047559012 -0.014684154 0.20169795
-0.047788452 -0.014007464 0.2065974
-0.043510836 0.036269903 0.17754436
-0.04328163 0.034261841 0.17873974
-0.042844765 0.032037478 0.17993395
-0.042712506 0.029051946 0.18127711
-0.043405827 0.024506403 0.18326911
-0.043852687 0.020665063 0.18526641
-0.044571798 0.01614381 0.18636413
-0.045173284 0.011349724 0.18843517
-0.044947214 0.005620304 0.19226633
-0.042140543 -0.0019395782 0.19346376
-0.041212559 -0.0070713214 0.1922197
-0.040725477 -0.010691062 0.19218464
-0.039286535 -0.014126979 0.19451638
-0.043126412 -0.014947848 0.1982919
-0.0450687 -0.014337361 0.20237322
-0.045821611 -0.014436247 0.20666139
-0.046125956 -0.015072812 0.21074429
-0.046569098 -0.014913904 0.21607848
-0.041073252 0.037555948 0.17709596
-0.040398147 0.035334416 0.17894949
-0.039855618 0.033078447 0.18024446
-0.039635856 0.030295646 0.18160827
-0.039865077 0.02658903 0.18331541
-0.04002938 0.021027289 0.18492275
-0.041297175 0.015766107 0.18628237
-0.042656016 0.009973458 0.18853644
-0.041650545 0.0034032906 0.19150035
-0.038684703 -0.0033971153 0.19140026
-0.037764132 -0.008061274 0.19081162
-0.036210489 -0.011132835 0.19244443
-0.036411326 -0.01288085 0.19596033
-0.039279938 -0.01479949 0.19961616
-0.04161023 -0.014148548 0.20375247
-0.042227935 -0.014441337 0.20787714
-0.042778488 -0.015585452 0.21142139
-0.044460662 -0.016284207 0.21700618
-0.045576856 -0.019723233 0.22150931
-0.045544863 -0.022789896 0.22466038
-0.038689621 0.040897574 0.17560902
-0.038292591 0.039412089 0.17660718
-0.037278172 0.037593026 0.17833534
-0.03670793 0.034324016 0.18028478
-0.036757477 0.030831726 0.18191862
-0.0365838 0.026995832 0.18367162
-0.03658187 0.020958768 0.18494812
-0.037957385 0.014622003 0.18651706
-0.039316442 0.0078909164 0.18913354
-0.03810722 0.0010103515 0.19053946
-0.036050625 -0.004414916 0.19019446
-0.03443291 -0.0074977367 0.19120993
-0.033411361 -0.0093121575 0.19451885
-0.034078289 -0.011298193 0.19785519
-0.03593133 -0.01359605 0.20110962
-0.038149647 -0.014359775 0.20462604
-0.039018933 -0.014996653 0.20896135
-0.040173907 -0.016162328 0.21262924
-0.041354727 -0.017182695 0.21658553
-0.041547202 -0.019897914 0.2201924
-0.042864442 -0.023199502 0.22464068
-0.035558511 0.043697577 0.17462374
-0.034718987 0.04250852 0.17599867
-0.033903182 0.040326245 0.17820539
-0.033346232 0.037126038 0.17980474
-0.033557855 0.031945076 0.18195125
-0.033417288 0.027343171 0.18417352
-0.03378354 0.020090099 0.18557
-0.034814727 0.014470826 0.18685
-0.035565879 0.0082335016 0.18899585
-0.035908133 0.00058600912 0.19012929
-0.033684161 -0.0033305078 0.19057779
-0.031864543 -0.0055468134 0.19265379
-0.031201577 -0.0072644902 0.19546175
-0.031561725 -0.0097835185 0.19929649
-0.032826383 -0.012535954 0.20330903
-0.034672733 -0.014416051 0.20640945
-0.035993721 -0.015562196 0.21059088
-0.03727692 -0.016669057 0.21395041
-0.038139272 -0.018420983 0.21691662
-0.03799459 -0.02070629 0.22003409
-0.038901582 -0.022868425 0.22438239
-0.039391704 -0.025209945 0.2268751
-0.031343788 0.045092463 0.17678602
-0.031124946 0.043460384 0.17708477
-0.030722253 0.041117307 0.17860746
-0.030281899 0.038340218 0.18032031
-0.030256553 0.034036729 0.18219672
-0.030641897 0.028265156 0.18421929
-0.031462971 0.01976705 0.1862264
-0.031885386 0.015021897 0.18716462
-0.032743875 0.0090266466 0.18892954
-0.03401899 0.0020469164 0.18999314
-0.031726424 -0.00034702706 0.19146521
-0.029795989 -0.0029317173 0.19414842
-0.029613027 -0.0049036294 0.19682153
-0.029670004 -0.0081041465 0.20003258
-0.029882148 -0.011641015 0.20469774
-0.031754952 -0.013767056 0.20842096
-0.033366721 -0.015161876 0.21207994
-0.034362759 -0.016811114 0.21524408
-0.035056766 -0.018754585 0.21811403
-0.035293993 -0.020169254 0.22122574
-0.035184763 -0.021998862 0.22436234
-0.036058716 -0.02486217 0.22766162
-0.028626176 0.046014871 0.17660517
-0.028167358 0.04433674 0.17727479
-0.027566876 0.041818593 0.17868263
-0.027143292 0.039078694 0.18059255
-0.027189128 0.035628196 0.18243283
-0.027891744 0.029219776 0.18454368
-0.028911525 0.020023514 0.18697204
-0.029172052 0.015850339 0.18778425
-0.029520128 0.011072385 0.18924643
-0.031279169 0.0053416896 0.19000351
-0.029879881 0.0040592509 0.19123444
-0.028348502 0.0019997172 0.19334361
-0.027250502 -0.0012340556 0.19630453
-0.027327314 -0.0040543047 0.19877389
-0.027540276 -0.010455842 0.20616421
-0.028649183 -0.012396968 0.20992912
-0.030912925 -0.014293456 0.21331029
-0.031057499 -0.016325859 0.21686237
-0.031817984 -0.018318431 0.21968122
-0.0324062 -0.019728145 0.22235219
-0.032802027 -0.022169195 0.22488345
-0.033333499 -0.024288865 0.2263215
-0.034577046 -0.025446394 0.2281936
-0.025139945 0.046160921 0.17717381
-0.024919948 0.044511307 0.17793097
-0.024371173 0.042030871 0.17918514
-0.024069529 0.039101128 0.18063925
-0.024547899 0.035871632 0.18282542
-0.025216823 0.030032301 0.18515283
-0.025975546 0.020575369 0.18812603
-0.026022909 0.016777819 0.18941984
-0.025669064 0.01426572 0.19072758
-0.027303251 0.011214496 0.19050829
-0.026960019 0.0089056827 0.19180198
-0.026119135 0.0055691078 0.19368644
-0.024618736 0.0022511217 0.19642825
-0.023634285 -0.0014854355 0.20002486
-0.024859728 -0.0066803503 0.20501377
-0.026319211 -0.010268047 0.21005251
-0.027208747 -0.013638367 0.21503992
-0.028109169 -0.01662414 0.21913591
-0.029210342 -0.019008538 0.22136855
-0.030624934 -0.021331193 0.22427988
-0.030884754 -0.023023855 0.2255072
-0.031332832 -0.024310337 0.2271377
-0.031857174 -0.026088135 0.23030095
-0.021520723 0.044425335 0.17859599
-0.021280525 0.042835511 0.17961696
-0.021295613 0.040192459 0.18073262
-0.021642171 0.03768786 0.18169817
-0.022336496 0.035098746 0.18365259
-0.022634715 0.029573809 0.18683705
-0.022435619 0.022188384 0.18984431
-0.021828732 0.018492877 0.19176784
-0.022263266 0.016882775 0.19283368
-0.021663828 0.01594873 0.19359876
-0.022090442 0.012680147 0.19443758
-0.022169117 0.0094069242 0.19565773
-0.021476645 0.0050778594 0.19806336
-0.020765547 -0.00040713206 0.20270245
-0.022265971 -0.0051526101 0.20646454
-0.023138607 -0.0083147539 0.21057659
-0.023698648 -0.011159375 0.21446568
-0.0249571 -0.014536483 0.22026207
-0.025740499 -0.018258814 0.22272334
-0.026901862 -0.020824211 0.22530846
-0.027388925 -0.022088017 0.22639577
-0.02776224 -0.023926951 0.22770278
-0.028137593 -0.026528798 0.23105069
-0.018348509 0.041677527 0.18085855
-0.018661685 0.039444093 0.18245549
-0.018945428 0.036785338 0.18346502
-0.019212967 0.034130342 0.18536346
-0.01899299 0.030734487 0.18842922
-0.017928738 0.025212556 0.19193229
-0.016929468 0.020912707 0.19349337
-0.018535102 0.018176805 0.19438806
-0.01812797 0.015941074 0.19636506
-0.018444175 0.013274477 0.19728835
-0.018697204 0.010052913 0.19829868
-0.01847812 0.0055457684 0.20126563
-0.0184814 0.00058713189 0.20504229
-0.019441754 -0.0035420684 0.20840234
-0.020233365 -0.0070844609 0.2128423
-0.020886259 -0.010179901 0.21697871
-0.021989146 -0.013328688 0.2208572
-0.023118852 -0.016569598 0.22342017
-0.023838939 -0.01993826 0.22587767
-0.023985969 -0.021600964 0.22614333
-0.024247576 -0.02414101 0.22716144
-0.024498578 -0.027125714 0.23197278
-0.01544425 0.03892412 0.18401608
-0.015400648 0.036622278 0.1852778
-0.015598753 0.033619352 0.18721791
-0.015759544 0.029922711 0.18972467
-0.013227964 0.025895365 0.19350566
-0.01381744 0.021973252 0.19604431
-0.015288105 0.01824769 0.1965265
-0.015453006 0.015542171 0.1984376
-0.015443585 0.013278994 0.19924015
-0.015428369 0.010181738 0.20101938
-0.015828019 0.0059510092 0.2045493
-0.015868317 0.0014911528 0.20761
-0.016771622 -0.0022456567 0.21028472
-0.017311798 -0.0062366733 0.21532314
-0.017777914 -0.0095723709 0.21970849
-0.018647045 -0.012679543 0.22246735
-0.019855071 -0.016007621 0.22466063
-0.020156084 -0.019186523 0.22613735
-0.020383494 -0.021755639 0.2263734
-0.021047525 -0.024786048 0.22894658
-0.020791905 -0.027468417 0.2341381
-0.01240055 0.036310092 0.18686242
-0.012338597 0.033377282 0.18882091
-0.011895566 0.029979249 0.19102173
-0.0093076862 0.026468899 0.19482332
-0.010379438 0.022687597 0.19802861
-0.012180913 0.019524645 0.19855617
-0.012756381 0.015910437 0.20039228
-0.012512894 0.012942488 0.20241673
-0.012514591 0.0096237259 0.2046255
-0.012782982 0.0065145488 0.20688756
-0.013148288 0.0029919518 0.20952021
-0.013915679 -0.0010226287 0.21290818
-0.014126424 -0.0054416535 0.21743177
-0.014626787 -0.0087401709 0.22121893
-0.015168094 -0.012037107 0.22371981
-0.016541962 -0.01509513 0.22540502
-0.016630085 -0.018093949 0.22656703
-0.016752766 -0.021360971 0.22788553
-0.016723443 -0.025027223 0.23197748
-0.016064338 -0.027874256 0.23704329
-0.0091541763 0.03289336 0.19038349
-0.0072026686 0.030268958 0.19331248
-0.0061909552 0.027006241 0.19738159
-0.0064800424 0.023637969 0.20037681
-0.0084136697 0.02052849 0.2013402
-0.01007413 0.016836938 0.20265684
-0.010022193 0.013233836 0.20458634
-0.0096033243 0.0097418865 0.20604774
-0.0096219778 0.0071387724 0.20763035
-0.010366675 0.004468672 0.21075557
-0.01031151 0.00057321385 0.2150047
-0.010544478 -0.003535378 0.21863379
-0.011291848 -0.0066122641 0.22152086
-0.011237067 -0.010067662 0.22398707
-0.012513057 -0.013451295 0.22520056
-0.012979657 -0.017158218 0.22773686
-0.012890981 -0.021121761 0.22988872
-0.011883602 -0.025100304 0.23484969
-0.0039510559 0.029798925 0.19715875
-0.0025918901 0.026806084 0.19998416
-0.0021293063 0.023583526 0.20141305
-0.0035097422 0.020472059 0.20285353
-0.0058622044 0.017540148 0.20411207
-0.0069074584 0.013617279 0.20551592
-0.0067170849 0.010291396 0.20683029
-0.0067176577 0.0078911548 0.20862301
-0.0071509629 0.0053404863 0.21237101
-0.0067379526 0.0013280975 0.21650849
-0.0070576416 -0.002876234 0.2203981
-0.0073424475 -0.0060529481 0.2216537
-0.0076344195 -0.0092980349 0.22439703
-0.0080010025 -0.012632493 0.2258902
-0.0088094631 -0.016061969 0.22865336
-0.009622545 -0.020583328 0.23065329
-0.0093564149 -0.023835368 0.23388223
-0.00026503284 0.028510118 0.19974145
0.0014059058 0.025863193 0.19993028
0.0016358698 0.022462402 0.2006539
0.0005767172 0.019664887 0.20214376
-0.00058847747 0.017107982 0.20397854
-0.0012959965 0.014665746 0.20582478
-0.0027128984 0.011183766 0.20740691
-0.0030509902 0.0084999185 0.21047491
-0.0030369989 0.0055184425 0.21412192
-0.0027561886 0.001927909 0.21709751
-0.0033621204 -0.0022245029 0.22085445
-0.0036252646 -0.0056471946 0.22197667
-0.0037348934 -0.0091388104 0.22399658
-0.0046225046 -0.01237953 0.22574447
0.004061677 0.024127819 0.19930404
0.0043325545 0.02167167 0.19981381
0.0036434077 0.019214142 0.20111115
0.0033114383 0.017001519 0.20318602
0.0033149049 0.014889873 0.20588996
0.0024655841 0.012371306 0.20884956
0.0017802559 0.0090132719 0.21119049
0.00095519767 0.005739369 0.21459405
0.00060916407 0.0022109419 0.21726841
-4.8723185e-05 -0.0017128531 0.2199568
-0.0010997202 -0.0052799741 0.22230214
0.006901734 0.021090765 0.19988388
0.0066779037 0.01902548 0.20087069
0.0066340566 0.016787311 0.20284358
0.0063334671 0.014718956 0.20588666
0.0052630613 0.012658523 0.20914121
0.0045486274 0.010546239 0.2106625
0 0 0 1 0 0 0 1 0 0 0 1 0 0 0 0 0 346 1 0 0
