ply
format ascii 1.0
comment PCL generated
element vertex 346
property float x
property float y
property float z
element camera 1
property float view_px
property float view_py
property float view_pz
property float x_axisx
property float x_axisy
property float x_axisz
property float y_axisx
property float y_axisy
property float y_axisz
property float z_axisx
property float z_axisy
property float z_axisz
property float focal
property float scalex
property float scaley
property float centerx
property float centery
property int viewportx
property int viewporty
property float k1
property float k2
end_header
-0.057067271 0.019719513 0.18941589
-0.057384413 0.016668964 0.19105549
-0.054036301 0.025424723 0.18444818
-0.054725647 0.023284893 0.18618889
-0.055128682 0.020120265 0.18780874
-0.055416368 0.016629251 0.18982108
-0.05583417 0.012827192 0.19173309
-0.055583235 0.0090878522 0.19407706
-0.054876473 0.0059307055 0.19643851
-0.051277518 0.028514827 0.18168603
-0.051623985 0.026384514 0.1824031
-0.051903728 0.023604037 0.18371718
-0.052075747 0.020651681 0.18531705
-0.052263159 0.017214138 0.1877095
-0.053026997 0.012815943 0.19015479
-0.053084102 0.0086417245 0.19299132
-0.052903 0.0048003416 0.1966846
-0.051476497 0.00055482454 0.19907054
-0.047811285 0.031828966 0.17979556
-0.048482109 0.029907882 0.180232
-0.04873677 0.027214965 0.18095101
-0.048751999 0.023982346 0.18232702
-0.049458761 0.020978097 0.18476135
-0.050074004 0.016609734 0.18724982
-0.050774135 0.012723278 0.18956943
-0.050417669 0.0080022151 0.19279696
-0.049979378 0.0039444054 0.19596256
-0.047214668 -0.0028574816 0.19732361
-0.046625283 -0.0082565229 0.19734001
-0.046699379 -0.0116088 0.19756003
-0.045889474 0.032839049 0.17915559
-0.045623191 0.03060714 0.17977342
-0.045677606 0.027550405 0.18063764
-0.046237055 0.024107751 0.18281089
-0.046993624 0.020771487 0.18507507
-0.047578737 0.016391641 0.18675689
-0.048261352 0.012118775 0.18916894
-0.048112903 0.0075937188 0.19207044
-0.045756608 0.00038188352 0.19494094
-0.044099074 -0.0054635513 0.19430788
-0.043955274 -0.0095279496 0.19468473
-0.044334758 -0.0137285 0.19582424
-0.044892758 -0.01598585 0.19728996
-0.047597088 -0.014752443 0.20143472
-0.04782695 -0.013981433 0.20639755
-0.043575462 0.036228634 0.17748593
-0.043338634 0.034216952 0.1786571
-0.042897921 0.031995725 0.1798358
-0.042758506 0.02901206 0.18117933
-0.043439172 0.024474274 0.18315767
-0.04386628 0.020625232 0.18512253
-0.044581626 0.016104411 0.18621913
-0.045186151 0.011306519 0.18828392
-0.045004304 0.0054541682 0.19187592
-0.042168427 -0.0020602159 0.19305184
-0.041234501 -0.0071790814 0.19173625
-0.040745977 -0.010805842 0.19169345
-0.039321002 -0.014262063 0.19411935
-0.043167893 -0.015061392 0.1979896
-0.045111645 -0.014390422 0.2021482
-0.045864709 -0.014412684 0.20647652
-0.046170354 -0.014988244 0.21058443
-0.046501864 -0.014895732 0.21591352
-0.041138902 0.037528299 0.17703198
-0.04045587 0.035300288 0.17886093
-0.03991719 0.03304819 0.18014413
-0.039693736 0.030276014 0.18149522
-0.039919604 0.02657024 0.18318318
-0.040061988 0.020993223 0.18473394
-0.04132463 0.015729662 0.18608691
-0.042697225 0.0099330284 0.18835877
-0.041669019 0.0033348866 0.19124423
-0.038705349 -0.0034966506 0.19092022
-0.037761748 -0.008174167 0.19028081
-0.036211256 -0.011276844 0.19196548
-0.036439806 -0.013014515 0.19557841
-0.039321531 -0.014899729 0.19935955
-0.041649859 -0.014190165 0.203547
-0.042270068 -0.01442085 0.20769194
-0.042828865 -0.01551385 0.21126771
-0.044404589 -0.016286302 0.2168386
-0.045501467 -0.0197246 0.22133884
-0.045458294 -0.022773467 0.22450846
-0.038748823 0.040890582 0.17557362
-0.038356017 0.039397538 0.17656007
-0.037331197 0.037580464 0.17827564
-0.036775306 0.034323264 0.18019502
-0.036822431 0.030828441 0.18180083
-0.03664317 0.026979426 0.1835226
-0.036630921 0.02093178 0.18471248
-0.038012605 0.014578726 0.18626714
-0.039427929 0.0077393004 0.18878348
-0.038172428 0.00091375603 0.19018857
-0.036040839 -0.0045103403 0.18967603
-0.034397684 -0.0076271784 0.190671
-0.033403914 -0.0094563672 0.19403727
-0.034101464 -0.011421384 0.19746682
-0.035960961 -0.01368513 0.20081548
-0.038189422 -0.014403835 0.20441082
-0.039073158 -0.01497917 0.20878489
-0.040154174 -0.016179617 0.21242435
-0.041307017 -0.017199244 0.21639501
-0.041484997 -0.019920217 0.21998407
-0.042782251 -0.023196626 0.22446446
-0.035607811 0.04369181 0.17458059
-0.034764726 0.04250554 0.17595355
-0.033942912 0.040326014 0.17816357
-0.033393204 0.037127938 0.17976405
-0.033627622 0.031946428 0.18184133
-0.033476088 0.027328204 0.18401119
-0.033830244 0.020059414 0.18529923
-0.034866292 0.014420371 0.18655011
-0.035668161 0.0080792047 0.18863146
-0.035966031 0.00051328109 0.18978247
-0.033669751 -0.0034077365 0.19008602
-0.031837124 -0.0056695822 0.19213307
-0.031189667 -0.0074154502 0.19496192
-0.03156957 -0.0099102398 0.19887817
-0.032852344 -0.012614412 0.20300524
-0.034721371 -0.01444989 0.2061882
-0.036052611 -0.015539811 0.21041986
-0.037254475 -0.016709248 0.21372405
-0.038105316 -0.018460745 0.21669762
-0.03794441 -0.02073927 0.21980782
-0.038817685 -0.022886803 0.22417094
-0.039301921 -0.02521346 0.22668086
-0.031384505 0.045089904 0.17675415
-0.031165276 0.04346117 0.17704767
-0.030758403 0.041118074 0.17856047
-0.030317489 0.038340706 0.18026434
-0.030311845 0.034029562 0.18211202
-0.030706108 0.028255759 0.18406136
-0.031514589 0.019738955 0.18594663
-0.031937819 0.014976645 0.18684316
-0.032799464 0.0089497296 0.18859354
-0.034109969 0.0020012034 0.1897268
-0.03177483 -0.00040267684 0.1911037
-0.029809443 -0.0030512905 0.19370869
-0.029584477 -0.0050802296 0.19632722
-0.029647151 -0.008256332 0.19957455
-0.029901024 -0.011732364 0.20437405
-0.031803098 -0.013790762 0.20818055
-0.03335439 -0.01521987 0.21181221
-0.034332637 -0.016871581 0.21499133
-0.035006855 -0.018816436 0.21785644
-0.035219096 -0.020219931 0.22096689
-0.035092998 -0.022030542 0.2241094
-0.035960138 -0.024879884 0.22742714
-0.028666746 0.046018649 0.17656906
-0.028207125 0.04434479 0.17723452
-0.027599622 0.041826129 0.17862846
-0.027166549 0.039081056 0.18051089
-0.027223235 0.035621099 0.18233021
-0.027946886 0.029208263 0.1843842
-0.028968243 0.019996632 0.18670268
-0.029227449 0.015814638 0.18747531
-0.029579721 0.011016381 0.1889006
-0.031421565 0.005259376 0.18973406
-0.029988183 0.0039738724 0.19090429
-0.028382331 0.0018838594 0.19292495
-0.02719235 -0.0014128275 0.19580293
-0.02724115 -0.004268127 0.1982501
-0.027554588 -0.010500449 0.20586815
-0.028640842 -0.012430496 0.20963861
-0.030892113 -0.014354942 0.2130302
-0.031014105 -0.016403668 0.21658476
-0.03175557 -0.018405588 0.21938966
-0.032321908 -0.019808192 0.22204491
-0.032711126 -0.02224369 0.22457869
-0.0332442 -0.024332013 0.22603269
-0.034475677 -0.025456429 0.2279143
-0.02517879 0.046168592 0.17714246
-0.02495518 0.04452122 0.17788945
-0.024397049 0.042043347 0.17912358
-0.024083516 0.039109927 0.18053089
-0.024571696 0.03585577 0.18269557
-0.025265906 0.030001335 0.1849976
-0.02603803 0.020546068 0.18787402
-0.026085418 0.016745923 0.18913954
-0.025731673 0.014230277 0.19043401
-0.027365586 0.011171633 0.19018225
-0.027005935 0.0088457605 0.19143105
-0.026139611 0.0054957187 0.19327363
-0.024608292 0.0021580874 0.19597979
-0.023598164 -0.0016026923 0.19961087
-0.024873916 -0.0067581329 0.20472029
-0.026344366 -0.01030575 0.20979854
-0.027192509 -0.013679978 0.21477243
-0.02805748 -0.016732734 0.21881439
-0.02914395 -0.019118171 0.22103405
-0.030545685 -0.021429246 0.22394346
-0.030814879 -0.023100473 0.22518009
-0.03125504 -0.024348754 0.22683044
-0.031776801 -0.02606908 0.2300164
-0.021559417 0.044428047 0.1785585
-0.021314975 0.042834781 0.17955802
-0.021324713 0.040185586 0.18064274
-0.02166708 0.037675321 0.18157868
-0.022365425 0.035069775 0.18350583
-0.022665985 0.029549794 0.18669334
-0.022491036 0.022166524 0.18964507
-0.021890797 0.018466609 0.19153142
-0.022301542 0.016845431 0.19255866
-0.021665819 0.015905244 0.19329713
-0.02206229 0.012626159 0.19408916
-0.022129895 0.0093439361 0.19526826
-0.021420198 0.0049856314 0.19765006
-0.02067663 -0.00054523 0.20236224
-0.022240063 -0.0052604149 0.20621179
-0.023149597 -0.008381322 0.21036127
-0.02369885 -0.01123245 0.21428008
-0.02494717 -0.014606719 0.22004703
-0.025693158 -0.018344995 0.22241049
-0.026835453 -0.020911178 0.2249628
-0.027322074 -0.022146845 0.22605683
-0.027701642 -0.02394562 0.22739427
-0.028076505 -0.026494227 0.23077042
-0.018385414 0.041661572 0.1807889
-0.018697763 0.039417077 0.18236306
-0.018982161 0.036749564 0.18335411
-0.019248465 0.034098942 0.18524361
-0.019011308 0.030723371 0.18832476
-0.017915893 0.025194664 0.19179916
-0.016919324 0.02084356 0.19325471
-0.018524719 0.018111998 0.19410247
-0.018079007 0.01585 0.19604056
-0.01837532 0.013181562 0.19692728
-0.018605949 0.009950689 0.19789335
-0.018385375 0.0054238182 0.20087868
-0.018391671 0.00045136674 0.20471838
-0.019383609 -0.0036604342 0.2081307
-0.020220958 -0.0071750502 0.21262653
-0.020871937 -0.010258195 0.21679999
-0.022001661 -0.013388255 0.22070695
-0.023124676 -0.01664154 0.22319914
-0.023813587 -0.020006694 0.22556655
-0.02395195 -0.021637946 0.22582588
-0.024211202 -0.024132002 0.22686802
-0.024474403 -0.027063515 0.23171853
-0.015489369 0.038886432 0.1839222
-0.015444216 0.036588136 0.18517694
-0.0156311 0.033597879 0.18711968
-0.015768664 0.029913336 0.18961848
-0.013179839 0.025873901 0.19336477
-0.013772794 0.021890406 0.19580671
-0.015261617 0.018147673 0.19624305
-0.015405593 0.015441732 0.19813113
-0.015377995 0.013179579 0.19890673
-0.015347477 0.010067265 0.20065865
-0.015740532 0.0058253286 0.20421298
-0.015794851 0.0013715088 0.20731169
-0.016716953 -0.0023587316 0.2100092
-0.017283175 -0.006337171 0.21510911
-0.017760592 -0.0096577499 0.21953154
-0.018657243 -0.012745333 0.22231154
-0.019882005 -0.016090173 0.22446753
-0.020164082 -0.019247314 0.22589131
-0.020380689 -0.021751316 0.22611134
-0.02103899 -0.024732023 0.22871247
-0.020805415 -0.02738359 0.2339161
-0.012439115 0.036270238 0.18676476
-0.012365065 0.033353984 0.18871728
-0.011894529 0.029968586 0.19090314
-0.00926279 0.026448427 0.19469739
-0.010336955 0.022613334 0.19781828
-0.012158173 0.019435246 0.19829853
-0.012717512 0.015817357 0.20011815
-0.012451427 0.012836897 0.20212607
-0.012433136 0.0095078079 0.20432347
-0.012708449 0.0064035142 0.20660526
-0.01309514 0.0028833537 0.20924954
-0.013876206 -0.0011174021 0.21265531
-0.014087471 -0.0055523808 0.21722832
-0.014605769 -0.0088368235 0.2210443
-0.015175004 -0.012107451 0.22355007
-0.016575592 -0.015157074 0.22520441
-0.016668914 -0.01814332 0.22634043
-0.016779698 -0.021358497 0.22765498
-0.016753048 -0.024965871 0.231787
-0.016139792 -0.027825834 0.23686454
-0.0091734873 0.032870974 0.19027807
-0.0071949111 0.030266589 0.19321436
-0.0061540455 0.026984392 0.19728033
-0.0064412346 0.023575937 0.20022847
-0.0083868336 0.020455742 0.20111513
-0.010046353 0.016749494 0.20239408
-0.0099806702 0.013137972 0.20430303
-0.0095572351 0.0096570374 0.20579396
-0.0095785372 0.0070618172 0.20739253
-0.010341184 0.0043959459 0.21051727
-0.010285502 0.00047410355 0.21478568
-0.010505331 -0.0036508008 0.21843626
-0.011270246 -0.0067047561 0.22134964
-0.011228831 -0.010131926 0.22384715
-0.0125525 -0.013490668 0.22504131
-0.013040065 -0.017178003 0.22755483
-0.012948202 -0.021111285 0.22971931
-0.011959725 -0.025062762 0.23473479
-0.0039358716 0.029799549 0.19708453
-0.002568237 0.026793713 0.19991328
-0.0020947079 0.023568906 0.20133002
-0.0034688869 0.020446165 0.20272651
-0.0058282148 0.017500728 0.20390205
-0.0069018053 0.013565847 0.20528893
-0.0067015747 0.010238709 0.20662193
-0.0067062578 0.0078457417 0.20842716
-0.0071646189 0.0052883704 0.21219824
-0.0067137023 0.0012307024 0.21631815
-0.0070370291 -0.0029637672 0.22022979
-0.0073261801 -0.0061181127 0.22152151
-0.0076378258 -0.0093319081 0.22429731
-0.0080279373 -0.012642338 0.22581168
-0.0088816918 -0.016043661 0.2285466
-0.0096956482 -0.020557379 0.23052877
-0.0094379196 -0.023794057 0.23379262
-0.0002566897 0.028516013 0.1996896
0.0014314578 0.025885412 0.19989263
0.0016838282 0.022486156 0.20061572
0.00063187181 0.019684698 0.20208058
-0.00053205964 0.017127255 0.20390365
-0.001257471 0.014695375 0.20574082
-0.0027170705 0.011193255 0.20730266
-0.0030641588 0.0084756156 0.21035664
-0.0030450735 0.0054643317 0.21398777
-0.0027406334 0.0018549983 0.21696058
-0.0033529659 -0.0022890132 0.22072913
-0.0036166674 -0.0056911805 0.22188881
-0.0037483601 -0.0091552828 0.22394757
-0.0046575996 -0.012375252 0.22571804
0.0041033207 0.024172474 0.199288
0.0043900586 0.021719141 0.19979252
0.0037045239 0.019258905 0.20106965
0.0033757272 0.017045517 0.20314099
0.0033686203 0.014932493 0.20584856
0.0025048445 0.012377334 0.20878622
0.0018045165 0.00896654 0.21107116
0.00096056046 0.0056835487 0.21447855
0.00061506225 0.0021556141 0.21717174
-3.7533373e-05 -0.0017615713 0.21988206
-0.0011065268 -0.005312176 0.22224878
0.0069590127 0.021155277 0.19987965
0.0067405892 0.019089319 0.20085829
0.0066968417 0.016849142 0.20282659
0.0063853273 0.014769777 0.20586571
0.0053012059 0.012680235 0.2090845
0.0045849816 0.010528781 0.21055625
0 0 0 1 0 0 0 1 0 0 0 1 0 0 0 0 0 346 1 0 0
