ply
format ascii 1.0
comment PCL generated
element vertex 346
property float x
property float y
property float z
element camera 1
property float view_px
property float view_py
property float view_pz
property float x_axisx
property float x_axisy
property float x_axisz
property float y_axisx
property float y_axisy
property float y_axisz
property float z_axisx
property float z_axisy
property float z_axisz
property float focal
property float scalex
property float scaley
property float centerx
property float centery
property int viewportx
property int viewporty
property float k1
property float k2
end_header
-0.056674849 0.019100817 0.18873829
-0.05691677 0.016086657 0.19037981
-0.053850647 0.024809947 0.18386085
-0.054488663 0.022641214 0.18547733
-0.054904003 0.01949048 0.18703778
-0.055079091 0.016068211 0.18896037
-0.055385966 0.012493482 0.19094986
-0.055003952 0.0087841172 0.19308864
-0.054219045 0.0053636269 0.19507298
-0.051301539 0.027915061 0.18148765
-0.051583935 0.02581666 0.18197368
-0.051794831 0.023119397 0.18297482
-0.051941838 0.020080427 0.18432695
-0.052063763 0.016733982 0.18649541
-0.052830327 0.012361836 0.18903618
-0.052750129 0.0082162423 0.19169332
-0.052372359 0.0041948091 0.19498549
-0.050631281 -0.00011756735 0.19630601
-0.047987178 0.031155238 0.17959021
-0.048618957 0.029398581 0.18009534
-0.048829116 0.026725812 0.18056376
-0.048815429 0.023498893 0.18145564
-0.049406394 0.020401575 0.18340226
-0.050021905 0.01614047 0.18578491
-0.050682705 0.012269679 0.18804866
-0.050197832 0.0075259609 0.19095488
-0.049334731 0.0033131074 0.19319281
-0.046973832 -0.0032121667 0.19367804
-0.046684142 -0.0085779056 0.19310889
-0.046917889 -0.011879362 0.19327064
-0.046218894 0.032096349 0.17875665
-0.045945868 0.029971728 0.17929529
-0.045901116 0.026974104 0.18002057
-0.046381291 0.023525912 0.18160433
-0.047000941 0.020096736 0.18328065
-0.04759524 0.015848177 0.18480839
-0.048204426 0.011581496 0.18720119
-0.047995005 0.0069798687 0.1899745
-0.045520134 -7.2025286e-05 0.19131064
-0.044358641 -0.0057098223 0.18964401
-0.044387959 -0.009745107 0.18963425
-0.044858295 -0.014017056 0.19112577
-0.045435566 -0.016184378 0.19333744
-0.047817845 -0.014640043 0.19822338
-0.047977813 -0.013375469 0.2036881
-0.044135865 0.035428945 0.17707868
-0.043815795 0.033411715 0.17802928
-0.043326352 0.0312685 0.17906219
-0.043091461 0.028280301 0.18025503
-0.04361587 0.02387354 0.18161197
-0.0438818 0.019913163 0.18286143
-0.044609472 0.015496721 0.18375854
-0.045222949 0.010795849 0.18586133
-0.044845287 0.0049585556 0.18836093
-0.042381283 -0.0022337383 0.18830206
-0.04194409 -0.0070543624 0.1859792
-0.041554324 -0.010854729 0.18567263
-0.040035728 -0.014761572 0.18920352
-0.043680973 -0.015284582 0.19420706
-0.04541095 -0.01423431 0.19913611
-0.046089835 -0.013843588 0.20382898
-0.046266992 -0.014140754 0.20815673
-0.046665959 -0.014871407 0.21396579
-0.041698076 0.036819316 0.17651775
-0.04092966 0.034559902 0.17808594
-0.040372334 0.032361876 0.17917122
-0.040043201 0.029670291 0.18018866
-0.040098328 0.025938123 0.18140744
-0.040134605 0.020422274 0.18223286
-0.041363705 0.015287353 0.18330054
-0.042925913 0.009578052 0.18552849
-0.041844986 0.0028329457 0.18769924
-0.03927917 -0.0036410317 0.18516041
-0.038425155 -0.008405881 0.18398525
-0.036761947 -0.011927295 0.18628766
-0.037069619 -0.013491323 0.19099751
-0.039900672 -0.015026188 0.19590871
-0.042003401 -0.014029315 0.20066796
-0.042516291 -0.01397945 0.20499729
-0.043003451 -0.014834182 0.20880012
-0.044685569 -0.016380636 0.21498826
-0.045627773 -0.020516606 0.21909565
-0.045344714 -0.023838168 0.22201595
-0.03926282 0.040491596 0.17497644
-0.038895845 0.038915444 0.17586933
-0.037826288 0.037199393 0.17747788
-0.037323579 0.034085583 0.17917851
-0.037174206 0.030499937 0.1802576
-0.036721628 0.026553653 0.18135744
-0.036700439 0.020638254 0.18194962
-0.038258951 0.014237096 0.18321007
-0.039834101 0.007492044 0.1844282
-0.038642395 0.00057095999 0.1847475
-0.036575001 -0.005097725 0.18344259
-0.034732819 -0.0084653161 0.18451183
-0.033854596 -0.010139591 0.18851043
-0.034726225 -0.011749961 0.1928561
-0.036539283 -0.013725838 0.19704852
-0.038646609 -0.014310156 0.20136902
-0.039430331 -0.014645936 0.20604455
-0.040556289 -0.01610006 0.21028344
-0.041594438 -0.017265586 0.21436326
-0.041732922 -0.020235848 0.2177327
-0.042696908 -0.024040623 0.22185929
-0.036059044 0.043437049 0.17362042
-0.035167389 0.042304195 0.17499901
-0.034295119 0.040187161 0.17729564
-0.03381978 0.037021376 0.17902939
-0.034099188 0.031814095 0.18028854
-0.033612117 0.027056495 0.18164995
-0.033862423 0.019802613 0.1822488
-0.035010993 0.014015045 0.18307549
-0.036092553 0.0078010587 0.18365051
-0.036539771 -0.00014075499 0.18382499
-0.034082502 -0.0043914812 0.18375023
-0.03212136 -0.0066069281 0.18594901
-0.0315581 -0.0081860926 0.18923838
-0.032213181 -0.010179092 0.19404723
-0.033501357 -0.012560986 0.19916274
-0.035307683 -0.014395272 0.20299482
-0.036499798 -0.015327546 0.20758168
-0.037660874 -0.016806362 0.21148743
-0.038471676 -0.018594954 0.21449263
-0.038217839 -0.020929845 0.21745005
-0.038764995 -0.023518436 0.22151978
-0.039136607 -0.026072077 0.22387245
-0.031697422 0.04489857 0.17585678
-0.031473022 0.043306027 0.17615415
-0.03105499 0.041004967 0.17762376
-0.030594848 0.038240064 0.17936584
-0.030825462 0.033769984 0.1808465
-0.031074753 0.02798802 0.18183285
-0.031610258 0.019490689 0.18273236
-0.032052435 0.014613731 0.18315595
-0.033138506 0.0083440356 0.18417178
-0.034632981 0.0010972848 0.18340828
-0.032130275 -0.0014094185 0.18453106
-0.030110778 -0.004009211 0.18727864
-0.029802063 -0.0059520374 0.19038203
-0.030282343 -0.0086059449 0.19449171
-0.03069978 -0.011659211 0.2004557
-0.032383852 -0.013765979 0.20483543
-0.03382666 -0.015297089 0.20926046
-0.034666266 -0.017152678 0.21270365
-0.035248283 -0.019089771 0.21550862
-0.035337426 -0.02050514 0.21849734
-0.03504248 -0.022443634 0.22140774
-0.035711706 -0.025448658 0.22454563
-0.028956842 0.045891847 0.17558354
-0.028478898 0.044279456 0.17626558
-0.027791606 0.041780736 0.17760512
-0.027265957 0.039060276 0.17932187
-0.027491471 0.035486501 0.18101737
-0.028329795 0.028960871 0.1822516
-0.029167406 0.019763999 0.18352923
-0.02937155 0.015501644 0.18385381
-0.029873295 0.010550913 0.18459807
-0.031728163 0.0043636216 0.18345487
-0.03013804 0.00317089 0.18449275
-0.028433872 0.0011021483 0.18638209
-0.027197678 -0.0023303698 0.18936788
-0.027417013 -0.0052381265 0.19250882
-0.028210701 -0.010552479 0.202805
-0.02909494 -0.012525398 0.20670643
-0.031301893 -0.01455394 0.21040095
-0.031256031 -0.016897092 0.21425144
-0.031973537 -0.018882753 0.21692377
-0.032419708 -0.020103596 0.21939713
-0.03262886 -0.022381436 0.22195174
-0.033070967 -0.024354344 0.22339256
-0.03416029 -0.025454886 0.2250094
-0.025407715 0.046104267 0.1762598
-0.02514299 0.044499915 0.17696638
-0.024482628 0.042095918 0.17812797
-0.024070535 0.039205529 0.17923945
-0.024713205 0.035724062 0.18117167
-0.025613775 0.029658986 0.18291532
-0.026352964 0.020234514 0.18484122
-0.026378054 0.016391408 0.18561105
-0.026057202 0.013852605 0.18651406
-0.02785589 0.010725005 0.18572864
-0.027413629 0.0083921058 0.18659951
-0.026448928 0.0049874843 0.18820027
-0.024912992 0.0015909482 0.19083901
-0.023779185 -0.0023650115 0.19528829
-0.025512177 -0.0071741641 0.20174126
-0.026818348 -0.010551414 0.20699348
-0.027565856 -0.014141459 0.21238647
-0.028407084 -0.017599482 0.21608512
-0.02936903 -0.019719584 0.21827683
-0.030602016 -0.021628479 0.22122876
-0.030849572 -0.023088213 0.22249292
-0.031157255 -0.024196982 0.22412387
-0.031457234 -0.025704186 0.22720052
-0.021775162 0.044456679 0.17807673
-0.02151411 0.042866658 0.17897758
-0.021510117 0.040229391 0.17976847
-0.021818174 0.037654903 0.18032452
-0.022568462 0.03480655 0.18179755
-0.022829985 0.029215492 0.18481371
-0.022771301 0.021863962 0.18708867
-0.02242198 0.018142428 0.18822266
-0.02273166 0.016519101 0.18882638
-0.022008268 0.015672769 0.18944035
-0.022180799 0.012453062 0.18990368
-0.022107733 0.0091390153 0.19077751
-0.021256825 0.0044350922 0.19328411
-0.020051779 -0.0017064397 0.19924036
-0.022063363 -0.0062691546 0.20375724
-0.023372106 -0.0092381518 0.20811336
-0.024004025 -0.012250936 0.21229127
-0.025437368 -0.015342264 0.2177217
-0.025987584 -0.018791525 0.21947907
-0.026970232 -0.02100873 0.22186813
-0.027491869 -0.022089379 0.22299515
-0.027753854 -0.023644861 0.22443098
-0.027972294 -0.025887329 0.22784369
-0.018698283 0.041655134 0.18052658
-0.019002337 0.039217249 0.18173854
-0.019272259 0.036413066 0.18227024
-0.019480532 0.033638537 0.18382789
-0.019020377 0.030353928 0.18701299
-0.017779646 0.024907552 0.19021641
-0.017516127 0.020365791 0.19021788
-0.019104239 0.017729102 0.19062315
-0.018411642 0.015311456 0.19242583
-0.018471617 0.012692478 0.19306253
-0.01844055 0.00944917 0.193721
-0.017927067 0.0045705545 0.19704522
-0.017739659 -0.00069866533 0.20169857
-0.018862018 -0.0047442145 0.20561185
-0.020196 -0.0083669284 0.21030429
-0.021066414 -0.011398454 0.21474387
-0.02252545 -0.01408483 0.21881238
-0.023664206 -0.017034253 0.2205331
-0.024254229 -0.019927416 0.2224372
-0.024309877 -0.021362813 0.22266677
-0.024574684 -0.023559827 0.22387464
-0.024753202 -0.026164178 0.22875954
-0.015904795 0.038477 0.18346429
-0.015779994 0.036137514 0.18442585
-0.015789729 0.03317884 0.18618122
-0.015726918 0.02964564 0.18855825
-0.012864366 0.025644494 0.19182925
-0.014053673 0.021153938 0.1927653
-0.015833938 0.017431585 0.19289115
-0.015663801 0.014720932 0.19456983
-0.015425431 0.012492162 0.19522704
-0.015084513 0.0092858281 0.19674143
-0.015162162 0.0048538684 0.20076188
-0.015200895 0.00033652529 0.20445479
-0.01619998 -0.0034364213 0.20745611
-0.017146248 -0.0078121717 0.21267277
-0.017898789 -0.010973638 0.21751253
-0.01916099 -0.013538406 0.22024867
-0.020544518 -0.016564967 0.22172968
-0.020839965 -0.019232037 0.22302903
-0.021167431 -0.021120569 0.22323956
-0.021660654 -0.023828579 0.22589952
-0.021454882 -0.026284438 0.23120134
-0.012734608 0.03570373 0.18609278
-0.012518137 0.032926153 0.18780749
-0.011879808 0.029762378 0.18989637
-0.0090714265 0.026042061 0.19310847
-0.01031792 0.021746356 0.19482343
-0.012597407 0.018628385 0.19485171
-0.012868186 0.014955113 0.19642456
-0.012020784 0.011823614 0.19824921
-0.011682712 0.0084294733 0.20070873
-0.012081946 0.0054773749 0.20348947
-0.012657474 0.0019071638 0.20642234
-0.01343988 -0.0019809918 0.21020119
-0.013942012 -0.0073293624 0.21491496
-0.014672182 -0.010459126 0.21891588
-0.015740152 -0.013080879 0.22134927
-0.01742607 -0.015564818 0.22241813
-0.017747374 -0.018201321 0.22346996
-0.017884931 -0.020921549 0.22482477
-0.017724037 -0.024119832 0.22934745
-0.017347829 -0.027223026 0.23462309
-0.009352888 0.032429352 0.18938079
-0.0073063229 0.02999399 0.19221674
-0.0059492243 0.026252013 0.19569425
-0.0061332691 0.022375615 0.19768374
-0.0084818741 0.019506011 0.19768944
-0.010067878 0.015828384 0.19851054
-0.0094053298 0.012096959 0.20042135
-0.0090762349 0.0088812821 0.20269659
-0.0092311716 0.0063049677 0.20474672
-0.010210416 0.0034864829 0.20786448
-0.010247716 -0.00084985181 0.21250294
-0.010420435 -0.005293428 0.21664689
-0.011298037 -0.0083286976 0.21938814
-0.011589977 -0.011403182 0.22215568
-0.013733032 -0.014015421 0.22277212
-0.014416648 -0.017009234 0.2249901
-0.01435431 -0.020616382 0.22729959
-0.01334405 -0.024495691 0.23294093
-0.0039451066 0.029200481 0.1959343
-0.0023087461 0.025861356 0.19831605
-0.0016541572 0.022683822 0.19940139
-0.0029962338 0.019595545 0.20030007
-0.0055856332 0.016821982 0.20051213
-0.006682707 0.012969154 0.20186964
-0.0065051485 0.0096480129 0.20401546
-0.0066659679 0.0072639431 0.20612909
-0.0073640882 0.0042962739 0.21006621
-0.006827841 -0.00016557284 0.21449848
-0.0072602401 -0.0042248443 0.2189548
-0.0075583248 -0.0071873316 0.22045657
-0.008135031 -0.010176194 0.22344114
-0.0088519221 -0.013049964 0.2249119
-0.010391218 -0.015729865 0.22672294
-0.011291957 -0.019917548 0.22872771
-0.010832894 -0.023213519 0.2322495
-0.00017256562 0.027698942 0.19834089
0.0017858073 0.025302406 0.19861893
0.0022877057 0.022061029 0.19940363
0.0012489978 0.019287582 0.20059493
2.8969433e-05 0.016772853 0.20223752
-0.00099247054 0.014444364 0.20382237
-0.0027872282 0.010955463 0.20556831
-0.0032195423 0.007619367 0.20891196
-0.0033243671 0.0042458167 0.21242827
-0.0030297933 0.0006443825 0.21587038
-0.0037802234 -0.0032095467 0.22004829
-0.0040237042 -0.0064431196 0.22163703
-0.0044282139 -0.009601281 0.22403125
-0.0055316836 -0.01254953 0.22583984
0.0046476619 0.023905626 0.19846335
0.0050831037 0.021562552 0.19900878
0.0043743569 0.019130366 0.20009509
0.0039149066 0.016953938 0.20205103
0.0036171642 0.014825611 0.20467201
0.0026463941 0.011731071 0.20741194
0.0018727829 0.0077110804 0.20974581
0.00071741844 0.0044416161 0.2132806
0.00018228902 0.0010736317 0.21646687
-0.00041836049 -0.0025130329 0.21980497
-0.0016224906 -0.0059067011 0.2224493
0.0075605949 0.021190124 0.19945313
0.0073517505 0.019175259 0.20034711
0.0071733766 0.016961629 0.20225042
0.006578688 0.014750008 0.20512755
0.0053494074 0.012219593 0.20789719
0.0047158939 0.0095233899 0.20915063
0 0 0 1 0 0 0 1 0 0 0 1 0 0 0 0 0 346 1 0 0
