ply
format ascii 1.0
comment PCL generated
element vertex 346
property float x
property float y
property float z
element camera 1
property float view_px
property float view_py
property float view_pz
property float x_axisx
property float x_axisy
property float x_axisz
property float y_axisx
property float y_axisy
property float y_axisz
property float z_axisx
property float z_axisy
property float z_axisz
property float focal
property float scalex
property float scaley
property float centerx
property float centery
property int viewportx
property int viewporty
property float k1
property float k2
end_header
-0.058126274 0.024978738 0.18988998
-0.05835649 0.022340888 0.19155039
-0.054876689 0.030615229 0.18522599
-0.055668604 0.028320502 0.18662247
-0.0559844 0.025393596 0.18810727
-0.056296483 0.02209029 0.19040079
-0.056745909 0.018668016 0.19241516
-0.057092268 0.015131595 0.1941645
-0.056870703 0.012030611 0.19521227
-0.051372163 0.033214442 0.18153287
-0.051979672 0.031378288 0.18299149
-0.052626092 0.028575825 0.18447661
-0.052754205 0.025600377 0.18593344
-0.053035166 0.022369433 0.18867846
-0.05363445 0.018480066 0.19100878
-0.054369632 0.014851253 0.19302668
-0.054803893 0.011303077 0.19510478
-0.054918732 0.008040267 0.19584978
-0.048071425 0.03585631 0.1788263
-0.048583526 0.034095388 0.17972726
-0.048854843 0.031614318 0.18119708
-0.049136892 0.028495464 0.18291751
-0.049757779 0.02578762 0.1856568
-0.050289948 0.022254527 0.18865386
-0.050872464 0.018542595 0.19081546
-0.051480427 0.014602574 0.19322629
-0.051966853 0.011723631 0.19556068
-0.051991463 0.0068915091 0.19555351
-0.052498113 0.0026236197 0.19656016
-0.05299079 -0.0010366113 0.19755284
-0.045975108 0.036615357 0.17789705
-0.045713145 0.034295209 0.17887303
-0.045699399 0.031585041 0.18055625
-0.046244197 0.028580397 0.18339589
-0.046933178 0.025764139 0.18607402
-0.047427457 0.022485588 0.18880466
-0.048023317 0.018651864 0.19114949
-0.048651058 0.014801577 0.19318502
-0.049085584 0.010783197 0.19464865
-0.049067002 0.0062765451 0.19460656
-0.049295962 0.0022202018 0.19561894
-0.049871873 -0.0022795445 0.19737247
-0.050582744 -0.0038989508 0.20266402
-0.052907933 -0.0043668831 0.2086626
-0.052751359 -0.0063875876 0.21314801
-0.043398906 0.039824422 0.17636114
-0.04326966 0.037570726 0.17749833
-0.042913556 0.035089292 0.17885561
-0.042841073 0.032453809 0.1807248
-0.043282203 0.029035538 0.18372102
-0.043713402 0.02609949 0.18638989
-0.044254262 0.022770232 0.18875089
-0.04470408 0.019068973 0.19088133
-0.046071265 0.015636906 0.19442835
-0.046216547 0.010502925 0.19435237
-0.045894001 0.0059810602 0.19385089
-0.045547426 0.0018755718 0.19445543
-0.045653097 -0.0013078282 0.19975306
-0.048780281 -0.002205282 0.20542279
-0.050044794 -0.0038457389 0.20986547
-0.050272677 -0.0064203492 0.21297206
-0.050055582 -0.0091963308 0.21598437
-0.050065387 -0.012029925 0.22045602
-0.040901471 0.041000322 0.1763313
-0.040369738 0.038402788 0.17789283
-0.039917771 0.035941575 0.17917591
-0.039741494 0.033159602 0.18137813
-0.039875187 0.030135075 0.18398324
-0.04025076 0.026818477 0.18631187
-0.041039873 0.023194741 0.18878216
-0.04174972 0.018968258 0.1908634
-0.043009121 0.01409471 0.19394115
-0.042894535 0.010194703 0.19544683
-0.042284247 0.0053501208 0.19520016
-0.041909784 0.0018927837 0.19785976
-0.042931132 -0.00020101182 0.20260659
-0.045143787 -0.0018620167 0.2066711
-0.046651952 -0.003485939 0.21099205
-0.046636283 -0.0060562268 0.21419729
-0.046479963 -0.0089520039 0.21650949
-0.046897471 -0.012236963 0.22011073
-0.047330037 -0.016931433 0.22347091
-0.046573535 -0.020742768 0.22567567
-0.038187701 0.044384975 0.17551821
-0.03789936 0.042628787 0.17658943
-0.037222523 0.040092453 0.17796206
-0.036588829 0.036854565 0.17972971
-0.036685467 0.033705764 0.18206801
-0.03676749 0.030739121 0.18455096
-0.037267867 0.027461108 0.18695551
-0.037748408 0.023312889 0.18982926
-0.038703956 0.019230293 0.19339044
-0.039911073 0.014130674 0.19604954
-0.039560441 0.0092086624 0.19636713
-0.038899958 0.0055139805 0.19771756
-0.038857967 0.0027168808 0.20112266
-0.040044393 0.00053214084 0.20465903
-0.041679956 -0.0013048268 0.20836763
-0.043019317 -0.0032223891 0.21193907
-0.043028723 -0.0058424994 0.2149929
-0.043262403 -0.0093117328 0.21668103
-0.043682098 -0.012322878 0.21920355
-0.043495998 -0.016338347 0.22145694
-0.043907922 -0.020884903 0.22503395
-0.034263041 0.045922399 0.17522696
-0.033894539 0.044331983 0.17676871
-0.033717565 0.041632295 0.17863263
-0.03345922 0.038334154 0.17974329
-0.0335759 0.034552898 0.1822751
-0.033769362 0.031273764 0.18531728
-0.034382407 0.027523039 0.18827052
-0.034835704 0.023358976 0.19118474
-0.035492387 0.019604266 0.19483434
-0.037172396 0.013824047 0.19693668
-0.036446478 0.0094082803 0.19773825
-0.035773017 0.0060533686 0.19970582
-0.035819929 0.0033813845 0.20247278
-0.036921374 0.001227813 0.20646867
-0.038305927 -0.0005470764 0.21062472
-0.039176088 -0.0030674827 0.21330775
-0.039588839 -0.0060223439 0.21580257
-0.039856136 -0.0096707139 0.21709231
-0.040054511 -0.012970925 0.21880703
-0.039764404 -0.01645462 0.2205462
-0.039986722 -0.020145178 0.22375894
-0.039887622 -0.023525642 0.22578661
-0.030532189 0.046341289 0.17728867
-0.030515356 0.044462398 0.17769895
-0.030570179 0.041926496 0.1790951
-0.030506365 0.038862117 0.18080254
-0.030546628 0.035546403 0.18267889
-0.030921234 0.031708941 0.18552719
-0.031669743 0.027377848 0.1895297
-0.031898867 0.023598468 0.19184726
-0.032562558 0.018791456 0.19452675
-0.03426582 0.014426127 0.19744834
-0.03351203 0.010610608 0.19928107
-0.032759096 0.0068670488 0.20100284
-0.033026703 0.0047086398 0.2042525
-0.034053784 0.00217937 0.20776412
-0.034826659 -9.5990436e-05 0.21190365
-0.035502136 -0.0030526903 0.21433958
-0.036183313 -0.0069788429 0.21593976
-0.03661903 -0.0099018998 0.21758579
-0.036792412 -0.013040783 0.21948387
-0.036796376 -0.015955593 0.22184637
-0.036312602 -0.019322595 0.22345915
-0.036473956 -0.023075929 0.22610076
-0.027666587 0.046787955 0.17736192
-0.027492197 0.044823296 0.17798927
-0.027346367 0.041945465 0.17936237
-0.027506677 0.039036788 0.18145324
-0.027605815 0.036026396 0.18324527
-0.028172305 0.032055367 0.18624668
-0.028695332 0.027546642 0.19044343
-0.029040102 0.024117757 0.19240107
-0.029540891 0.019587623 0.1953464
-0.031088009 0.015365045 0.19808292
-0.03049512 0.012518714 0.20029902
-0.030012896 0.009520568 0.20250462
-0.029938016 0.0063470113 0.20513813
-0.030252701 0.0046428768 0.20715596
-0.031439658 -0.0012155694 0.21207038
-0.03181709 -0.003797642 0.21437927
-0.033169754 -0.0066830511 0.21701212
-0.033216283 -0.0095910933 0.21869551
-0.033188563 -0.012502416 0.22085446
-0.033344481 -0.015218188 0.22336154
-0.033385776 -0.018480178 0.2251292
-0.033637479 -0.022028646 0.2267711
-0.034770705 -0.024432458 0.2291441
-0.024233656 0.046367642 0.17781776
-0.024273777 0.044474445 0.17866652
-0.024243943 0.041568045 0.17965873
-0.024486849 0.038616557 0.18143301
-0.024805306 0.035915326 0.18386394
-0.02532733 0.032460932 0.18680437
-0.02558252 0.027924169 0.19156541
-0.025993427 0.02440819 0.19407342
-0.025947314 0.020991961 0.19698213
-0.027141396 0.016819393 0.19820791
-0.026999297 0.013840736 0.20002238
-0.026854848 0.010481951 0.202342
-0.026518792 0.0071175862 0.2051467
-0.026544251 0.0042558289 0.20844962
-0.027522974 0.00073212414 0.21222249
-0.028457616 -0.0028630244 0.21533222
-0.02911688 -0.0062149265 0.21810144
-0.029234767 -0.0094612697 0.22036518
-0.029602341 -0.012731461 0.22219796
-0.030112412 -0.016123619 0.22503902
-0.030497311 -0.019286189 0.22674765
-0.030972689 -0.02248561 0.22838363
-0.031493973 -0.025948783 0.23170294
-0.02092736 0.045129608 0.17840062
-0.021000203 0.043450303 0.1798549
-0.021187745 0.040653817 0.18123208
-0.021516575 0.037925038 0.18242039
-0.022088517 0.035449568 0.18495044
-0.022418236 0.032119442 0.18819588
-0.022200538 0.028156001 0.1925516
-0.021908987 0.024675963 0.19568405
-0.02235755 0.021773998 0.19826673
-0.022961993 0.018769555 0.20004554
-0.023500511 0.015426365 0.20204584
-0.023561716 0.0123031 0.20401213
-0.023397926 0.0084595373 0.20703469
-0.023677913 0.0047458732 0.21098633
-0.024402864 0.0013976273 0.21353164
-0.024661422 -0.0020132817 0.21616864
-0.025328608 -0.0049283253 0.2193381
-0.025607307 -0.0086522531 0.22231831
-0.025840024 -0.012733 0.22337566
-0.026424855 -0.01626616 0.22644761
-0.026920104 -0.0192321 0.22817716
-0.027241791 -0.022722265 0.22943237
-0.027532347 -0.026392199 0.2327292
-0.018379671 0.042935517 0.18123834
-0.018439436 0.040696785 0.18318005
-0.018617652 0.037870388 0.18419513
-0.018733898 0.035154346 0.18615402
-0.018817591 0.031911347 0.18915518
-0.018884879 0.028054979 0.19347554
-0.018899716 0.024401598 0.19713028
-0.019575147 0.021347545 0.19902827
-0.019405453 0.018797072 0.20145868
-0.019826433 0.015795765 0.20342566
-0.020204855 0.012582208 0.20545387
-0.020309471 0.0088749919 0.20872012
-0.020535121 0.0051616491 0.21219747
-0.021004379 0.0018514093 0.21517776
-0.021272948 -0.0014128044 0.21795806
-0.02198079 -0.0048763631 0.22146043
-0.022506325 -0.0084862802 0.22370958
-0.022713369 -0.012316477 0.22449227
-0.023043003 -0.016377704 0.22712874
-0.023141451 -0.01945048 0.22795711
-0.02354384 -0.022904482 0.22862807
-0.023655478 -0.02710364 0.23362309
-0.015377208 0.040579453 0.18483166
-0.015298112 0.038055193 0.18607579
-0.015444774 0.035012424 0.18776657
-0.015710751 0.031627268 0.19033082
-0.015445798 0.028023118 0.19398628
-0.015822995 0.024859698 0.19823797
-0.01628319 0.02161872 0.20054309
-0.016351141 0.018610677 0.20302112
-0.016452981 0.015734175 0.20457242
-0.016691742 0.012664536 0.20692609
-0.017011646 0.0091048824 0.21015739
-0.016971612 0.0054585892 0.21345298
-0.017554184 0.0022117954 0.21642846
-0.017908806 -0.0013942394 0.21998641
-0.018300112 -0.0050400291 0.22321266
-0.018878577 -0.0088291718 0.22496824
-0.019081531 -0.012644347 0.22557415
-0.019262768 -0.016465558 0.22696608
-0.019468712 -0.020109696 0.22814003
-0.019909658 -0.023892011 0.23031981
-0.019844389 -0.027498601 0.23522256
-0.012612093 0.037832364 0.18765861
-0.012341185 0.034934353 0.18930887
-0.012365038 0.03185457 0.19149373
-0.011936606 0.028210601 0.19384687
-0.012262144 0.025014786 0.19817095
-0.012891257 0.022133188 0.20127589
-0.013353443 0.018716877 0.20432399
-0.0132669 0.015647776 0.20667297
-0.013497772 0.01227786 0.20911236
-0.013681044 0.0092399297 0.21150689
-0.013689296 0.0058712661 0.21447533
-0.013962957 0.0024367881 0.2178096
-0.014401474 -0.0014471684 0.22090149
-0.014732339 -0.0051945583 0.22375894
-0.015065738 -0.0091294479 0.22539632
-0.015405204 -0.012801292 0.22599992
-0.015546934 -0.016517673 0.22742216
-0.015657153 -0.020407984 0.22910501
-0.015592492 -0.024631638 0.23302715
-0.0152431 -0.027839849 0.23775463
-0.009813698 0.034564577 0.18998957
-0.0089449817 0.031779014 0.19209664
-0.008756307 0.028457975 0.19486474
-0.0086282492 0.025191732 0.19859788
-0.0092907539 0.022153823 0.20235978
-0.010019056 0.018970797 0.20546673
-0.010091138 0.015774008 0.20770097
-0.010182689 0.012587716 0.20990957
-0.010050817 0.0095612342 0.21192335
-0.010388741 0.0065683434 0.21496935
-0.010306123 0.003175311 0.21799847
-0.01063022 -0.0005504713 0.2209035
-0.011207213 -0.0044339821 0.22310664
-0.011204069 -0.0084412666 0.22494489
-0.011540962 -0.012403379 0.22519056
-0.011467635 -0.016592136 0.22812942
-0.011648331 -0.020585401 0.2303368
-0.011062767 -0.024926461 0.23502322
-0.0058343057 0.031234028 0.1942948
-0.005234322 0.028193811 0.19716206
-0.0049162866 0.024843371 0.19985791
-0.0055413945 0.021724341 0.20279828
-0.0063217459 0.018876191 0.20568757
-0.0065500387 0.015740653 0.20817617
-0.0067731356 0.012902558 0.21045454
-0.0067607691 0.010034168 0.21247719
-0.0067695123 0.0069159796 0.21548556
-0.0066169798 0.0035915307 0.21807837
-0.0068692472 -0.00037134075 0.2216938
-0.0072912988 -0.0041843532 0.22261135
-0.0073782406 -0.0080432557 0.22485311
-0.0073827049 -0.012108844 0.22580943
-0.0074891094 -0.016366707 0.22842406
-0.0083095329 -0.020584999 0.23081385
-0.0084547205 -0.023755755 0.23344554
-0.0027509327 0.030160332 0.19691974
-0.0014277509 0.027524589 0.1982757
-0.0013881471 0.024158509 0.2001325
-0.0021001368 0.021349361 0.202378
-0.0026159419 0.018650241 0.2050425
-0.0024865719 0.016102463 0.20748584
-0.0028977906 0.013191847 0.20993124
-0.002922859 0.010311539 0.21279716
-0.0027404658 0.0070547787 0.21546702
-0.0026695563 0.0037299702 0.21743327
-0.0031268848 -0.00015033461 0.22155312
-0.0034750423 -0.0038893472 0.2227059
-0.0034101703 -0.0076990584 0.22423625
-0.0041481797 -0.011343092 0.2254701
0.0013047135 0.026130369 0.19873387
0.0016882928 0.023862628 0.1999438
0.0010649738 0.021139603 0.20178849
0.00098957354 0.018679081 0.20412518
0.0012872551 0.015996169 0.20665215
0.0012860878 0.013333991 0.20920064
0.0012653292 0.010559904 0.2119642
0.00077242177 0.0072155399 0.21483497
0.00054889155 0.0037039414 0.21684764
4.0721814e-05 0.00015909589 0.22000796
-0.00094809016 -0.003539718 0.22274868
0.004330663 0.023410862 0.20023042
0.0042522973 0.021095145 0.20134725
0.0041821701 0.018469103 0.2032184
0.0041873413 0.015852034 0.20603563
0.0039955736 0.013306794 0.20873131
0.00392194 0.011452764 0.21087644
0 0 0 1 0 0 0 1 0 0 0 1 0 0 0 0 0 346 1 0 0
