ply
format ascii 1.0
comment PCL generated
element vertex 346
property float x
property float y
property float z
element camera 1
property float view_px
property float view_py
property float view_pz
property float x_axisx
property float x_axisy
property float x_axisz
property float y_axisx
property float y_axisy
property float y_axisz
property float z_axisx
property float z_axisy
property float z_axisz
property float focal
property float scalex
property float scaley
property float centerx
property float centery
property int viewportx
property int viewporty
property float k1
property float k2
end_header
-0.057317592 0.01987049 0.19102044
-0.057659753 0.017027289 0.1925652
-0.054663535 0.025215222 0.18620314
-0.055217471 0.023188608 0.18783171
-0.055533063 0.020182945 0.18941979
-0.055773597 0.016989207 0.19120884
-0.05634803 0.013566204 0.19306475
-0.056214049 0.01010985 0.19511257
-0.055831052 0.0067556789 0.19675897
-0.052373987 0.028203422 0.18377337
-0.052541986 0.026193749 0.1843082
-0.052559741 0.023656923 0.18546824
-0.052532528 0.020763833 0.18694973
-0.052720081 0.017566284 0.18892716
-0.053790629 0.013369428 0.1912045
-0.05402036 0.0094291326 0.19376685
-0.054179173 0.0054311845 0.19651172
-0.053663943 0.0014244617 0.19855633
-0.049284354 0.031213975 0.18155074
-0.049847104 0.029661417 0.18220849
-0.049964633 0.027051866 0.18281426
-0.049719263 0.023976525 0.18397155
-0.050167568 0.02110734 0.18603133
-0.050809599 0.01700603 0.18828507
-0.051626574 0.013209986 0.19030006
-0.051552832 0.0087272227 0.19289964
-0.051697697 0.0047900998 0.19585831
-0.050696973 -0.0014452733 0.19564922
-0.050637346 -0.0066339946 0.19494618
-0.050779611 -0.0098651228 0.19526149
-0.04768547 0.031991556 0.1806169
-0.047350552 0.030062038 0.18116979
-0.047116779 0.027282979 0.18209367
-0.04741133 0.024081757 0.18397442
-0.047930408 0.020785285 0.18571888
-0.048438534 0.016761405 0.18737714
-0.049085189 0.012506563 0.18962184
-0.0494476 0.0080576176 0.19193979
-0.048808191 0.0015747903 0.19347285
-0.048259728 -0.0037527282 0.19139726
-0.048310976 -0.0077707176 0.19142684
-0.048673306 -0.011987947 0.19317974
-0.048974931 -0.013913508 0.19567145
-0.051143337 -0.01245957 0.20069838
-0.051045857 -0.011574002 0.20655306
-0.045858804 0.035252843 0.17883559
-0.04539647 0.033252951 0.1796312
-0.044823688 0.031212119 0.18059851
-0.044450458 0.02841025 0.18191038
-0.044760905 0.02442283 0.18369213
-0.044927064 0.020539781 0.18502659
-0.045513298 0.016362177 0.18626063
-0.046235692 0.011752692 0.18825866
-0.047065642 0.006390397 0.19137481
-0.046112217 -0.00024437939 0.19023873
-0.045613375 -0.0049643703 0.18782829
-0.045261834 -0.0087620514 0.18770872
-0.043667562 -0.012360885 0.19213985
-0.047191095 -0.012838195 0.19676223
-0.048609022 -0.011891296 0.20179327
-0.049073007 -0.011841893 0.20674177
-0.049073178 -0.0126025 0.21103522
-0.048523344 -0.013683924 0.21609044
-0.043422796 0.036612701 0.17797557
-0.042504873 0.034343682 0.17935178
-0.041862059 0.032272346 0.18041632
-0.04148322 0.02976346 0.18157578
-0.041456714 0.026314778 0.18311916
-0.041569475 0.020921493 0.18434449
-0.042711381 0.016039925 0.18564621
-0.044454981 0.010562128 0.187654
-0.044347439 0.0040209596 0.1885394
-0.042859133 -0.0018446926 0.18746758
-0.041972544 -0.0064566801 0.18677302
-0.040460218 -0.0096386531 0.18987748
-0.040775839 -0.010669841 0.19442794
-0.043320779 -0.012041209 0.19897212
-0.045117091 -0.011335409 0.20362234
-0.045460962 -0.011728396 0.2079868
-0.045784522 -0.013098559 0.21162756
-0.046647143 -0.01545531 0.21700458
-0.047320537 -0.020965863 0.22021013
-0.04665618 -0.024851974 0.22229265
-0.040832214 0.040933099 0.17613238
-0.040464111 0.039217971 0.17695041
-0.039213683 0.037454434 0.17832644
-0.038697135 0.034077089 0.18020494
-0.038610544 0.030696845 0.18158023
-0.038155198 0.026994612 0.18315096
-0.038465653 0.021211965 0.18420295
-0.040073853 0.014991849 0.18546161
-0.04239469 0.0086385412 0.18768962
-0.042009909 0.0022159331 0.1875089
-0.040148389 -0.00336721 0.18648697
-0.038408097 -0.0064983787 0.18834469
-0.037873127 -0.0074969828 0.19245955
-0.038758922 -0.0086722281 0.19627105
-0.040330183 -0.010423907 0.20034678
-0.041936357 -0.011234106 0.20446965
-0.04239979 -0.012217975 0.20907173
-0.042603213 -0.014241195 0.21212766
-0.0435698 -0.016109029 0.21607171
-0.043650381 -0.01992883 0.21924493
-0.044057146 -0.024716504 0.2222226
-0.037163101 0.044207379 0.17417608
-0.036180343 0.043096792 0.17556559
-0.035263062 0.040951151 0.17781474
-0.034736503 0.037383355 0.17971873
-0.035331987 0.031862911 0.18153276
-0.034977596 0.027391378 0.18340187
-0.035709918 0.020372685 0.18441643
-0.036904529 0.014621716 0.18525954
-0.038724836 0.0087730745 0.186757
-0.040137265 0.0012655571 0.18667199
-0.037807118 -0.0027068465 0.18720974
-0.036073703 -0.0044202427 0.18997069
-0.035790831 -0.0054462035 0.19322066
-0.036438566 -0.0069362572 0.19766276
-0.037372917 -0.0089979442 0.20268919
-0.038643874 -0.01123358 0.20620942
-0.039429072 -0.012890193 0.21031766
-0.039682399 -0.015288545 0.21304254
-0.0403805 -0.017619722 0.21599239
-0.039958511 -0.02041892 0.21866289
-0.040257514 -0.023806183 0.22207557
-0.040360868 -0.02679426 0.22380991
-0.032559585 0.045641825 0.17641865
-0.032363866 0.044062428 0.17672913
-0.031909566 0.041774195 0.17819437
-0.031397764 0.038893752 0.18008815
-0.031775549 0.033690121 0.18202761
-0.032446109 0.028188752 0.18353465
-0.033548336 0.020011304 0.18483917
-0.034040764 0.015169845 0.18535402
-0.035332877 0.0090712309 0.18576431
-0.03834933 0.0024417043 0.186464
-0.036116801 0.00021870458 0.18787381
-0.034390893 -0.0016924276 0.19118838
-0.034161042 -0.0031475369 0.19431719
-0.034602012 -0.0055506458 0.19830814
-0.034582075 -0.0082765287 0.20393415
-0.035675447 -0.010820205 0.20792674
-0.036092423 -0.013620497 0.21075319
-0.036592148 -0.016005414 0.21431008
-0.036945164 -0.018400693 0.21692309
-0.036908697 -0.020252177 0.21952233
-0.036439884 -0.022653634 0.22198518
-0.036778606 -0.025839154 0.22454278
-0.029786704 0.046686012 0.17611662
-0.029287528 0.045131024 0.17684852
-0.028535604 0.042660989 0.17830341
-0.027985789 0.040023886 0.18024714
-0.028314514 0.035953291 0.18212457
-0.029593354 0.029163694 0.18395753
-0.031220853 0.02020555 0.18566182
-0.031504232 0.016000817 0.18609092
-0.032261625 0.011238122 0.18658039
-0.035252485 0.0054639145 0.18656071
-0.033890363 0.0045234286 0.18764326
-0.032405831 0.0027981724 0.18984722
-0.031570133 9.7356868e-05 0.19338107
-0.031702135 -0.0024493907 0.19645606
-0.031264607 -0.0081866691 0.20468889
-0.031778332 -0.010616 0.20840012
-0.033563245 -0.013121544 0.21179241
-0.033049937 -0.015989652 0.21618634
-0.03365754 -0.018361416 0.21848856
-0.033974636 -0.019971104 0.2206728
-0.033857811 -0.022563906 0.22289546
-0.03405853 -0.024569757 0.22405818
-0.035030723 -0.025694674 0.22527425
-0.026069501 0.046834126 0.17690118
-0.025788061 0.045268383 0.17767996
-0.025064085 0.042912137 0.17904404
-0.024705322 0.040104222 0.18035191
-0.025511453 0.036477327 0.18231525
-0.026874978 0.030052761 0.18465856
-0.028603915 0.020594407 0.18701945
-0.028807368 0.01683527 0.18770356
-0.028688464 0.014442595 0.1883463
-0.030597311 0.011546795 0.1872862
-0.030111363 0.0093967598 0.18755418
-0.029251177 0.0061812582 0.18932089
-0.02798607 0.0030988501 0.19232835
-0.026719302 -0.00012922834 0.19742224
-0.028653717 -0.0052851951 0.20419572
-0.029591138 -0.0088555412 0.20912893
-0.02970165 -0.013129736 0.21473058
-0.030171435 -0.016998881 0.21820596
-0.030868996 -0.019364737 0.2199645
-0.031893283 -0.021634979 0.22253208
-0.03189167 -0.023116002 0.22357032
-0.032099027 -0.024283189 0.22499615
-0.031982481 -0.025803573 0.22785448
-0.022124697 0.044933222 0.17900735
-0.021912599 0.043346271 0.17996481
-0.02205104 0.040769633 0.18083315
-0.022499828 0.038262494 0.18143414
-0.023435615 0.03542541 0.18293546
-0.024195995 0.029708812 0.18648244
-0.025210125 0.022361798 0.18923543
-0.025505221 0.018914741 0.19001055
-0.025896763 0.017435962 0.19032083
-0.025325362 0.016917778 0.19078416
-0.025260024 0.014030209 0.19111811
-0.024829308 0.010890987 0.19207872
-0.023464771 0.0065347478 0.19512831
-0.022290638 0.00099174888 0.20261602
-0.024567449 -0.0043338123 0.20717043
-0.026178565 -0.0078371782 0.211408
-0.026438344 -0.011545048 0.21591063
-0.027134096 -0.015327012 0.22086814
-0.027473936 -0.018570233 0.221568
-0.02821626 -0.020886665 0.22320652
-0.028697779 -0.022056913 0.22408271
-0.028621677 -0.02354276 0.22533998
-0.028498184 -0.025864583 0.22836575
-0.019060211 0.041772049 0.1815671
-0.019525595 0.039403811 0.18277147
-0.019984854 0.036665212 0.18333295
-0.020423116 0.034021914 0.18491326
-0.020028489 0.030991906 0.18839464
-0.019337134 0.025604852 0.19181667
-0.020711737 0.021961743 0.19191781
-0.02272735 0.019464353 0.19227931
-0.021834295 0.017514382 0.19444723
-0.021596206 0.015121741 0.19516866
-0.021209268 0.012035666 0.19572929
-0.019888097 0.0072291144 0.19961394
-0.020004967 0.0019300553 0.20501818
-0.021210385 -0.0026902377 0.20900954
-0.022826381 -0.0071224617 0.21381854
-0.023437371 -0.010912423 0.21846133
-0.024343858 -0.014185439 0.22227851
-0.025056828 -0.017344337 0.22315557
-0.025530644 -0.019911537 0.22393273
-0.025443071 -0.021090621 0.22379971
-0.025536479 -0.023121817 0.22469939
-0.025309151 -0.025948906 0.22911498
-0.016540769 0.038471982 0.1844147
-0.016537206 0.036252599 0.18545154
-0.016700629 0.033497777 0.18738957
-0.016842473 0.030124942 0.19004719
-0.013895577 0.026222097 0.19346406
-0.015839078 0.022817446 0.19456738
-0.019069232 0.019698242 0.19516826
-0.01863349 0.017196814 0.19696805
-0.018222557 0.015217706 0.19770619
-0.017425081 0.012210248 0.19919822
-0.017046932 0.0075292145 0.2036297
-0.01719082 0.0026240579 0.2074863
-0.018290536 -0.0015256791 0.21059451
-0.019660579 -0.0068919337 0.21608286
-0.020062072 -0.010739246 0.22100319
-0.021074539 -0.013670985 0.22346739
-0.02206347 -0.017003741 0.22427899
-0.022141667 -0.019398818 0.22476792
-0.022363918 -0.020797597 0.22436306
-0.022475759 -0.02327867 0.22632506
-0.021848431 -0.026062092 0.23142208
-0.013469496 0.03581379 0.18702365
-0.013430195 0.033097651 0.18895875
-0.012889264 0.030005088 0.19123806
-0.010019716 0.026400609 0.1949022
-0.01169472 0.023044104 0.19681209
-0.014838687 0.020548811 0.19672211
-0.015320518 0.017196773 0.19854841
-0.014092718 0.014312064 0.20090333
-0.013369679 0.011083486 0.20382348
-0.013913986 0.0079585575 0.20644452
-0.014326093 0.0038222682 0.20903969
-0.014927723 -0.00033089856 0.21284376
-0.016451249 -0.0067703859 0.21822391
-0.016714936 -0.010333301 0.22196531
-0.017750062 -0.013169849 0.2240795
-0.019428708 -0.015681874 0.22473247
-0.019606562 -0.018320758 0.22509314
-0.019364499 -0.020750569 0.22569582
-0.018452564 -0.023813568 0.22970867
-0.01743773 -0.02729857 0.23508763
-0.010101018 0.032493882 0.1905593
-0.0079093222 0.03008635 0.19345753
-0.0066755475 0.026591729 0.19750784
-0.0073232721 0.023274867 0.19988686
-0.010114145 0.021069732 0.19944049
-0.012011288 0.017867509 0.20026043
-0.011131224 0.014475198 0.20338856
-0.010874682 0.011256872 0.2059924
-0.011124875 0.0084573785 0.20783935
-0.01184842 0.0051492653 0.21027055
-0.011429074 0.00021059856 0.2148433
-0.011886237 -0.0049194619 0.21924543
-0.013120675 -0.0082949679 0.2219004
-0.013458982 -0.011568578 0.22441047
-0.016003031 -0.013963774 0.22493187
-0.016636515 -0.017056666 0.22646688
-0.016040523 -0.020567928 0.22793594
-0.013782908 -0.024419827 0.23322295
-0.0043739472 0.02926141 0.19712523
-0.0029951257 0.026433557 0.20009407
-0.0024796769 0.023653962 0.20149399
-0.0040059634 0.020930996 0.20252703
-0.0071630036 0.018560881 0.2024876
-0.0084916232 0.015258246 0.20500459
-0.0084380182 0.011727688 0.20737292
-0.0086746272 0.0091959117 0.20921521
-0.0089825904 0.0055061537 0.21262339
-0.0076224217 0.00028660375 0.21656416
-0.0081098499 -0.0044546486 0.22081262
-0.0087092994 -0.0075573348 0.22224012
-0.0092053162 -0.010815146 0.22492796
-0.010270412 -0.013497379 0.22637396
-0.012505638 -0.015806736 0.22801407
-0.012999798 -0.01989078 0.22947703
-0.011486325 -0.023148835 0.23246989
-0.00086658262 0.027954835 0.19980802
0.00093182718 0.025908738 0.20021315
0.0015227186 0.023176454 0.20125133
0.00057349482 0.020743124 0.20248638
-0.00053777936 0.018499933 0.20417815
-0.0017771499 0.016111448 0.20582858
-0.0043636719 0.012639483 0.20853527
-0.004642284 0.0086360956 0.21182461
-0.0042285011 0.004713085 0.21483843
-0.0035333252 0.00057895732 0.21787043
-0.0043081436 -0.003818521 0.22143091
-0.00474532 -0.0072662882 0.22287931
-0.0050946395 -0.010535396 0.22499008
-0.0063223061 -0.013441832 0.22666983
0.0037630056 0.024665236 0.20000201
0.0042339535 0.022718092 0.20060924
0.0035909964 0.020589368 0.2017182
0.0033059197 0.018648652 0.20351632
0.0031725348 0.016609699 0.20591584
0.002512644 0.012945354 0.20899311
0.0012462863 0.0083045857 0.21233052
0.0001450917 0.0045918394 0.21564454
-0.00030734373 0.00091717771 0.2184047
-0.00095215737 -0.0033306305 0.22105983
-0.002116089 -0.0069542159 0.22335222
0.0066282819 0.022350967 0.20069303
0.0065147611 0.0205948 0.20159976
0.0064164666 0.018639235 0.20331739
0.0061480105 0.016497396 0.20609102
0.0051218877 0.013474309 0.20920497
0.0043131383 0.01022106 0.21098123
0 0 0 1 0 0 0 1 0 0 0 1 0 0 0 0 0 346 1 0 0
