ply
format ascii 1.0
comment PCL generated
element vertex 346
property float x
property float y
property float z
element camera 1
property float view_px
property float view_py
property float view_pz
property float x_axisx
property float x_axisy
property float x_axisz
property float y_axisx
property float y_axisy
property float y_axisz
property float z_axisx
property float z_axisy
property float z_axisz
property float focal
property float scalex
property float scaley
property float centerx
property float centery
property int viewportx
property int viewporty
property float k1
property float k2
end_header
-0.057387602 0.019888761 0.19101328
-0.057748243 0.017081795 0.19251819
-0.054779399 0.0251613 0.18624862
-0.055312227 0.023154605 0.18785287
-0.055612925 0.020177959 0.18942134
-0.055854421 0.017033556 0.19116788
-0.056486066 0.013638621 0.19296113
-0.056379393 0.010235136 0.19495329
-0.056016881 0.0069225328 0.1965068
-0.052546568 0.028139018 0.18378229
-0.052704673 0.026119074 0.18433091
-0.052695371 0.023595925 0.18548509
-0.052638803 0.020724215 0.18696827
-0.052815355 0.017555514 0.18889186
-0.053916268 0.013416474 0.19111381
-0.054183021 0.0095577119 0.19362782
-0.054406308 0.0055738399 0.1961762
-0.054261483 0.0013703621 0.19740713
-0.049486756 0.03108844 0.18142247
-0.050069135 0.029565627 0.18213098
-0.050163154 0.026964534 0.18276213
-0.049876031 0.023894019 0.18397099
-0.050280001 0.021050686 0.18606547
-0.050907549 0.016994029 0.188264
-0.051746055 0.013218398 0.1902068
-0.05173282 0.0088613583 0.19272082
-0.052146722 0.0047158254 0.19499782
-0.051436275 -0.0013107181 0.19427052
-0.051341284 -0.0063853194 0.19369809
-0.051420759 -0.009571963 0.1941977
-0.047900144 0.031813793 0.18049081
-0.04757959 0.029930102 0.18102254
-0.047342647 0.027177917 0.1819723
-0.047578242 0.023995692 0.18393999
-0.04805617 0.020700293 0.18573394
-0.048530143 0.016764602 0.18740132
-0.04919003 0.012512433 0.18955697
-0.049685631 0.0081706997 0.1916945
-0.049526867 0.001680002 0.19208179
-0.049115695 -0.0035503353 0.18977103
-0.049116544 -0.0075705806 0.18997785
-0.049359482 -0.011754207 0.19206952
-0.049582295 -0.013467735 0.19499965
-0.051593792 -0.011521659 0.20045297
-0.051136006 -0.010103005 0.2068114
-0.046093933 0.035042625 0.17880318
-0.045619953 0.033059373 0.17954032
-0.045052666 0.031054372 0.18044715
-0.044682998 0.028281134 0.18173736
-0.044962931 0.024315385 0.18356904
-0.045081917 0.02041024 0.18494415
-0.045596901 0.016320797 0.18628468
-0.046264485 0.011735005 0.18816543
-0.047377761 0.0063681253 0.19047998
-0.047002427 -7.5519252e-05 0.18827604
-0.046503406 -0.0048073577 0.185949
-0.046126578 -0.0085916566 0.18597589
-0.044305302 -0.012155664 0.19108637
-0.047765791 -0.012313918 0.19616564
-0.049003828 -0.010842984 0.20170049
-0.049162947 -0.010473369 0.20694731
-0.048881076 -0.011085989 0.21139598
-0.048251994 -0.012777392 0.21654084
-0.043664638 0.036411621 0.17796604
-0.042745061 0.034147028 0.1792718
-0.042112093 0.032106545 0.18030223
-0.041743591 0.029630702 0.18144059
-0.041699152 0.026218755 0.18294285
-0.041814797 0.020685971 0.18417218
-0.042822164 0.015902957 0.18560667
-0.044511147 0.010497402 0.18739511
-0.044800561 0.0040396377 0.18728627
-0.0436312 -0.0017467737 0.18538168
-0.042625435 -0.0063691274 0.18497869
-0.041021109 -0.009509922 0.18853854
-0.041290663 -0.010377356 0.19350563
-0.043822169 -0.01142455 0.19851632
-0.045390736 -0.010351141 0.20352113
-0.045484573 -0.010593077 0.20804597
-0.045614757 -0.011841794 0.21185668
-0.046586454 -0.014907862 0.2173339
-0.047384392 -0.020909725 0.22027583
-0.046639502 -0.024916828 0.22212301
-0.041132793 0.04092674 0.17617154
-0.040744055 0.039175808 0.17696625
-0.03948871 0.037418053 0.17825153
-0.038958531 0.033955313 0.18012936
-0.038880486 0.030606007 0.18148701
-0.03841991 0.026920419 0.18302736
-0.038774978 0.021024402 0.18402629
-0.040210079 0.014844493 0.185314
-0.042364478 0.0086011412 0.18694438
-0.04248473 0.0022434627 0.18546028
-0.040615451 -0.0033952438 0.18464467
-0.038815744 -0.0064646741 0.18690154
-0.038396411 -0.0073576048 0.19125997
-0.039294131 -0.0083547216 0.19531226
-0.040736172 -0.0098382672 0.19971916
-0.042190511 -0.01042903 0.20423815
-0.042385288 -0.011328439 0.20901971
-0.042610716 -0.013544302 0.21229942
-0.043582369 -0.015640343 0.21619968
-0.04379259 -0.019778928 0.21938114
-0.044054758 -0.024736971 0.22204269
-0.03750883 0.044303991 0.17401811
-0.036495794 0.043200135 0.17539303
-0.035539825 0.04105372 0.1776173
-0.034944963 0.037394006 0.17957006
-0.035560634 0.03178468 0.18151616
-0.035243347 0.027347054 0.18337096
-0.03600394 0.020302685 0.18420753
-0.037040707 0.01449916 0.18499501
-0.03870425 0.0087339124 0.18596925
-0.04051346 0.0011989232 0.18460618
-0.038094435 -0.0028176748 0.18556137
-0.036469169 -0.0043973359 0.18860306
-0.036304712 -0.005317078 0.1919917
-0.036937449 -0.0065793074 0.19663656
-0.037651666 -0.0084944069 0.20212448
-0.038840432 -0.010705799 0.20592925
-0.039445844 -0.012342139 0.21015824
-0.039762955 -0.014936352 0.21297401
-0.040461261 -0.017426524 0.21590051
-0.04006638 -0.020342074 0.2185479
-0.040294237 -0.023834597 0.2218582
-0.040323418 -0.026884681 0.22347142
-0.032844327 0.045752939 0.17618741
-0.032642491 0.044176761 0.17650537
-0.032158945 0.041902099 0.17797984
-0.031603627 0.039007559 0.17990899
-0.031920746 0.033639967 0.18206686
-0.032701474 0.028179923 0.18359064
-0.03382894 0.020002417 0.18461175
-0.034208614 0.015110039 0.18501736
-0.035507966 0.0090116225 0.18506524
-0.038577467 0.0022695498 0.18456374
-0.036374815 6.4623797e-05 0.18621717
-0.034838896 -0.0016505888 0.18974732
-0.034624796 -0.0030070054 0.19309139
-0.035044234 -0.0052168765 0.19728385
-0.034804311 -0.007923143 0.20340054
-0.03579301 -0.01058016 0.20759834
-0.036263876 -0.013491014 0.21050899
-0.036690455 -0.0159222 0.2141201
-0.037000101 -0.018392285 0.21668039
-0.036937013 -0.020312775 0.21921539
-0.036428403 -0.022758566 0.22162209
-0.036706727 -0.025929041 0.22412533
-0.03007381 0.046820808 0.1758633
-0.02955682 0.045281298 0.17660637
-0.028767694 0.042828783 0.17808491
-0.028196668 0.040225055 0.18008861
-0.028486116 0.036051724 0.18209858
-0.029804405 0.029215883 0.18405549
-0.031511236 0.020261886 0.18545429
-0.03169274 0.016040327 0.18574208
-0.032443807 0.011249424 0.18600534
-0.035541441 0.0054693944 0.1855122
-0.034234643 0.0045807576 0.18665306
-0.032759003 0.002874308 0.18889523
-0.031888869 0.00014433543 0.19229791
-0.032059856 -0.0023623281 0.19535168
-0.031570911 -0.0080299601 0.20430155
-0.032032866 -0.010635403 0.20805341
-0.033704001 -0.013203576 0.21141621
-0.033134148 -0.015978828 0.21601275
-0.033715051 -0.018402003 0.21824178
-0.033994611 -0.020068659 0.22036682
-0.033812385 -0.022634633 0.22253437
-0.033966057 -0.024610605 0.22367088
-0.034901787 -0.025735855 0.22483982
-0.026311543 0.046968997 0.1766437
-0.026014537 0.045415141 0.17744376
-0.025254203 0.0430752 0.17886783
-0.024897207 0.040292904 0.18025814
-0.025710342 0.036662802 0.18230322
-0.027113421 0.030173898 0.18480672
-0.028927011 0.020688569 0.18681917
-0.029053872 0.016933318 0.18732911
-0.028886845 0.014611483 0.1878438
-0.030882297 0.01162576 0.1866408
-0.030447345 0.0094939889 0.18676895
-0.029592909 0.0062823743 0.18849441
-0.028316403 0.0032093409 0.1914897
-0.02689671 7.7551209e-05 0.19666713
-0.028910054 -0.0052132858 0.2037496
-0.029784571 -0.0089662718 0.2087896
-0.029849408 -0.013204668 0.2145343
-0.030328963 -0.017012412 0.2180436
-0.030949064 -0.019373208 0.21970913
-0.031881645 -0.021662856 0.22220056
-0.031812534 -0.023112042 0.22320357
-0.031993736 -0.024247169 0.22458941
-0.031803288 -0.025693059 0.2274148
-0.022287935 0.045041438 0.1788321
-0.022069314 0.043463048 0.17983316
-0.022213373 0.040911552 0.18077148
-0.02267741 0.038428962 0.18142952
-0.023633184 0.035614494 0.1829787
-0.024454083 0.029855793 0.18660937
-0.02560148 0.02252968 0.18907639
-0.025883378 0.019151935 0.18963295
-0.02626265 0.017682258 0.18985204
-0.025670836 0.017255228 0.19027305
-0.025512112 0.014453749 0.1904836
-0.024968414 0.011347792 0.19137102
-0.023432024 0.0069648987 0.1944315
-0.02206173 0.0012545733 0.20216767
-0.024589427 -0.0043242173 0.20683847
-0.026360404 -0.0078987898 0.21116972
-0.026543498 -0.011683604 0.21566834
-0.027193762 -0.015442661 0.22057305
-0.027509697 -0.018566718 0.22121787
-0.028180076 -0.020867536 0.22277142
-0.028640402 -0.022027446 0.22362815
-0.028534232 -0.023472043 0.22486475
-0.028348947 -0.025740467 0.22786736
-0.019185295 0.041857578 0.18153808
-0.019664261 0.039523907 0.18277007
-0.020139886 0.036805693 0.18335634
-0.020605225 0.03417708 0.184935
-0.02019533 0.031106273 0.18838185
-0.019547693 0.025767194 0.19181105
-0.021071656 0.022448476 0.19163732
-0.023111373 0.019971717 0.19186686
-0.022121411 0.018133793 0.19403552
-0.021790115 0.015784323 0.19473693
-0.0212772 0.012766738 0.19521362
-0.019739268 0.0077645872 0.19915554
-0.019812174 0.002195609 0.20460406
-0.021147454 -0.0026090569 0.20862402
-0.022951003 -0.0071909409 0.21357736
-0.023559703 -0.011045679 0.21821533
-0.024405813 -0.014379743 0.22195095
-0.025036586 -0.017501865 0.22268507
-0.025493316 -0.019952951 0.22339386
-0.025387295 -0.021076484 0.2232631
-0.025467969 -0.023049898 0.22418348
-0.025198633 -0.025791792 0.22858304
-0.016722512 0.038581669 0.18443583
-0.016729597 0.036362994 0.18545657
-0.016902301 0.033584338 0.18736359
-0.017030062 0.03016853 0.19000334
-0.013999275 0.026272519 0.19337839
-0.015921772 0.023327408 0.19446835
-0.019316919 0.020385666 0.19498858
-0.018836046 0.017905233 0.19676003
-0.018387418 0.01597074 0.19748046
-0.017470056 0.012980077 0.19892643
-0.016964456 0.0079832552 0.20332949
-0.017033601 0.0028717211 0.20714206
-0.018214522 -0.001394863 0.2102235
-0.019792356 -0.0069480771 0.21584733
-0.020210089 -0.01084567 0.22080328
-0.021205246 -0.0138081 0.2232191
-0.022122895 -0.017156962 0.22392385
-0.022171685 -0.019475102 0.22430715
-0.022319844 -0.020808904 0.22383849
-0.022415528 -0.023167495 0.22570629
-0.021733999 -0.025879208 0.23082624
-0.013668058 0.035928566 0.186992
-0.013619746 0.033132922 0.18886518
-0.013040155 0.02997734 0.19106795
-0.0099928733 0.026316445 0.1946006
-0.011687121 0.023348352 0.1966951
-0.014934638 0.021170652 0.1966383
-0.015460773 0.017874746 0.19842651
-0.014170251 0.014972436 0.20086543
-0.013417765 0.011654393 0.20379458
-0.013965762 0.0083922204 0.20629264
-0.014266198 0.0041093822 0.20875052
-0.014883435 -0.0001436114 0.21255286
-0.016609672 -0.0068180435 0.21808247
-0.016887458 -0.010401518 0.22178617
-0.017958803 -0.013265789 0.22385518
-0.019592164 -0.015753143 0.22443898
-0.019761082 -0.018398885 0.22472809
-0.019430334 -0.020723496 0.22521815
-0.018431772 -0.023692539 0.22909781
-0.017355422 -0.027235137 0.23457785
-0.010213265 0.032490939 0.1903263
-0.0078765936 0.029973468 0.19300844
-0.0064416393 0.026450327 0.19696473
-0.0071166079 0.023373129 0.19956642
-0.010069418 0.021458805 0.19929101
-0.01207641 0.018475877 0.20010403
-0.011194163 0.015040246 0.20343702
-0.010970655 0.011726798 0.20602855
-0.011205732 0.0088340193 0.20773759
-0.011881211 0.005424588 0.21000341
-0.011452097 0.00034910635 0.21469307
-0.01199988 -0.0049159629 0.21925013
-0.013315319 -0.0083470307 0.22185841
-0.01373679 -0.011627676 0.2243356
-0.016211452 -0.013993681 0.22468273
-0.016893981 -0.017101539 0.22612461
-0.016226869 -0.020543335 0.22746086
-0.013820724 -0.024276352 0.23278053
-0.0041356706 0.029047249 0.1964139
-0.0026221976 0.026311183 0.19941133
-0.0021353315 0.023684315 0.20107253
-0.0037546782 0.021120615 0.20227814
-0.0070987041 0.018971773 0.20239113
-0.0085786823 0.015756033 0.20513038
-0.0085621569 0.012117348 0.20742877
-0.00878869 0.0095157325 0.20914021
-0.0090659913 0.0057111634 0.21239628
-0.0076706014 0.00033875747 0.21645233
-0.0082397806 -0.0044958498 0.22077987
-0.0088892635 -0.0076288055 0.22226498
-0.0094433548 -0.010884126 0.22493951
-0.010586198 -0.013551961 0.22637647
-0.012818468 -0.015844546 0.22776993
-0.013241147 -0.019831236 0.22908744
-0.011577209 -0.022954576 0.23211895
-0.00050432136 0.027760811 0.1991099
0.0012788899 0.025790233 0.19974548
0.0018369983 0.023190554 0.20103888
0.00084696099 0.020864813 0.20241067
-0.00031586378 0.018725021 0.20419934
-0.0016492589 0.01635226 0.20592736
-0.0044440385 0.012893017 0.20859
-0.0046859588 0.0087518394 0.21171124
-0.0042424831 0.0047123055 0.21468367
-0.0035590129 0.0005231924 0.21777762
-0.0044279709 -0.0038840298 0.22136143
-0.0049135983 -0.0073759002 0.22285958
-0.0052911169 -0.010628638 0.22497882
-0.006578722 -0.013501745 0.22668691
0.004108591 0.024550427 0.19975033
0.0045532435 0.022683647 0.20049521
0.0038730318 0.020649493 0.20170432
0.0035482405 0.018754382 0.20357117
0.0033393793 0.016740823 0.20599365
0.0026078734 0.012931494 0.20900172
0.0013003304 0.0082027949 0.21218041
0.00017933644 0.0044457959 0.2154545
-0.00032507119 0.00077299972 0.2182533
-0.0010656969 -0.003444484 0.22099255
-0.002265858 -0.0070793699 0.2233002
0.0069333254 0.022278361 0.20062624
0.0067958338 0.020581136 0.20161991
0.0066446885 0.018673874 0.20339325
0.0063237399 0.016551046 0.20619065
0.0052237781 0.01342101 0.20923418
0.0043717618 0.010075779 0.21081583
0 0 0 1 0 0 0 1 0 0 0 1 0 0 0 0 0 346 1 0 0
