ply
format ascii 1.0
comment PCL generated
element vertex 252
property float x
property float y
property float z
element camera 1
property float view_px
property float view_py
property float view_pz
property float x_axisx
property float x_axisy
property float x_axisz
property float y_axisx
property float y_axisy
property float y_axisz
property float z_axisx
property float z_axisy
property float z_axisz
property float focal
property float scalex
property float scaley
property float centerx
property float centery
property int viewportx
property int viewporty
property float k1
property float k2
end_header
-0.023662817 0.034673218 0.14423722
-0.023683693 0.032798082 0.14550965
-0.023967778 0.030998468 0.14861463
-0.02450406 0.028785685 0.15027787
-0.025171798 0.026572634 0.15257426
-0.025578197 0.023937054 0.15418307
-0.026099551 0.021299375 0.15746538
-0.026369965 0.019022562 0.1595753
-0.021220878 0.034373123 0.14309707
-0.02152396 0.032405794 0.14443918
-0.021778893 0.030808629 0.14805138
-0.022097658 0.028494226 0.14939028
-0.022623077 0.026346214 0.15193899
-0.023069924 0.023982339 0.15315531
-0.023491753 0.021391176 0.15536045
-0.023791879 0.018933333 0.15862995
-0.023930537 0.016405134 0.1609592
-0.024000978 0.013790346 0.16197678
-0.02402458 0.01112912 0.16304693
-0.02432338 0.008413285 0.16421007
-0.02438109 0.0055842856 0.16414845
-0.024139991 0.0028024253 0.16503514
-0.024437437 0.00020834625 0.16670668
-0.018740226 0.034201752 0.14290784
-0.019062383 0.032450859 0.14552659
-0.019374799 0.030515987 0.1479696
-0.019614795 0.028441841 0.14971665
-0.019919109 0.026167683 0.15159902
-0.020422196 0.023902005 0.15321687
-0.020773768 0.021393912 0.15476133
-0.021047046 0.019241305 0.15837556
-0.021141609 0.016767543 0.16092072
-0.02125971 0.013953507 0.16214344
-0.021304931 0.011198627 0.16310354
-0.021611618 0.0086574266 0.16471948
-0.02165403 0.005945561 0.16505475
-0.021839164 0.0029999616 0.16672161
-0.021826176 0.00019063178 0.16749114
-0.021671958 -0.0020764363 0.16865958
-0.016325613 0.034293897 0.14285535
-0.016626777 0.032483295 0.14660691
-0.016780684 0.030390903 0.14785194
-0.017046392 0.028248347 0.15017122
-0.017352553 0.026032738 0.15201837
-0.017650295 0.023772189 0.15319039
-0.018041929 0.021480164 0.15615304
-0.018252868 0.019521391 0.15923591
-0.018423084 0.016939435 0.16128978
-0.01844546 0.014117245 0.16234268
-0.0186946 0.01137756 0.16422763
-0.019262457 0.0088561932 0.16640566
-0.019236181 0.0061641373 0.16629601
-0.019108811 0.0031540056 0.16776478
-0.019260678 0.00032661669 0.16914256
-0.013984704 0.034200057 0.14327481
-0.01417335 0.032800864 0.1474629
-0.014271477 0.03044264 0.14812694
-0.014539525 0.028228473 0.15038873
-0.014745308 0.026125735 0.15208742
-0.014860584 0.023696031 0.15337723
-0.015326484 0.021731991 0.15699771
-0.015638687 0.019650811 0.16032037
-0.015787428 0.01705303 0.16305581
-0.015968237 0.014092529 0.16522267
-0.016470661 0.011607938 0.16737179
-0.01671556 0.0088071777 0.1681298
-0.016804852 0.0063313171 0.16896872
-0.016556134 0.0035574234 0.16974175
-0.01654727 0.00059277506 0.17009695
-0.01675288 -0.0022734231 0.1720807
-0.011627861 0.034616645 0.14426392
-0.011766526 0.032994464 0.14755829
-0.01185789 0.030704947 0.14837211
-0.01192847 0.028231407 0.15042399
-0.012122069 0.025996018 0.15215912
-0.012270629 0.02365749 0.1535057
-0.012787559 0.021783695 0.15754095
-0.012957011 0.019738143 0.16074578
-0.013080473 0.017011028 0.16348734
-0.01334192 0.014215698 0.16668099
-0.013698362 0.011509365 0.16824107
-0.013946262 0.0091391681 0.17025843
-0.013904918 0.0065111648 0.17057557
-0.013865103 0.0036222516 0.17144383
-0.013887608 0.00070024439 0.17162514
-0.013835619 -0.0022723272 0.17314276
-0.0092410473 0.034995526 0.14556234
-0.0092972694 0.033132568 0.14804763
-0.009310184 0.030628519 0.14808585
-0.0093786325 0.028444309 0.15060031
-0.0094375601 0.025862031 0.15178446
-0.0094953449 0.023638271 0.15309048
-0.010051697 0.021776045 0.15700875
-0.010136271 0.019741137 0.16036887
-0.010190729 0.01701642 0.16266808
-0.01046525 0.014137045 0.166328
-0.010917818 0.011337844 0.16835386
-0.01102111 0.009037775 0.17041151
-0.010780729 0.0063688438 0.17239878
-0.010868852 0.0034961733 0.17306623
-0.011101254 0.00062218943 0.17238158
-0.011024774 -0.0022206467 0.17321905
-0.0067507434 0.035039 0.1458562
-0.0067924643 0.03320308 0.14810929
-0.0067820996 0.030884689 0.14908701
-0.0068767015 0.028703831 0.15155217
-0.0068870471 0.026140638 0.15262865
-0.00695532 0.02381321 0.1538745
-0.0072258124 0.021908725 0.15775363
-0.0072037219 0.019482184 0.1595698
-0.0073040784 0.016963884 0.16152751
-0.0075370357 0.014098189 0.16525018
-0.0080018574 0.01145774 0.16783716
-0.0078502763 0.0087420037 0.16960402
-0.0079133548 0.0060729817 0.17156476
-0.0076995757 0.0033206749 0.17367515
-0.0080493828 0.00046903448 0.17303857
-0.0085845767 -0.0019247981 0.17308021
-0.0040762415 0.034885425 0.14560029
-0.0043332865 0.033338916 0.14829573
-0.0042540403 0.031256929 0.15015124
-0.0043331343 0.0289809 0.15289322
-0.0042899228 0.02644643 0.15325277
-0.0043203123 0.024010509 0.15494947
-0.0043325643 0.021831434 0.15888177
-0.0043441318 0.019324182 0.15935707
-0.0044490243 0.016728261 0.16098173
-0.0045593153 0.014288357 0.16405493
-0.0048290859 0.011617453 0.16708593
-0.0049695713 0.008749485 0.16954951
-0.004976063 0.0056931702 0.17240579
-0.0049582487 0.0033766809 0.17421125
-0.005142861 0.00037223668 0.1736722
-0.0017283551 0.03497282 0.14631003
-0.0018107152 0.033313785 0.14843266
-0.0017574776 0.031334758 0.15066026
-0.0016413933 0.028959788 0.15254256
-0.0017090172 0.026591972 0.15409492
-0.001790071 0.024169868 0.15582778
-0.0017338315 0.021717586 0.15938596
-0.0016258666 0.019270612 0.16017412
-0.0016699136 0.016760655 0.1615728
-0.0015850877 0.014438003 0.16417888
-0.0018968639 0.011663089 0.16819529
-0.0020893933 0.0087173926 0.1700881
-0.0022085456 0.005536499 0.17219634
-0.0023193196 0.0029424843 0.17293976
-0.0023673365 0.00019366702 0.17386633
0.00076719094 0.035301141 0.14725491
0.00077391742 0.033313353 0.14869818
0.00072809367 0.031141061 0.15014143
0.00076477235 0.02896459 0.15268415
0.00088433019 0.026661195 0.15371828
0.00071044936 0.024420584 0.1571043
0.00089492911 0.021716248 0.15957068
0.00099033234 0.019326665 0.16038288
0.00089553028 0.016814047 0.16232127
0.0011133313 0.014414903 0.1652533
0.00096864544 0.011599659 0.16922979
0.00083338469 0.0085807284 0.17083237
0.00076785171 0.0054957853 0.17276315
0.00067381398 0.0029236185 0.17356198
0.00065852428 0.00018122979 0.17495967
0.0032445523 0.035342857 0.1475106
0.0032967327 0.033165544 0.1487029
0.003348469 0.030982139 0.15027355
0.0032798762 0.028998893 0.15262589
0.0034298478 0.026751475 0.15505795
0.0036002907 0.024512649 0.15699257
0.0035736316 0.02196884 0.1588171
0.0035588304 0.019417111 0.16063365
0.0036744531 0.016879098 0.16278397
0.0038621675 0.014406548 0.1652015
0.0039118696 0.011632591 0.16893835
0.003797377 0.008526843 0.17009647
0.0036554849 0.0053388481 0.17132835
0.003500117 0.0029974906 0.1728064
0.0036690426 0.00026716405 0.17569506
0.0056776125 0.035305843 0.14691894
0.0058837128 0.0334807 0.14936724
0.0059506721 0.031183271 0.15049411
0.0058827889 0.029010868 0.15239397
0.0060688797 0.026873324 0.15489203
0.0062466566 0.024507839 0.15669456
0.0062956857 0.022086946 0.15844174
0.0063170912 0.019512523 0.1607109
0.0065112882 0.016934354 0.16334683
0.0065483898 0.014387537 0.1647175
0.0065806592 0.0119299 0.16794845
0.0065136566 0.0092473999 0.16896151
0.0064159296 0.0063221916 0.17007522
0.0065203179 0.00322571 0.17341827
0.0066620465 0.00049102609 0.17582732
0.0082757697 0.035232682 0.14623877
0.0083469711 0.033453014 0.14896351
0.0084162084 0.031206386 0.15069261
0.0084630316 0.029070413 0.15265754
0.0084833046 0.026740311 0.15423481
0.0087726116 0.024619844 0.15669389
0.0086458763 0.022246551 0.15897954
0.0090079121 0.019648314 0.16134128
0.0093065202 0.017027628 0.16282016
0.0092273094 0.014588424 0.16552068
0.009407809 0.011819209 0.16729075
0.0091970107 0.0090613356 0.16833086
0.0091571538 0.006300264 0.17035504
0.00940964 0.0034424996 0.17471009
0.009609432 0.00070645846 0.17673035
0.010658497 0.035590343 0.14568666
0.010815891 0.0334034 0.14897202
0.010925051 0.0310352 0.15050352
0.011075591 0.029032903 0.15260783
0.011304962 0.027051749 0.15529643
0.011090655 0.024688812 0.15811324
0.011221651 0.022156961 0.15939194
0.011951578 0.019871896 0.1623548
0.012213985 0.017261168 0.16439232
0.012087805 0.014452401 0.16610044
0.012093409 0.011602904 0.1666389
0.011889126 0.0088384328 0.16783291
0.011713063 0.0063293199 0.17023975
0.012354149 0.0035730407 0.17497315
0.012454277 0.00079378492 0.17693274
0.012637175 0.036234681 0.14280494
0.013138648 0.033875268 0.14703506
0.01357536 0.030947585 0.15004763
0.013896438 0.028851084 0.15394682
0.013740136 0.026768835 0.15652803
0.014010023 0.024563897 0.15875967
0.014097677 0.02202113 0.15986699
0.01472106 0.019749416 0.16229166
0.015003384 0.017043931 0.16453479
0.015097419 0.014299773 0.16568932
0.014740817 0.011334509 0.16580495
0.014665212 0.0085762311 0.16759001
0.01445236 0.0058795814 0.17099667
0.015161162 0.003245092 0.17416281
0.015098909 0.00055468583 0.17553876
0.015457086 0.034377225 0.14545259
0.016138671 0.030973917 0.1497176
0.016957944 0.028517453 0.15546243
0.017107969 0.026538348 0.15722613
0.016929667 0.024286313 0.15867253
0.017196169 0.022053694 0.1608659
0.017748527 0.019494189 0.16211013
0.017723545 0.016530549 0.16328363
0.017796922 0.013838147 0.16526642
0.017721161 0.010895167 0.166805
0.017486874 0.007861915 0.1690546
0.017364575 0.0052088033 0.17090261
0.017169302 0.0025789249 0.17222635
0.017059166 0.0001479265 0.17403752
0 0 0 1 0 0 0 1 0 0 0 1 0 0 0 0 0 252 1 0 0
