ply
format ascii 1.0
comment PCL generated
element vertex 252
property float x
property float y
property float z
element camera 1
property float view_px
property float view_py
property float view_pz
property float x_axisx
property float x_axisy
property float x_axisz
property float y_axisx
property float y_axisy
property float y_axisz
property float z_axisx
property float z_axisy
property float z_axisz
property float focal
property float scalex
property float scaley
property float centerx
property float centery
property int viewportx
property int viewporty
property float k1
property float k2
end_header
-0.025423536 0.031851616 0.14706826
-0.025428329 0.029963098 0.14736056
-0.025700575 0.027483732 0.14852999
-0.026192252 0.025268512 0.14936559
-0.027422614 0.022380687 0.15250297
-0.027538508 0.01873978 0.15401204
-0.02765348 0.015380654 0.15502977
-0.028039973 0.01293005 0.15503071
-0.022787316 0.0321991 0.14561552
-0.023420902 0.029997488 0.14649086
-0.023620119 0.027583661 0.14782034
-0.02407315 0.025285628 0.14824173
-0.02514619 0.022689354 0.14998567
-0.026224369 0.019826638 0.15180604
-0.0268497 0.016216863 0.15248713
-0.027303187 0.012905863 0.15279266
-0.027558219 0.010600325 0.1521775
-0.027809655 0.0083118593 0.15153721
-0.028594226 0.0055337185 0.15162769
-0.029461207 0.0028177092 0.15118267
-0.030640496 0.00033732547 0.15129581
-0.030907141 -0.0027893006 0.15105559
-0.031735059 -0.0060804719 0.15065785
-0.0204098 0.032130834 0.14550069
-0.020918917 0.029734986 0.14658284
-0.021212477 0.027524641 0.14755763
-0.021573089 0.02523678 0.14815956
-0.022279073 0.022601236 0.14907524
-0.024035275 0.019920314 0.14992324
-0.024838395 0.016619202 0.15072604
-0.025574885 0.0129561 0.15133615
-0.025285291 0.0098877773 0.15141773
-0.025876276 0.0073335036 0.15170228
-0.026483923 0.0051517477 0.15190622
-0.027593978 0.00254556 0.15165885
-0.028625688 -0.00023380155 0.1518302
-0.029413849 -0.0037271758 0.15250149
-0.029732877 -0.0068347272 0.152292
-0.030310979 -0.0095004924 0.15298133
-0.017853938 0.033737376 0.14446793
-0.018523814 0.029765837 0.14712599
-0.018608065 0.027874256 0.14761956
-0.01899882 0.025410594 0.1490093
-0.019340284 0.022834571 0.1496211
-0.02052225 0.020217042 0.14977442
-0.0206888 0.016585117 0.15015842
-0.022537308 0.012888942 0.15106052
-0.022860644 0.0093168784 0.15071084
-0.02366248 0.0067628175 0.15147939
-0.023801554 0.0049121659 0.15268366
-0.025706349 0.0018702639 0.15251595
-0.026531257 -0.0010077499 0.15261608
-0.027642429 -0.0046083904 0.15415286
-0.027971156 -0.0076729059 0.1546945
-0.015324172 0.033442557 0.14441861
-0.015819561 0.030119214 0.14784573
-0.016110126 0.027854998 0.14826691
-0.016444793 0.025300546 0.14974056
-0.016712397 0.022923466 0.1500444
-0.017070625 0.019885318 0.15109314
-0.017120954 0.016731944 0.1510361
-0.018237792 0.01260971 0.15129219
-0.019787541 0.0090333931 0.15194425
-0.020129768 0.0067496332 0.15260482
-0.020873846 0.0039859568 0.15324903
-0.02201012 0.0012246668 0.15332568
-0.022117343 -0.0020954497 0.15527724
-0.021917799 -0.0052776402 0.15746668
-0.024464434 -0.0075487224 0.15776882
-0.025222676 -0.010016529 0.15982451
-0.01317384 0.03336684 0.14559473
-0.013549734 0.030227447 0.14775561
-0.013796374 0.027643539 0.14891753
-0.013605227 0.024253242 0.14992346
-0.013710698 0.022019994 0.15053223
-0.013649511 0.019552516 0.15096088
-0.01447749 0.016556924 0.1520716
-0.015162273 0.013140242 0.15263252
-0.016859384 0.0091205128 0.15347859
-0.017230043 0.0062273457 0.15482521
-0.018079817 0.0028020907 0.15481557
-0.01874546 -0.0001262062 0.15553094
-0.018121267 -0.0020453916 0.15739687
-0.018154593 -0.0039827349 0.15958641
-0.018071406 -0.0060815304 0.1608568
-0.017909413 -0.0078741275 0.16327301
-0.010858089 0.032797005 0.14677083
-0.011080874 0.029894371 0.14836091
-0.011238129 0.027351279 0.14898546
-0.010779347 0.024529576 0.14989373
-0.010683096 0.021983242 0.15010153
-0.010484779 0.019888395 0.15045512
-0.011299736 0.016949162 0.15252265
-0.011241357 0.013974561 0.15368612
-0.012977436 0.0095273694 0.1547495
-0.014061199 0.0062187836 0.15566154
-0.016036395 0.0019507444 0.15592206
-0.015712269 -4.7953243e-05 0.15685351
-0.015185337 -0.001437437 0.15939976
-0.015279312 -0.0034011446 0.16111554
-0.015372586 -0.0056594317 0.16205369
-0.015094561 -0.0076597435 0.16389689
-0.008456978 0.032326851 0.14720751
-0.0084249759 0.029663863 0.14869006
-0.0087738782 0.027275687 0.14963026
-0.0081788059 0.02465602 0.15018028
-0.0077992035 0.02228564 0.15029153
-0.0075015766 0.020205807 0.15110856
-0.006679392 0.016730906 0.15382004
-0.0069924872 0.014264192 0.15470402
-0.007163377 0.011203956 0.15610662
-0.0093184393 0.0085434197 0.1559829
-0.012267164 0.0039699483 0.15688248
-0.011491311 0.00094076712 0.15829125
-0.012281898 -0.0011896348 0.16055915
-0.012306288 -0.0026712597 0.16272716
-0.012001507 -0.0051808497 0.16316263
-0.012282906 -0.0074627982 0.16403598
-0.0056933165 0.03233235 0.14827959
-0.0059519634 0.029560262 0.14967906
-0.0059423167 0.027294237 0.15042226
-0.0052630119 0.025307857 0.15088832
-0.0045617227 0.023161877 0.15060329
-0.0041628857 0.020678818 0.15214297
-0.0039611501 0.016791116 0.15439405
-0.0034473643 0.014456481 0.15504196
-0.0031813954 0.011729931 0.15709254
-0.0046428102 0.009883007 0.15723373
-0.0068938988 0.0071516437 0.1579317
-0.0077746138 0.0035258394 0.15955344
-0.0079425527 -3.4256955e-06 0.16339478
-0.0099253468 -0.0018607213 0.16422769
-0.0098050404 -0.0046433937 0.16475014
-0.0033876998 0.032284994 0.1490339
-0.0035180261 0.029794367 0.15044865
-0.0034031484 0.027770352 0.15123656
-0.0026243285 0.026082188 0.15136555
-0.0021890504 0.023651784 0.15159799
-0.0021017303 0.020368299 0.15374707
-0.0015734364 0.017067961 0.15518567
-0.00076936057 0.014825988 0.156005
0.00031312637 0.012683818 0.15731113
-0.0017494756 0.010618542 0.15797485
-0.0040985127 0.0074367882 0.15954393
-0.0048511615 0.0038696185 0.16163372
-0.0058718151 -0.00024289216 0.16437535
-0.0071091331 -0.0020225437 0.16454728
-0.0074681067 -0.0043781125 0.16597211
-0.00075422943 0.032388341 0.14981835
-0.00084023341 0.029782426 0.15066515
-0.0011885269 0.028000107 0.15146002
-0.00036307707 0.026578736 0.15211201
0.00023075618 0.024376255 0.15188907
0.00033402035 0.02039537 0.1546606
0.0007834275 0.017277814 0.15588887
0.0018878883 0.015466449 0.15684667
0.0022501871 0.0131819 0.15792947
0.0017945505 0.0107487 0.15990575
-0.0012736233 0.0076570571 0.16096354
-0.0022399367 0.003666277 0.16372596
-0.0036659748 -0.00069838506 0.16602327
-0.0044730916 -0.0024138424 0.16608253
-0.0046642814 -0.0045544174 0.16753355
0.0018610121 0.032436661 0.15002313
0.0020666558 0.030099971 0.15062882
0.0027641635 0.028302681 0.15179667
0.0029568374 0.026275953 0.15281516
0.0029990457 0.023538273 0.15430649
0.0027980215 0.021228937 0.15525155
0.0033126452 0.018280121 0.1563926
0.004461193 0.015853385 0.1578963
0.0047198897 0.013343453 0.15900102
0.0047307988 0.010959134 0.16085936
0.0029350896 0.0079601631 0.16217081
0.00062650652 0.0041421205 0.16443042
-0.00087487145 -0.001179034 0.16667138
-0.0019539169 -0.0026488008 0.1671112
-0.0022254486 -0.0051834104 0.16999216
0.0046616695 0.032779135 0.14989176
0.0056877211 0.030709766 0.15136194
0.005952626 0.02897861 0.15219484
0.0057897023 0.026803527 0.15323713
0.005721957 0.023994505 0.15482548
0.0056375638 0.021232154 0.1559705
0.0058470517 0.018725211 0.1569486
0.0073175514 0.016346831 0.15848136
0.0072532641 0.013780956 0.16047576
0.0073412475 0.0114151 0.16166554
0.0068758638 0.008692055 0.16346902
0.0068730447 0.006315311 0.16415422
0.0056526228 0.0027340578 0.16712998
0.0028060058 -0.0022602191 0.17021871
0.0018481392 -0.0046559772 0.17191064
0.0078474432 0.033470098 0.15027964
0.007795271 0.031190285 0.15181611
0.0078994911 0.029323956 0.15254138
0.0080679394 0.027264496 0.15375142
0.0080571258 0.024946293 0.15474172
0.0081690978 0.022082346 0.15651025
0.010820566 0.018744424 0.15866232
0.010183766 0.016002549 0.15964772
0.010159577 0.014190197 0.16088277
0.0098002814 0.011746059 0.16263108
0.0099669257 0.0094002951 0.16387013
0.010014451 0.0067851418 0.16552617
0.010381738 0.0042917319 0.16871525
0.0073558586 -0.00064090028 0.17289037
0.0059587252 -0.0033970957 0.17436461
0.010160198 0.033715289 0.14988327
0.0098923743 0.031587109 0.1513266
0.010023092 0.029556321 0.15172458
0.010426885 0.027749259 0.15357767
0.010568427 0.025737282 0.15629733
0.011474041 0.022306222 0.15815619
0.013090734 0.018992936 0.15944958
0.0126814 0.016584756 0.16058452
0.012684407 0.014634416 0.1624323
0.01206648 0.012403101 0.16393031
0.012456783 0.010108895 0.16449945
0.012565049 0.0077343262 0.16628879
0.012596511 0.0052551497 0.16923623
0.010624238 0.00094834901 0.17462049
0.0093526421 -0.0019267622 0.17660052
0.012504469 0.034674667 0.14820632
0.013853552 0.032469854 0.14956245
0.01347462 0.029960975 0.1525985
0.012710747 0.027756449 0.15553555
0.012843065 0.025039164 0.15764119
0.014292515 0.021512924 0.15908179
0.014821376 0.019153155 0.1600396
0.015289446 0.017145174 0.16100894
0.014733408 0.015039627 0.16309404
0.014684099 0.012726229 0.16459128
0.014636115 0.010490078 0.16525649
0.015054412 0.0085543413 0.16752738
0.015166945 0.0052118558 0.17125554
0.014128725 0.0021199179 0.17494343
0.013109566 -0.00066340301 0.17699067
0.016862661 0.034272689 0.14812894
0.016046409 0.030494867 0.15312485
0.01510266 0.026493223 0.15777266
0.015706379 0.024359416 0.15828493
0.016203819 0.02160611 0.15953627
0.016987884 0.019446902 0.16094275
0.018266933 0.017716436 0.16201033
0.017135117 0.015669532 0.16356274
0.016902922 0.013184674 0.16573068
0.016600903 0.010593983 0.1667645
0.018455621 0.007757985 0.16958526
0.018468207 0.0056807944 0.17225291
0.017280385 0.0027691571 0.17423859
0.016143465 6.2908097e-05 0.1760575
0 0 0 1 0 0 0 1 0 0 0 1 0 0 0 0 0 252 1 0 0
