ply
format ascii 1.0
comment PCL generated
element vertex 252
property float x
property float y
property float z
element camera 1
property float view_px
property float view_py
property float view_pz
property float x_axisx
property float x_axisy
property float x_axisz
property float y_axisx
property float y_axisy
property float y_axisz
property float z_axisx
property float z_axisy
property float z_axisz
property float focal
property float scalex
property float scaley
property float centerx
property float centery
property int viewportx
property int viewporty
property float k1
property float k2
end_header
-0.025412599 0.031842347 0.14677182
-0.025443377 0.029942587 0.14703552
-0.025807632 0.027434753 0.1481221
-0.026380531 0.025171766 0.14881748
-0.028047562 0.022327388 0.15178093
-0.028160671 0.018752335 0.15361615
-0.028154712 0.015282008 0.15478674
-0.028442089 0.012814325 0.15481302
-0.022683023 0.032223284 0.14556688
-0.023378469 0.030011948 0.14637175
-0.023671517 0.027576387 0.14764009
-0.024159377 0.025247347 0.14795958
-0.025427639 0.022563906 0.14947966
-0.026708685 0.019791286 0.1513983
-0.027232789 0.016126413 0.15229557
-0.027612362 0.012782356 0.15260634
-0.027808256 0.01047405 0.15196726
-0.028008677 0.0081730811 0.15133075
-0.028816711 0.0053975796 0.15142784
-0.029715586 0.0027093943 0.15100248
-0.030911416 0.00024266516 0.15112291
-0.031144844 -0.0029486346 0.15059055
-0.031874321 -0.0062973448 0.14987163
-0.020297009 0.032150537 0.14558537
-0.020886397 0.029771317 0.14668469
-0.021244485 0.027567992 0.14763828
-0.021645941 0.025279986 0.14815155
-0.022434516 0.022547027 0.14887245
-0.024293719 0.019797456 0.14973703
-0.025107171 0.01653103 0.15075308
-0.02579646 0.012839743 0.15127847
-0.025480276 0.0097660879 0.15137969
-0.026086641 0.0072014555 0.15147211
-0.02670276 0.0050083287 0.15149486
-0.02784268 0.0024176862 0.15132363
-0.02889351 -0.00035881432 0.15154073
-0.029651236 -0.0039614141 0.15195909
-0.029931063 -0.0071002599 0.15155418
-0.030507809 -0.0097935898 0.15212542
-0.017806426 0.033944961 0.14492741
-0.018504461 0.029790917 0.14734282
-0.01862731 0.027918769 0.14786617
-0.019111492 0.025438357 0.14919589
-0.019498412 0.022839598 0.14963703
-0.020736882 0.020200837 0.14975294
-0.020947758 0.01651009 0.15045965
-0.02273635 0.012792 0.15149651
-0.022977 0.0092124967 0.15107553
-0.0238737 0.0066515612 0.15143287
-0.023995167 0.0047415528 0.1522765
-0.025904937 0.0017101237 0.15195078
-0.026776036 -0.0011711664 0.15218279
-0.027887642 -0.0049152323 0.15356772
-0.02820373 -0.0080196597 0.15396358
-0.015363124 0.033717718 0.14503595
-0.015819805 0.030178819 0.14816979
-0.016152788 0.027906965 0.14863008
-0.016573343 0.025315089 0.14998676
-0.01688743 0.022933513 0.15013088
-0.017348539 0.019892048 0.15107732
-0.017496081 0.016730458 0.15134074
-0.018616607 0.012602047 0.15207142
-0.020161387 0.008750394 0.15226203
-0.020486722 0.0064074034 0.15262075
-0.021205448 0.003667193 0.15323494
-0.022384245 0.00095250201 0.15339527
-0.022204099 -0.0024288557 0.15541963
-0.02188709 -0.0057795094 0.15743904
-0.024580026 -0.0080279363 0.1573115
-0.025373314 -0.010550758 0.15931898
-0.013216786 0.033565074 0.14620414
-0.013626334 0.030362966 0.14829078
-0.013913667 0.027786653 0.14948153
-0.013781682 0.024277007 0.15020926
-0.013925827 0.022021312 0.15071861
-0.013968758 0.019583525 0.15129609
-0.014970084 0.016684808 0.15265533
-0.015757378 0.013346615 0.15361215
-0.017315613 0.0089136772 0.15383039
-0.017414125 0.0058204294 0.15449451
-0.018315982 0.0024094356 0.15468399
-0.018853284 -0.00050677854 0.15573134
-0.018154498 -0.0024516056 0.15775514
-0.018252004 -0.004390032 0.15996259
-0.018216556 -0.0064572692 0.16133368
-0.018144691 -0.0081984457 0.16381112
-0.010904779 0.032902095 0.14732809
-0.01116873 0.029995628 0.14888695
-0.01137245 0.027452666 0.14954546
-0.010967099 0.024554849 0.15042372
-0.010926045 0.021946367 0.15055124
-0.010805513 0.01984003 0.15099721
-0.011812947 0.017087864 0.15331002
-0.011972545 0.014315936 0.15501377
-0.013682375 0.0096908826 0.15585566
-0.014287039 0.0058631212 0.1555263
-0.016166613 0.0015385535 0.15604554
-0.015791873 -0.00041835662 0.1572666
-0.01534847 -0.0017421219 0.15999319
-0.015506447 -0.0036833629 0.1617711
-0.01561062 -0.005928759 0.16276099
-0.015391893 -0.0078919353 0.1647114
-0.0085171983 0.032363348 0.14770284
-0.0085182702 0.029715946 0.14919172
-0.0089006471 0.027312733 0.1501448
-0.0083658062 0.024616752 0.15070474
-0.0080750985 0.022165652 0.15078196
-0.0078259604 0.020074813 0.15170227
-0.0071654469 0.016700571 0.15501653
-0.0074984739 0.014215635 0.15614872
-0.0077286735 0.01117212 0.1577578
-0.0099927643 0.008623559 0.15764011
-0.012541112 0.0036681732 0.15733381
-0.011694219 0.00073472323 0.15910819
-0.012517069 -0.0013662224 0.16140576
-0.012654828 -0.0028233172 0.16358742
-0.012347708 -0.0053368257 0.16407438
-0.012595629 -0.0076378719 0.16489144
-0.0057115331 0.032243039 0.14862956
-0.0060248794 0.029480234 0.1500352
-0.0060343388 0.027167164 0.1505516
-0.005456774 0.025182942 0.15110581
-0.0049265074 0.022973042 0.15105169
-0.0046144957 0.02059558 0.15295473
-0.0044632931 0.016684799 0.15568033
-0.0039547593 0.014318244 0.15647323
-0.0036886041 0.011642778 0.15853265
-0.0052123005 0.0098621491 0.15872291
-0.0074900952 0.0071471012 0.15942124
-0.0082926964 0.0034403042 0.16084492
-0.0083872247 -2.7878214e-05 0.16441052
-0.010328396 -0.0020009908 0.16509935
-0.010154824 -0.0047923536 0.16553497
-0.0033618843 0.032057643 0.14925684
-0.0035406849 0.029551502 0.15067443
-0.0034357025 0.027515229 0.15123935
-0.0027412435 0.025804445 0.15137821
-0.0024619261 0.023368714 0.15182884
-0.0024704384 0.020248679 0.15449156
-0.0020411895 0.016933523 0.15634502
-0.0012302932 0.014675366 0.15733014
-0.00020104897 0.012550524 0.15845184
-0.0022821552 0.010553245 0.1592056
-0.0046173204 0.0073800678 0.1608593
-0.0052970434 0.0037224947 0.16279204
-0.006259372 -0.0003434415 0.16523513
-0.0075079137 -0.0020904432 0.16540673
-0.0078025581 -0.0045109908 0.1667278
-0.00068634155 0.032007854 0.14992607
-0.00085487694 0.029395448 0.15079889
-0.0011977298 0.027608857 0.15135053
-0.00038935503 0.026170492 0.1519077
2.5785637e-05 0.023905903 0.15179354
2.0618751e-05 0.02014179 0.15518308
0.00035865747 0.01711864 0.15689881
0.0014566837 0.015339272 0.15792415
0.0018047225 0.013094718 0.15882345
0.0014525347 0.010608152 0.16055559
-0.0016862326 0.0075368159 0.16195406
-0.0025386771 0.0034263441 0.16454132
-0.0039411811 -0.00093388354 0.16665865
-0.0048031663 -0.0025795861 0.16676608
-0.0049498398 -0.0047346675 0.16816765
0.0019201051 0.031915303 0.15009421
0.0020435755 0.029581506 0.15072672
0.0027905691 0.027698858 0.15156436
0.0029935436 0.025516918 0.15217607
0.002880306 0.022913607 0.15393254
0.0025165477 0.020759005 0.15517624
0.0029129239 0.017943332 0.15680584
0.0040891268 0.0157043 0.15869854
0.0043508941 0.013232428 0.15975848
0.0044714445 0.010816863 0.16143897
0.0026953707 0.0077638426 0.16262355
0.00040374981 0.0038856221 0.16508231
-0.0011790543 -0.0014428479 0.16713019
-0.0022542321 -0.0028827426 0.16761477
-0.0024127052 -0.0054311957 0.17044644
0.0046786866 0.032159973 0.14998083
0.0057801274 0.030008005 0.15122861
0.0060762055 0.028217871 0.15183195
0.0058507854 0.026018634 0.15269665
0.0056149382 0.023284463 0.1544362
0.0053597367 0.020651033 0.15585652
0.0055086436 0.018336531 0.15734139
0.0069783395 0.016140943 0.15917294
0.0069684065 0.013627817 0.16115309
0.0071201967 0.011261104 0.16223294
0.0066812057 0.0085903397 0.16397905
0.0066160508 0.0063159368 0.16479979
0.0054573514 0.0026703803 0.16767038
0.0025804469 -0.002400148 0.1706174
0.0016892375 -0.0047813198 0.17229417
0.0079466114 0.032749873 0.15025897
0.007936758 0.030403929 0.1516263
0.0080466047 0.028489459 0.1521661
0.0081383754 0.026427899 0.15329579
0.0080144303 0.024124719 0.15432064
0.0079486603 0.021406502 0.1563258
0.010801753 0.018422322 0.15918614
0.0099536087 0.01582635 0.16029163
0.009920775 0.014024686 0.16146401
0.0096454704 0.011624018 0.16313311
0.0097964611 0.0092655076 0.16429761
0.0098461928 0.0066738049 0.16598229
0.010343743 0.0042448035 0.16917664
0.0071026459 -0.0005388211 0.17342886
0.0057168012 -0.003296342 0.17491032
0.01033681 0.033039317 0.14997748
0.010066834 0.030812291 0.15124354
0.010250217 0.028731726 0.15142134
0.010546884 0.02682204 0.15320578
0.010480014 0.024908248 0.15601262
0.011467883 0.021731755 0.15837102
0.013083256 0.018765818 0.16001393
0.012611478 0.016382551 0.16106799
0.012707222 0.014343482 0.16277581
0.012120873 0.012076598 0.16415018
0.012401494 0.0097771352 0.16458777
0.012533526 0.0074286116 0.16639222
0.012663535 0.0050341338 0.16940147
0.010485998 0.0010177515 0.17505038
0.0091418773 -0.0017558755 0.17714052
0.012884168 0.034369808 0.14885238
0.014236259 0.03215405 0.15024023
0.013724766 0.029231375 0.15287715
0.012767069 0.026851684 0.15558495
0.0125771 0.024516478 0.1582084
0.014127264 0.021281224 0.15992711
0.014773007 0.01894743 0.16063352
0.015258813 0.016839843 0.16124435
0.014814708 0.014587801 0.1631559
0.014794691 0.012218545 0.16452566
0.014680819 0.0099860504 0.16506158
0.015199714 0.008067131 0.16729285
0.015305848 0.0048187082 0.17119445
0.014149653 0.0019754905 0.1751318
0.013010164 -0.00063721865 0.17736135
0.01739453 0.033931635 0.1489788
0.016291887 0.029740894 0.15371592
0.014680535 0.026015811 0.15863043
0.015171249 0.024307985 0.15962967
0.015966224 0.021547528 0.16056727
0.016943291 0.019191734 0.16147874
0.0183274 0.017231308 0.16198188
0.017259274 0.0150402 0.16330501
0.017122697 0.012477485 0.16539511
0.016807688 0.0098802093 0.16629058
0.018597063 0.0071706735 0.16927578
0.018684065 0.005080271 0.17194341
0.017397426 0.0023414602 0.17412046
0.016127042 -0.00014325332 0.1761874
0 0 0 1 0 0 0 1 0 0 0 1 0 0 0 0 0 252 1 0 0
