ply
format ascii 1.0
comment PCL generated
element vertex 252
property float x
property float y
property float z
element camera 1
property float view_px
property float view_py
property float view_pz
property float x_axisx
property float x_axisy
property float x_axisz
property float y_axisx
property float y_axisy
property float y_axisz
property float z_axisx
property float z_axisy
property float z_axisz
property float focal
property float scalex
property float scaley
property float centerx
property float centery
property int viewportx
property int viewporty
property float k1
property float k2
end_header
-0.025268212 0.031219454 0.14590886
-0.025341935 0.029350013 0.14631441
-0.025786499 0.026894078 0.14754723
-0.026444918 0.0246526 0.1483631
-0.028428381 0.021580162 0.15093821
-0.028520672 0.01768354 0.15277933
-0.028247375 0.013934696 0.15376191
-0.028303906 0.01145275 0.15345553
-0.022496108 0.031558044 0.14484322
-0.023256479 0.029392064 0.14574113
-0.023653943 0.027044244 0.14715114
-0.024189346 0.024748754 0.14775148
-0.025602069 0.022032555 0.14904332
-0.026994811 0.019060567 0.15059885
-0.027332403 0.015182799 0.15139829
-0.027441386 0.011752609 0.1512991
-0.027498398 0.0095029883 0.15031663
-0.027523981 0.0073319455 0.14937307
-0.02809776 0.0045106704 0.14905244
-0.028897405 0.0018161059 0.14837356
-0.029986374 -0.0007789543 0.14832304
-0.030016163 -0.0037678753 0.1467701
-0.030225171 -0.0068545016 0.14508425
-0.020156763 0.031481169 0.14495455
-0.020816695 0.029166436 0.1463107
-0.021209121 0.027003407 0.14740993
-0.021665366 0.024783874 0.14824907
-0.022558788 0.022127153 0.14908613
-0.024457246 0.019265024 0.14919126
-0.025215346 0.015887568 0.149957
-0.025729647 0.012092895 0.15004531
-0.025262348 0.0091027664 0.14955372
-0.025564946 0.0065217931 0.14933686
-0.025986083 0.0042849286 0.14899111
-0.027023265 0.0016651297 0.14833245
-0.027983254 -0.0011650452 0.14777346
-0.028111255 -0.0048172018 0.14739415
-0.02800273 -0.0078147007 0.146292
-0.028212732 -0.010644967 0.14623317
-0.017510828 0.033349231 0.14421639
-0.018432667 0.029125439 0.14695631
-0.01858139 0.027254507 0.14752425
-0.019040432 0.02479136 0.14897662
-0.019509001 0.022298042 0.14969692
-0.020913152 0.019806664 0.14995708
-0.021134065 0.016167371 0.1504713
-0.022794014 0.012316356 0.1500591
-0.022813495 0.0088761393 0.14898618
-0.023381609 0.0061945356 0.14907968
-0.02325017 0.0041554645 0.14970344
-0.024999356 0.001066033 0.14845058
-0.025818383 -0.0017690522 0.14716475
-0.026016699 -0.0059300386 0.14844139
-0.026000984 -0.0090802889 0.14823662
-0.015055657 0.033229202 0.14457843
-0.015672129 0.029392518 0.14757474
-0.01603578 0.027096387 0.14799003
-0.016457139 0.024503794 0.14925736
-0.016907221 0.022288006 0.14971381
-0.017529109 0.019529542 0.15128066
-0.017680125 0.016427606 0.15161733
-0.018736266 0.012255854 0.15153012
-0.020062465 0.0085406825 0.15029842
-0.020095902 0.0061956132 0.15069307
-0.020418556 0.0033767649 0.15119077
-0.021162389 0.00054065674 0.15095708
-0.020788439 -0.0027347347 0.15193625
-0.020368695 -0.0062146541 0.15320414
-0.022449706 -0.0091695422 0.15183839
-0.023041043 -0.012211164 0.1533068
-0.013046391 0.033117261 0.14596228
-0.013528869 0.02972815 0.14792868
-0.013785946 0.027089773 0.14911701
-0.01373207 0.023533912 0.14954029
-0.013902178 0.021326087 0.15018983
-0.013940034 0.019000014 0.15101714
-0.014954643 0.016232852 0.15250228
-0.015718771 0.012848801 0.15316562
-0.017341074 0.0087725176 0.15244421
-0.017070806 0.0059477664 0.15300579
-0.01751432 0.0025164874 0.1529105
-0.017994456 -0.00034812826 0.15338592
-0.017443743 -0.0022931441 0.15496695
-0.017478945 -0.0045064678 0.1566828
-0.017302964 -0.0067062601 0.15774302
-0.017198797 -0.0087526198 0.15986523
-0.010823945 0.032427985 0.14723927
-0.011067277 0.029359797 0.14853913
-0.011257965 0.026803384 0.14925073
-0.010828479 0.023934506 0.14981128
-0.010678217 0.021278353 0.14968364
-0.010555699 0.019156948 0.15025631
-0.011631612 0.016500238 0.15276721
-0.011723714 0.013682119 0.15430452
-0.013592849 0.0092798527 0.15477613
-0.013953072 0.006243899 0.15415643
-0.015599478 0.0018841227 0.15401414
-0.015216693 -0.00010787451 0.15491018
-0.014948639 -0.0016421981 0.15732238
-0.015020922 -0.0037819503 0.15881842
-0.014979509 -0.0061371583 0.15949966
-0.014695869 -0.0083349189 0.16113536
-0.0083985152 0.03183483 0.14766178
-0.0083859544 0.02907566 0.14884366
-0.0087855728 0.026663287 0.14978038
-0.0082475469 0.024068126 0.15007949
-0.0077816392 0.021625837 0.14990534
-0.0074748951 0.019444309 0.15080881
-0.0066046221 0.016195239 0.15401991
-0.0068325242 0.013841222 0.15512972
-0.0069035389 0.011063791 0.15678379
-0.0093240375 0.0086784689 0.15633647
-0.012113046 0.0040769591 0.15542255
-0.011295013 0.00091971672 0.1567136
-0.012140965 -0.0013727443 0.15882592
-0.012266888 -0.0030526025 0.16075788
-0.011861256 -0.0056382376 0.16110018
-0.012079529 -0.0080203749 0.16176619
-0.0054840073 0.031613175 0.1484592
-0.0058146445 0.028893929 0.14976546
-0.0057525816 0.026671799 0.14987047
-0.0051152539 0.024869367 0.15035413
-0.0044095125 0.022707786 0.15047404
-0.0042043761 0.020119533 0.15248077
-0.0039886124 0.016403098 0.15487131
-0.0033546535 0.014171521 0.15574242
-0.0029495391 0.011644867 0.15790786
-0.0044819675 0.0098983124 0.15794276
-0.0069585592 0.0072712582 0.15822996
-0.0079858266 0.0035025461 0.15920004
-0.0081343967 -0.00036026654 0.16257595
-0.010073612 -0.0023950406 0.16274223
-0.0098604038 -0.005169698 0.16309257
-0.0031977152 0.031532355 0.14928028
-0.0034902261 0.029130995 0.15082155
-0.0033644275 0.027234286 0.15113842
-0.0025937306 0.025670936 0.15131903
-0.0021963543 0.023259623 0.15178065
-0.0023665542 0.01985204 0.15427461
-0.0017067099 0.016743343 0.15579687
-0.00070382393 0.014669691 0.15681672
0.00047130178 0.012764342 0.15779848
-0.001622541 0.010699875 0.15851806
-0.0041561369 0.0073569654 0.15983596
-0.0050798734 0.003541233 0.16138698
-0.0060841753 -0.00074092421 0.16353434
-0.0073701097 -0.0024033345 0.1636069
-0.0077710813 -0.0048479228 0.16481897
-0.0006239583 0.031613868 0.15019047
-0.00090895413 0.029168755 0.15155691
-0.0012851581 0.027513564 0.15190133
-0.00052983605 0.026182123 0.15251443
0.00012780254 0.024023449 0.15244807
-4.460596e-05 0.019843157 0.15541095
0.0005847257 0.017054504 0.15666267
0.0018427699 0.015497332 0.15771383
0.0022357292 0.013251741 0.1582038
0.0020013014 0.010600394 0.15940557
-0.0012308749 0.0074183033 0.16081299
-0.0022538835 0.0029356806 0.16303079
-0.0038605274 -0.0015032268 0.16498645
-0.0048133149 -0.0029703106 0.16517775
-0.0051284917 -0.0050547672 0.16662534
0.0019371933 0.031587571 0.15052582
0.002009219 0.029363185 0.15149495
0.00264148 0.027693558 0.15250695
0.0027641419 0.025818625 0.15359071
0.0026543369 0.023086123 0.15497825
0.0023208349 0.020807076 0.15590829
0.0028280963 0.018096456 0.15712385
0.0041309181 0.015917236 0.15878026
0.0046409531 0.013366272 0.15921752
0.0050192778 0.010695026 0.16030645
0.0033435274 0.0076532774 0.16088703
0.00076228729 0.0033440362 0.16341671
-0.0011480675 -0.0020498729 0.16567424
-0.0022995558 -0.0034098763 0.16612051
-0.0026470779 -0.0060267956 0.16882825
0.0046378337 0.031890389 0.15032086
0.0057215909 0.029793667 0.15156333
0.0059732962 0.028075764 0.15222479
0.0058062733 0.026195103 0.15352634
0.0054601715 0.023566712 0.15553126
0.0052022464 0.020837195 0.15677777
0.0052937428 0.018758312 0.15799467
0.006894561 0.01655429 0.15955041
0.0071174717 0.013671441 0.16081791
0.0075410102 0.011156081 0.1612197
0.0072646108 0.0083381478 0.16217555
0.007163458 0.0060665775 0.16293766
0.0058654584 0.0020373126 0.16584858
0.0027732686 -0.0034343558 0.1688073
0.001632267 -0.0057249251 0.17058122
0.0078370478 0.032573409 0.15063004
0.0078301858 0.030263087 0.15189797
0.007944176 0.028458422 0.15250058
0.008129118 0.02658624 0.1537244
0.0079693198 0.02445972 0.15511955
0.0077704685 0.021775587 0.15737171
0.010391032 0.019082 0.15997554
0.009761069 0.016305808 0.16086751
0.0099431509 0.014275772 0.16147602
0.01000808 0.011499831 0.16195711
0.010195963 0.0091106305 0.16296098
0.010237769 0.0064700004 0.16457637
0.010653756 0.0039762319 0.16780385
0.007517477 -0.0016911298 0.17129464
0.0060415613 -0.0045903209 0.17270975
0.010174036 0.03297963 0.15034796
0.009889598 0.030784255 0.15142412
0.010042928 0.028746573 0.15166058
0.010515765 0.027011834 0.15349062
0.010601515 0.025364378 0.1563051
0.011313441 0.022311162 0.15882634
0.012887271 0.019148324 0.16024764
0.012425765 0.016880848 0.16149467
0.012715405 0.014599343 0.16272983
0.012317165 0.012017586 0.16339955
0.012735543 0.0097155515 0.163541
0.01287851 0.0072951401 0.16520096
0.012907668 0.004899519 0.1682101
0.010818151 -1.8870218e-05 0.17311619
0.0095622391 -0.0031287847 0.17493765
0.012582106 0.034866855 0.1496875
0.013997216 0.032671027 0.1507985
0.013621165 0.029600559 0.15317217
0.012761395 0.027111076 0.1554777
0.012925224 0.024697166 0.1577407
0.014144261 0.021477666 0.15958574
0.01464021 0.01914352 0.1603839
0.01514467 0.017202344 0.16119099
0.01479842 0.014862112 0.1630806
0.014901023 0.012363632 0.16411905
0.014882007 0.010067532 0.16422054
0.015500315 0.0080126552 0.1662759
0.015351673 0.004768292 0.17029351
0.014267562 0.0013120465 0.17358187
0.013300073 -0.0017040442 0.17540872
0.017095197 0.03505576 0.14977802
0.016230552 0.030153923 0.15383051
0.015069908 0.025838928 0.15783557
0.015599107 0.024010219 0.15838616
0.016052589 0.021403071 0.15975943
0.016903238 0.019258795 0.16078703
0.018280998 0.017518768 0.16155247
0.017190741 0.015456672 0.16335675
0.017083388 0.012785574 0.16530439
0.016962104 0.010007842 0.16561742
0.018671334 0.0074066822 0.16882321
0.018630028 0.0052016834 0.17139389
0.017369339 0.0021227391 0.1730864
0.016266841 -0.00077678758 0.17458753
0 0 0 1 0 0 0 1 0 0 0 1 0 0 0 0 0 252 1 0 0
