ply
format ascii 1.0
comment PCL generated
element vertex 252
property float x
property float y
property float z
element camera 1
property float view_px
property float view_py
property float view_pz
property float x_axisx
property float x_axisy
property float x_axisz
property float y_axisx
property float y_axisy
property float y_axisz
property float z_axisx
property float z_axisy
property float z_axisz
property float focal
property float scalex
property float scaley
property float centerx
property float centery
property int viewportx
property int viewporty
property float k1
property float k2
end_header
-0.025653217 0.031252708 0.14727437
-0.025664236 0.029335275 0.14749014
-0.025974652 0.026781807 0.14850996
-0.026521239 0.02450401 0.14915527
-0.028367585 0.021713931 0.15160517
-0.028349465 0.018228723 0.15350948
-0.028074667 0.014845124 0.15482962
-0.028407365 0.012405696 0.15483157
-0.022986712 0.031711012 0.14610559
-0.023651972 0.029451597 0.14684407
-0.023905566 0.026971364 0.14805159
-0.02432524 0.02458583 0.14848946
-0.025626134 0.021910025 0.14968476
-0.027040036 0.019176854 0.15128709
-0.027419798 0.015640534 0.15225266
-0.027801804 0.012356964 0.15256645
-0.028140433 0.010128402 0.15192376
-0.028443595 0.0079774214 0.15133864
-0.029343452 0.005264964 0.15126333
-0.030339492 0.0026767475 0.15074147
-0.031583369 0.00027960262 0.15080169
-0.031760164 -0.0028259838 0.14998361
-0.032431159 -0.0059783533 0.14892541
-0.020642858 0.03165438 0.14604861
-0.021179045 0.02918764 0.14724772
-0.021441771 0.02689611 0.14815356
-0.021760382 0.024563611 0.14889306
-0.02253484 0.021876443 0.1497142
-0.024562549 0.019145312 0.14986446
-0.025438059 0.015938321 0.15064281
-0.026189473 0.012366117 0.15117136
-0.026019281 0.0093669193 0.15121469
-0.026624784 0.0069105886 0.15144901
-0.027288688 0.0047980109 0.15136702
-0.028600702 0.00233116 0.15083697
-0.029705573 -0.00037917303 0.15076093
-0.030274425 -0.0038451268 0.15100774
-0.030514231 -0.006896751 0.15042122
-0.031089608 -0.0096393591 0.15086405
-0.017996399 0.033510052 0.14510266
-0.018725444 0.029078908 0.14764497
-0.018790198 0.027133614 0.14802869
-0.019065328 0.024562005 0.14939004
-0.019425062 0.022067564 0.15017663
-0.020866994 0.019601054 0.15060374
-0.021226142 0.015945615 0.15080775
-0.02322755 0.01224969 0.15098961
-0.023657342 0.008753445 0.15061395
-0.024516625 0.0062579964 0.15121928
-0.02465032 0.0043619182 0.1522103
-0.026783455 0.0015436348 0.1512541
-0.027609659 -0.0012933554 0.15084127
-0.028569246 -0.0048928875 0.15240245
-0.028863272 -0.0079822848 0.1526968
-0.015466492 0.033329122 0.14524737
-0.015891382 0.029257707 0.14789405
-0.016196989 0.026947254 0.14817384
-0.016457606 0.02429588 0.14939265
-0.016846852 0.022108117 0.14992361
-0.017294178 0.019216001 0.15132934
-0.017533764 0.016019482 0.15133011
-0.018844334 0.011851684 0.15131934
-0.020877305 0.0081596319 0.15152916
-0.021220693 0.0058832169 0.15221561
-0.021938318 0.003251367 0.15316154
-0.023194499 0.00061076513 0.15345515
-0.023153566 -0.0022642044 0.15468167
-0.023050299 -0.0053642737 0.15621504
-0.025652343 -0.007898286 0.15614806
-0.026513388 -0.010516744 0.15819243
-0.013436706 0.033188246 0.14657943
-0.013742841 0.029588329 0.1481179
-0.013910104 0.026878435 0.14914803
-0.013746731 0.023386331 0.14962777
-0.013843888 0.021149568 0.15020791
-0.013797471 0.018720875 0.1509061
-0.014731991 0.01575206 0.15207154
-0.015605706 0.012278083 0.15254293
-0.017751044 0.0081999265 0.1526784
-0.017933104 0.0053753983 0.15393339
-0.018966118 0.0021350605 0.15441909
-0.019699888 -0.00036874975 0.15505418
-0.019028312 -0.0020853595 0.15648897
-0.019049065 -0.0039625815 0.15842132
-0.018924197 -0.0060086651 0.15970312
-0.018614441 -0.0078360038 0.16190048
-0.01115446 0.032444015 0.147691
-0.01125495 0.029228892 0.14865169
-0.011379408 0.02663617 0.14926945
-0.010888339 0.023825385 0.14992914
-0.010701107 0.021173455 0.1501018
-0.010482335 0.019045386 0.15057005
-0.011395551 0.016117446 0.15252101
-0.011469371 0.01303008 0.15359081
-0.013626072 0.0084862094 0.15415537
-0.014657809 0.0054253857 0.15445219
-0.016947856 0.001533518 0.1550115
-0.016577514 -0.00026512411 0.15586619
-0.015955176 -0.0015596364 0.15809689
-0.015992291 -0.0034887304 0.15977086
-0.016089702 -0.0057011186 0.16071022
-0.015720218 -0.0077616139 0.16248111
-0.008668744 0.031835478 0.14798167
-0.0085526071 0.02897262 0.14892736
-0.0089033665 0.026538407 0.14978775
-0.0083035054 0.023983978 0.15013988
-0.0078154448 0.021566324 0.15029982
-0.0074026319 0.019431408 0.15119703
-0.0063525517 0.015845789 0.15374887
-0.0065624486 0.013356192 0.15464568
-0.006789492 0.010656256 0.15661532
-0.0093120709 0.0082701957 0.15617667
-0.012920466 0.0035234354 0.15564597
-0.012147285 0.00061236607 0.15678255
-0.012880805 -0.0014167412 0.15911876
-0.012813086 -0.0029100066 0.16108756
-0.012479564 -0.0054390854 0.16144387
-0.012753238 -0.0077503584 0.16216627
-0.005738067 0.031593312 0.1487589
-0.005984867 0.028754216 0.14978978
-0.0059117619 0.026644675 0.14984161
-0.0052548633 0.024861671 0.15026323
-0.0046124673 0.02266774 0.15026903
-0.0041498658 0.020005262 0.15224573
-0.0037284396 0.01596866 0.15432522
-0.0031002464 0.013676222 0.15517013
-0.0028793227 0.011257484 0.15779291
-0.0045293039 0.0096009318 0.15811679
-0.0070705046 0.0069991695 0.15840435
-0.0081116101 0.0031884008 0.15922134
-0.0083714966 -0.00044278716 0.16239783
-0.01030666 -0.0023009712 0.16273542
-0.010251705 -0.0050571053 0.16315392
-0.0034794675 0.03153272 0.14950231
-0.0035947436 0.02889953 0.15063964
-0.0033642761 0.02705883 0.15062504
-0.0025870004 0.025543517 0.15070567
-0.002200172 0.023133343 0.15115695
-0.0020886287 0.019625209 0.15375072
-0.001431853 0.016285526 0.15514176
-0.00045945501 0.01418863 0.15621993
0.00050497433 0.012419574 0.15760784
-0.0017050493 0.010427161 0.1587643
-0.0043489132 0.0071420032 0.16021088
-0.0052841171 0.0032910821 0.16149645
-0.0063897362 -0.00085646543 0.16336617
-0.0076460387 -0.0024873107 0.16342708
-0.0080487626 -0.0048886612 0.1646962
-0.00086456892 0.031615101 0.15016727
-0.00092748838 0.028895916 0.15100764
-0.0011814792 0.027257383 0.15104027
-0.00033565974 0.025963586 0.15149207
0.00023227656 0.023801899 0.15133539
0.00035627524 0.019545205 0.15458864
0.00091120077 0.016619973 0.15589249
0.0020564317 0.015069551 0.15692733
0.0022612566 0.012935461 0.15790638
0.0018180711 0.010557326 0.15984702
-0.0014982228 0.0073342025 0.16152287
-0.0026074722 0.002841241 0.16334108
-0.004268501 -0.0015931748 0.16494985
-0.0051442822 -0.0031033766 0.16498265
-0.0054081064 -0.0051850607 0.16638511
0.0017542301 0.031624075 0.15015277
0.0019519259 0.029243238 0.15070726
0.0026980625 0.027386669 0.15145205
0.0029512327 0.025449635 0.15250728
0.0029319425 0.022684602 0.15401933
0.0027055561 0.020398846 0.15486233
0.003199416 0.017623626 0.1560609
0.0044350363 0.015495133 0.1576744
0.0047214651 0.013080065 0.15875369
0.0048861373 0.010717331 0.16054568
0.003054732 0.0077722832 0.16175082
0.00040502587 0.0033896531 0.16416083
-0.0016367242 -0.0021126934 0.16566743
-0.0027333247 -0.00349393 0.16602245
-0.0030299772 -0.0060032154 0.16874045
0.0045070769 0.031760257 0.14981675
0.0055633434 0.02962891 0.15111862
0.0058497903 0.027880032 0.15177557
0.0057547889 0.025922135 0.15284517
0.0056051509 0.023119673 0.15454572
0.0055707432 0.0203801 0.15561709
0.0058148936 0.018065004 0.15648118
0.0072850231 0.016005341 0.15818366
0.0072942153 0.013529427 0.16011602
0.0074694608 0.011217513 0.16123448
0.0069375243 0.0087033268 0.16284722
0.0068411608 0.0063137538 0.16352573
0.0053173737 0.0022749889 0.16631144
0.0019804724 -0.0031233039 0.1690529
0.0010600092 -0.0054602888 0.17067301
0.007692398 0.032423366 0.15040566
0.00764339 0.030114323 0.15164712
0.0077850735 0.028341839 0.15225054
0.0079933461 0.026464671 0.15336832
0.0079302881 0.024227083 0.15447228
0.0080189053 0.021376347 0.15623815
0.010663749 0.018642046 0.15861322
0.010049162 0.015885722 0.15956189
0.01013182 0.01401012 0.16059099
0.0098022297 0.011598261 0.16200976
0.0099337921 0.0092828553 0.16315933
0.0099838944 0.0067060525 0.16486186
0.010333283 0.0041552912 0.16785368
0.0064201411 -0.0015468684 0.17118602
0.0049695745 -0.0043386561 0.17271771
0.0099693332 0.032877307 0.15028366
0.0096835839 0.030733747 0.15136038
0.0098901056 0.028768243 0.15159033
0.010370081 0.027020216 0.15334886
0.010304173 0.025292484 0.15602477
0.011389261 0.021937121 0.15767881
0.013089875 0.018794578 0.15906902
0.012605885 0.016592838 0.16030608
0.012807817 0.014508723 0.16186044
0.012227558 0.012108124 0.16311826
0.012504968 0.0098399548 0.16355571
0.012662915 0.0074892947 0.16533144
0.012564537 0.0050118561 0.16789119
0.0099322172 -0.00010459346 0.17269589
0.0085370596 -0.0031197558 0.17465912
0.01216226 0.034932233 0.14985552
0.01363248 0.032942858 0.15114008
0.013240584 0.029816238 0.15339874
0.012437669 0.027156949 0.15534389
0.012782522 0.024522336 0.15707423
0.014284298 0.021155637 0.15846303
0.014811445 0.018786132 0.15919037
0.015294291 0.016834311 0.16006239
0.01489284 0.014653321 0.16204444
0.014908225 0.012244451 0.16329181
0.014684017 0.010102402 0.16395755
0.015316783 0.0081670918 0.16616659
0.01481625 0.0044274097 0.16920952
0.013504667 0.00094553852 0.17271924
0.012380462 -0.0020019219 0.17473567
0.016536517 0.035776407 0.15053807
0.015679192 0.030590475 0.15424158
0.01484349 0.025661619 0.1572852
0.015549267 0.023836806 0.15754905
0.016179617 0.021081191 0.15858842
0.017059539 0.018819377 0.15938391
0.018341841 0.016850477 0.15969986
0.017350413 0.014873682 0.16174786
0.017281428 0.012332713 0.16383611
0.016872937 0.0098710014 0.16486441
0.018267062 0.0068003717 0.16756307
0.018109689 0.0044436636 0.16999134
0.016642082 0.0014581829 0.17179209
0.015370463 -0.0013226611 0.17356236
0 0 0 1 0 0 0 1 0 0 0 1 0 0 0 0 0 252 1 0 0
