ply
format ascii 1.0
comment PCL generated
element vertex 252
property float x
property float y
property float z
element camera 1
property float view_px
property float view_py
property float view_pz
property float x_axisx
property float x_axisy
property float x_axisz
property float y_axisx
property float y_axisy
property float y_axisz
property float z_axisx
property float z_axisy
property float z_axisz
property float focal
property float scalex
property float scaley
property float centerx
property float centery
property int viewportx
property int viewporty
property float k1
property float k2
end_header
-0.025736494 0.031376719 0.14713208
-0.025726985 0.029453713 0.14728865
-0.026039273 0.026872734 0.14820115
-0.026565958 0.024564493 0.14873961
-0.028500002 0.02179664 0.15110843
-0.028514894 0.018389465 0.15335698
-0.028250385 0.014974249 0.15482438
-0.028552368 0.012537454 0.15481377
-0.023029931 0.031907566 0.1461748
-0.023700681 0.029613832 0.14679243
-0.023963979 0.027101366 0.14789948
-0.024346475 0.024682261 0.14824522
-0.025654331 0.021944707 0.14933412
-0.02712756 0.019263569 0.15108185
-0.027508456 0.015762372 0.15226859
-0.027898081 0.012476905 0.15257895
-0.02824625 0.010250654 0.15196534
-0.028565139 0.0081212968 0.15139331
-0.029543545 0.0054381466 0.15134464
-0.030532636 0.0029081581 0.15083843
-0.03167301 0.00053736003 0.15106072
-0.031774417 -0.0026221862 0.1504128
-0.03232738 -0.0058442908 0.14934854
-0.020685298 0.031874966 0.14624614
-0.021253783 0.029370351 0.14740114
-0.021505781 0.027046043 0.14820537
-0.021785414 0.024674917 0.148838
-0.022530477 0.021938967 0.14952819
-0.024570387 0.019184239 0.14974584
-0.025469469 0.016025817 0.15074846
-0.026282866 0.01245799 0.15126005
-0.02617644 0.0094304876 0.15128401
-0.026807906 0.0070080105 0.15153834
-0.027534004 0.0049489071 0.15134613
-0.028866818 0.0025521966 0.1508605
-0.029841309 -0.00011598608 0.15110609
-0.030365242 -0.003602097 0.15148495
-0.030491993 -0.0066852258 0.1509614
-0.031082969 -0.0094275828 0.15153979
-0.018057434 0.033772338 0.14533605
-0.01881572 0.029264089 0.14796612
-0.018862469 0.027306158 0.14828026
-0.019104948 0.024671584 0.14944094
-0.019440873 0.022160288 0.15010166
-0.020883024 0.019699488 0.15047288
-0.021264898 0.016050255 0.15083483
-0.02334673 0.012276274 0.15104049
-0.023879433 0.0087596271 0.15062423
-0.024758896 0.0063014054 0.15122913
-0.024836166 0.0044260356 0.15196809
-0.027111167 0.0017513823 0.15120831
-0.027773278 -0.0010092173 0.15136737
-0.028715774 -0.004543541 0.15299512
-0.028948566 -0.0076575777 0.15334679
-0.015537594 0.033544578 0.14538059
-0.0159929 0.029423535 0.14831488
-0.016287809 0.027125072 0.14855547
-0.016504323 0.024429865 0.14955598
-0.016871141 0.022242477 0.15001743
-0.017451534 0.01935547 0.15138036
-0.017661592 0.016128983 0.15152155
-0.019014191 0.011927937 0.15160237
-0.02097242 0.0081774835 0.15150625
-0.021270515 0.0059331502 0.15209012
-0.021975979 0.0032661709 0.15276192
-0.023218157 0.0006243161 0.15272199
-0.02335953 -0.0022029057 0.15472163
-0.023327667 -0.0052457084 0.15681989
-0.025909703 -0.007549793 0.15684047
-0.026820775 -0.010142358 0.158976
-0.013498454 0.033358082 0.14665291
-0.013825793 0.029705297 0.14831069
-0.013996356 0.027016886 0.14947163
-0.013800213 0.023538481 0.15007907
-0.013924853 0.021308683 0.15072845
-0.013907767 0.018873636 0.15151009
-0.014964217 0.015935261 0.1526964
-0.015951723 0.012489162 0.15331051
-0.017969271 0.0082774842 0.15312724
-0.018074447 0.0053696446 0.15410994
-0.019093029 0.0020735578 0.15438403
-0.019860441 -0.00047737232 0.15523639
-0.019253576 -0.0021844686 0.15701181
-0.019294707 -0.0040224157 0.15916306
-0.019174078 -0.0060707964 0.16048977
-0.01888467 -0.0078901481 0.16271397
-0.0112243 0.03255894 0.14774078
-0.011330201 0.029331276 0.14879975
-0.011462814 0.02675706 0.14952788
-0.010958456 0.023967428 0.1502143
-0.010773391 0.021300329 0.15059501
-0.01056659 0.019214675 0.15137218
-0.011662947 0.016438941 0.15354973
-0.011929231 0.013396882 0.15487745
-0.014205146 0.0087017966 0.15536782
-0.014985986 0.0054690712 0.15520453
-0.017153434 0.0014379671 0.15547375
-0.016788846 -0.00036636062 0.15654583
-0.016230073 -0.0016485869 0.15898253
-0.016232712 -0.0035804138 0.16067721
-0.016317947 -0.0057673575 0.16163896
-0.015972896 -0.007789134 0.16354752
-0.0087637706 0.031934392 0.14803044
-0.0086288601 0.029076463 0.14908125
-0.0089810593 0.02666454 0.14999603
-0.0083723376 0.024139453 0.15036461
-0.0078953886 0.021741668 0.1507771
-0.0075206151 0.01972628 0.15209068
-0.0067583309 0.016467413 0.15564023
-0.0069776806 0.013803321 0.1565515
-0.0072784778 0.010806249 0.15807141
-0.010036479 0.008514869 0.15770163
-0.013332921 0.0035632136 0.1566457
-0.012418159 0.00065255509 0.15792075
-0.013147436 -0.0014380573 0.16015491
-0.013084514 -0.0029254521 0.16208686
-0.012687845 -0.0054282267 0.16251619
-0.012930103 -0.0077106701 0.16330081
-0.0058478825 0.031754833 0.14885683
-0.0060780034 0.028952375 0.15005459
-0.0060774954 0.026870463 0.1503883
-0.0053728055 0.025184892 0.15094008
-0.004651315 0.023038691 0.15117453
-0.004436248 0.020649284 0.15385772
-0.0042919083 0.01670846 0.15662576
-0.0036167111 0.01425162 0.15740646
-0.0033018633 0.011422583 0.15931576
-0.0049354797 0.0096771056 0.15930739
-0.007601304 0.0071142134 0.15959485
-0.0087277852 0.0033347718 0.16044129
-0.0087938178 -0.00015851788 0.16356617
-0.010661811 -0.0021507577 0.16376364
-0.010546273 -0.0048836297 0.16428466
-0.0035477839 0.031728752 0.14953643
-0.0036780653 0.029175248 0.1509048
-0.0035112679 0.027399272 0.1512551
-0.0027385852 0.025943495 0.15150723
-0.0023771001 0.023602091 0.15223421
-0.0026548861 0.020743527 0.15581647
-0.0021286383 0.01718179 0.15769242
-0.001066635 0.014786849 0.15860187
0.00015581879 0.012789876 0.15941131
-0.0019961616 0.010528708 0.16000308
-0.0046959613 0.0071873278 0.16114873
-0.0056974343 0.0033816884 0.16247201
-0.0068421196 -0.00048544721 0.16463521
-0.0080830986 -0.0021334593 0.164711
-0.0084787738 -0.0045080595 0.16603203
-0.00089367694 0.03184437 0.15014252
-0.00099191652 0.029166052 0.15125068
-0.001328501 0.027644053 0.15168822
-0.00053230335 0.026461424 0.15236281
2.7502108e-05 0.024308128 0.15250708
-0.00044955828 0.020894241 0.15718962
0.0001076578 0.017662033 0.15865931
0.0015590035 0.015607025 0.15906554
0.001981253 0.01332839 0.15956818
0.0016956922 0.010839445 0.16115329
-0.0017046797 0.0074227392 0.1623947
-0.0029480904 0.0030158446 0.1642686
-0.0047157556 -0.0011442464 0.16629626
-0.0056388644 -0.002619829 0.16639318
-0.0059273359 -0.0046648188 0.16785112
0.0018618028 0.031829271 0.15019263
0.002048969 0.029480007 0.15092601
0.0027900939 0.027715037 0.15203889
0.0028802159 0.025858656 0.15344912
0.0027488642 0.023278136 0.15529492
0.002257959 0.021322925 0.15681238
0.0025772669 0.018574027 0.15834486
0.0041647949 0.015884792 0.15927948
0.004510635 0.013456007 0.16022931
0.0047425539 0.011078935 0.16191231
0.0028941766 0.0081328824 0.16311406
8.2806706e-05 0.0037013202 0.16527858
-0.0021420659 -0.001630978 0.16707028
-0.0032419746 -0.0030027884 0.16745292
-0.0035603184 -0.0055571473 0.17012578
0.004902645 0.031911321 0.15003678
0.0058696973 0.029802902 0.15165906
0.0060672779 0.028092634 0.15250707
0.0058873496 0.026116744 0.15363453
0.0055716941 0.023465766 0.15547664
0.0053343233 0.020890756 0.15686838
0.0054583973 0.018545065 0.15802363
0.0070657083 0.016318128 0.1595978
0.0071395352 0.013857651 0.16147463
0.0073418915 0.011552158 0.16253817
0.0067955162 0.009039023 0.16405529
0.0067092981 0.0066200965 0.16464993
0.0049858359 0.0025706107 0.16747151
0.0014986686 -0.0027875013 0.17028287
0.00057119719 -0.0051391833 0.17192346
0.008111041 0.032481566 0.15077743
0.0079727154 0.030238759 0.15220642
0.0080106193 0.028492734 0.15299392
0.0081755593 0.026638363 0.15415008
0.008006718 0.024437211 0.1552842
0.007962618 0.021720903 0.15712512
0.010715388 0.018761389 0.15981938
0.0099753849 0.016033379 0.16090135
0.010005146 0.014273521 0.16195183
0.009650562 0.011937275 0.1635828
0.0097668543 0.0095538367 0.16455759
0.0097907539 0.0068349605 0.16599903
0.01002853 0.0040643206 0.16881217
0.005865837 -0.0012126665 0.17254083
0.0043897494 -0.0039824131 0.1740184
0.010403068 0.032697763 0.15049891
0.0099868616 0.030700138 0.15182133
0.010066877 0.028752072 0.1522709
0.010475084 0.027109716 0.15401803
0.01054684 0.025504097 0.1567422
0.011542219 0.021963643 0.15850756
0.013107141 0.018889008 0.16038799
0.012493801 0.016783999 0.1618204
0.012597166 0.014824419 0.16364729
0.0119568 0.012436919 0.16499923
0.012263543 0.01015387 0.1652817
0.012397905 0.0076489402 0.16676557
0.012214079 0.0049864631 0.16908693
0.0093477601 0.0001774112 0.17406142
0.007876616 -0.0027905926 0.17607604
0.012899023 0.033841185 0.14894673
0.014266605 0.031703118 0.1501569
0.013640902 0.029344952 0.15331078
0.012698018 0.02722396 0.15594094
0.012935285 0.024601774 0.15781304
0.014277311 0.021226713 0.15965177
0.014745327 0.018924257 0.16069379
0.015164251 0.01705661 0.16180031
0.014659549 0.014982366 0.16393724
0.01460131 0.012643308 0.16536523
0.014366047 0.010475138 0.16594158
0.014945969 0.0083573991 0.16786745
0.014373511 0.0044267019 0.170559
0.012901307 0.0010463253 0.17409484
0.011697046 -0.0017792544 0.17618044
0.0175796 0.033968762 0.1488435
0.016250892 0.029794224 0.15367568
0.015013636 0.025615608 0.15787415
0.015576792 0.023822438 0.1585072
0.0160571 0.021209586 0.16002405
0.016834849 0.019083012 0.16124387
0.018213436 0.017330475 0.16217031
0.017096577 0.015205756 0.16376506
0.016949842 0.012720148 0.16593574
0.016471846 0.010283426 0.16701151
0.017872471 0.0068576136 0.16914444
0.017632402 0.0044077546 0.17146409
0.016066324 0.0014431474 0.17317934
0.014718377 -0.0012340861 0.17496373
0 0 0 1 0 0 0 1 0 0 0 1 0 0 0 0 0 252 1 0 0
