ply
format ascii 1.0
comment PCL generated
element vertex 252
property float x
property float y
property float z
element camera 1
property float view_px
property float view_py
property float view_pz
property float x_axisx
property float x_axisy
property float x_axisz
property float y_axisx
property float y_axisy
property float y_axisz
property float z_axisx
property float z_axisy
property float z_axisz
property float focal
property float scalex
property float scaley
property float centerx
property float centery
property int viewportx
property int viewporty
property float k1
property float k2
end_header
-0.023400061 0.03415541 0.14339764
-0.02344209 0.032302123 0.14474672
-0.023924043 0.030623391 0.14794186
-0.024496082 0.028555475 0.14987876
-0.025204286 0.026758701 0.15290956
-0.025660172 0.024549082 0.15513659
-0.026192402 0.022056986 0.15864021
-0.026434943 0.019685183 0.16063386
-0.020847535 0.034020718 0.14252163
-0.021175498 0.032031983 0.14389698
-0.021682572 0.030528707 0.14752066
-0.022031695 0.028327828 0.14911783
-0.02263597 0.026497895 0.15220036
-0.023110768 0.024342442 0.15390518
-0.023727072 0.021953188 0.15646853
-0.024021057 0.019421576 0.15942685
-0.024149271 0.016797494 0.16154742
-0.024252905 0.014221892 0.16253375
-0.024235263 0.011484095 0.16360307
-0.024483893 0.0088118939 0.16447876
-0.024800587 0.0060227066 0.16433027
-0.02465735 0.0031719934 0.16552645
-0.024921782 0.00059610419 0.1674706
-0.018333485 0.03406537 0.14257702
-0.018853674 0.032268807 0.14522763
-0.019284965 0.030425711 0.14772426
-0.019582618 0.028544191 0.14964356
-0.019951545 0.026439229 0.15203395
-0.020481639 0.02423428 0.15393332
-0.020904129 0.021855636 0.1557139
-0.021292005 0.019567272 0.15894698
-0.021397356 0.017073063 0.16135897
-0.0215407 0.014386526 0.16270955
-0.021505535 0.0115641 0.16338882
-0.021692369 0.0088558532 0.16444305
-0.021903278 0.0061255321 0.16469789
-0.022120979 0.0032373995 0.16695032
-0.022222146 0.0004585321 0.16798142
-0.022085231 -0.0018376356 0.16899793
-0.015814444 0.034289688 0.14253086
-0.016551191 0.032563571 0.14656162
-0.016711866 0.030540299 0.14793199
-0.017067302 0.028678514 0.15049356
-0.017373543 0.026633834 0.15264231
-0.017706009 0.024283536 0.15405887
-0.01820376 0.021971975 0.15683652
-0.018498141 0.019696198 0.15961169
-0.018690625 0.017146332 0.16174172
-0.018797923 0.014421917 0.1628589
-0.018904405 0.011638846 0.16417028
-0.019201903 0.0088420128 0.16573469
-0.01929675 0.0061219037 0.16541314
-0.01928976 0.0032161265 0.16770795
-0.019482629 0.00046584176 0.16939847
-0.013411617 0.034136426 0.14296709
-0.014049875 0.033102859 0.14732562
-0.014218798 0.03078326 0.14830357
-0.014572706 0.028859951 0.15106738
-0.014791565 0.026729094 0.15283985
-0.015005594 0.024117192 0.15398933
-0.015516928 0.021896021 0.15732589
-0.015818121 0.019516908 0.16051413
-0.016029077 0.016981658 0.16308288
-0.016053293 0.014038661 0.16480963
-0.016326545 0.011351055 0.16656449
-0.016577056 0.0084792469 0.16695897
-0.016596198 0.0058222115 0.16762769
-0.016432621 0.0031870396 0.16923207
-0.016646814 0.00049255072 0.17022988
-0.016818 -0.0021278516 0.17238201
-0.011154735 0.034643143 0.14411518
-0.011586305 0.033223141 0.14744993
-0.011730706 0.030870548 0.14838628
-0.011907121 0.028754374 0.1510884
-0.012173157 0.02637201 0.1527019
-0.012425253 0.023886563 0.15390269
-0.012896302 0.02171126 0.15759791
-0.013172956 0.019318618 0.16066486
-0.013296915 0.016592834 0.16306815
-0.013217043 0.013860654 0.16561599
-0.013416298 0.01094101 0.16685033
-0.01352949 0.0084839966 0.16864452
-0.013495374 0.0059494209 0.16913377
-0.013580747 0.0032344158 0.17043312
-0.013671868 0.0004228075 0.17119996
-0.013657352 -0.0023053885 0.17329396
-0.0088842073 0.03512923 0.1455351
-0.0091457423 0.033328716 0.14807573
-0.0091810403 0.030792847 0.14825939
-0.0093528861 0.028710691 0.15093632
-0.0095362607 0.026098555 0.15213971
-0.0096821981 0.023709131 0.15331759
-0.010222632 0.021538984 0.15705141
-0.010334696 0.019297654 0.16022785
-0.010510257 0.016486604 0.16227975
-0.010460593 0.013628737 0.16487552
-0.010649714 0.010636058 0.16658127
-0.010620308 0.0083945515 0.16878061
-0.010486462 0.0059809368 0.17114888
-0.010597586 0.0032215284 0.1721005
-0.010869606 0.00037943502 0.1719337
-0.010823227 -0.0023213257 0.17316383
-0.0064928522 0.035251241 0.14613402
-0.0066549061 0.033380769 0.14842437
-0.0066975141 0.031020299 0.14935277
-0.0067751138 0.02875109 0.15163535
-0.0068777143 0.02613646 0.15272102
-0.0070759896 0.023681568 0.1540498
-0.0074198195 0.021810835 0.15800835
-0.0074339467 0.01936361 0.15983057
-0.0076126559 0.01674306 0.16179501
-0.0076977257 0.013508337 0.16432327
-0.0078453049 0.010526417 0.16638273
-0.0074744187 0.0079965526 0.1684753
-0.0076622376 0.0056098816 0.17062446
-0.007467695 0.0031634788 0.17314938
-0.0078041954 0.00036195919 0.1729617
-0.0082748597 -0.0019987314 0.17328222
-0.0039399425 0.035222981 0.14616378
-0.0042678802 0.033530444 0.14872405
-0.0041973796 0.031278163 0.15043342
-0.0042629326 0.028736191 0.15276682
-0.0042828424 0.026231194 0.15308337
-0.0044156625 0.023996061 0.1551172
-0.0046064416 0.022014925 0.15941413
-0.0046246909 0.019539043 0.15999275
-0.0046909507 0.016955726 0.16175264
-0.0047300793 0.014071383 0.16420913
-0.0048916205 0.011185634 0.16682918
-0.0050688996 0.0083580464 0.16934375
-0.0049396604 0.0057634586 0.17267722
-0.0048774253 0.0034539888 0.17450356
-0.0050159944 0.00042000203 0.17411302
-0.0016451611 0.035279594 0.14695407
-0.0017680168 0.033453736 0.14891797
-0.0016821346 0.031242594 0.15092923
-0.0015649232 0.02870357 0.15250026
-0.0017222167 0.026350627 0.15403016
-0.001894702 0.024149757 0.15605558
-0.001993208 0.021979034 0.15991813
-0.0019112322 0.019620424 0.1608565
-0.0019184316 0.01735623 0.16239743
-0.0018112563 0.014891461 0.16460605
-0.0021113527 0.011579118 0.16817842
-0.002286663 0.0086555127 0.17019506
-0.002248432 0.005514435 0.17243856
-0.0023163836 0.0029168429 0.17320089
-0.0023772675 0.00024078232 0.17429504
0.00083021459 0.035500456 0.14787796
0.00081810245 0.033409677 0.14914471
0.00078559981 0.031075688 0.15043345
0.00082488882 0.028631622 0.15258723
0.0008773859 0.026329286 0.15361819
0.00063297746 0.024419501 0.1572407
0.00066071184 0.02207228 0.16010609
0.00080497476 0.019920696 0.16101713
0.00070954463 0.017483167 0.16292551
0.00098101737 0.014772647 0.16550343
0.00075504469 0.011715567 0.16930941
0.000637169 0.0086869439 0.17098553
0.00069608371 0.0054032356 0.17270902
0.00063584046 0.0027773874 0.17343132
0.0006486387 0.00010886173 0.17496555
0.0033069314 0.03545719 0.14801383
0.0033373085 0.033170536 0.14901732
0.0033676394 0.030834384 0.15046248
0.003272905 0.028554481 0.15260656
0.0033927665 0.026225353 0.15494576
0.0035185653 0.024026327 0.15687941
0.0034294119 0.021926988 0.15888748
0.0033651483 0.019854067 0.1608284
0.0035266057 0.017278321 0.1627544
0.0037471706 0.014628603 0.16511108
0.0037427365 0.011655446 0.16879578
0.003567388 0.0086493539 0.17014942
0.003466161 0.0051831836 0.17098631
0.0034163622 0.0026900929 0.17234004
0.0036530129 -3.125791e-06 0.17514129
0.0057257325 0.035376422 0.14740156
0.0058945976 0.033354249 0.14970003
0.0059506856 0.031107321 0.15097383
0.0058986419 0.028783217 0.15265943
0.006055255 0.026418194 0.15490074
0.0062026214 0.023947595 0.15657359
0.0061472831 0.021725332 0.15815577
0.0061241365 0.019641099 0.16038416
0.0064093196 0.016967334 0.16283205
0.0063566607 0.014390945 0.1642012
0.0064433361 0.011779773 0.16732797
0.0063075679 0.0091541708 0.16833635
0.0061069597 0.006254416 0.16942506
0.0063458742 0.0029028968 0.17245568
0.0066090021 0.00016514123 0.17481817
0.0083360029 0.035289846 0.1467406
0.0083365524 0.033338297 0.14942025
0.0084224669 0.031184349 0.15133968
0.0084727248 0.028963733 0.15315521
0.0084636007 0.026496949 0.15455168
0.0087306472 0.024148112 0.15666476
0.0085997134 0.021698661 0.15819585
0.0088498425 0.019177506 0.1601416
0.0090731084 0.016704198 0.16182379
0.0091175241 0.014330161 0.16468053
0.0092110727 0.011540153 0.16638049
0.0089003462 0.008810875 0.16748142
0.0088373274 0.0061459034 0.16934128
0.009316667 0.0031140649 0.1734992
0.0095998449 0.00033862379 0.17537017
0.010682577 0.035540558 0.14639375
0.010772361 0.033170607 0.14928171
0.01089073 0.030909471 0.15094937
0.011087951 0.028942389 0.15306413
0.011322261 0.026840042 0.15566406
0.011092922 0.024161844 0.15767892
0.011193913 0.021427605 0.15824418
0.011898651 0.018776819 0.16047341
0.012091407 0.016218789 0.1624023
0.011969082 0.013810576 0.16465941
0.011744047 0.011080761 0.16536513
0.011474864 0.0084185572 0.16672517
0.011293715 0.0059790555 0.1689816
0.012254414 0.0030868859 0.1733714
0.012395957 0.00026867111 0.17520416
0.012598304 0.03600673 0.14302018
0.013052132 0.033438306 0.14709988
0.013497323 0.03063326 0.15022157
0.01392102 0.028523834 0.15412654
0.013702997 0.026409492 0.15641278
0.014074113 0.023794441 0.15792918
0.014065376 0.021055281 0.15841538
0.014596849 0.018363874 0.16002083
0.014756764 0.015698047 0.16220097
0.014719444 0.013110006 0.16355115
0.014161725 0.010435637 0.1641687
0.014085505 0.007946101 0.16607267
0.013933306 0.0051950603 0.16901702
0.014821022 0.0025000558 0.17198718
0.014744107 -0.00016517351 0.17338261
0.015338599 0.03379954 0.14531757
0.0159883 0.030523207 0.1496724
0.016962968 0.027765328 0.15512668
0.017094331 0.025906827 0.15671982
0.016945433 0.023428755 0.1576339
0.017226933 0.020765187 0.15922844
0.017569387 0.017840119 0.15957537
0.0172801 0.015043492 0.16093534
0.017268198 0.012356433 0.16292988
0.017062252 0.0095560914 0.16455019
0.016783446 0.0068009794 0.16652918
0.016618742 0.0041201576 0.16823304
0.016386706 0.0016411522 0.16971207
0.016354734 -0.00073006534 0.17154782
0 0 0 1 0 0 0 1 0 0 0 1 0 0 0 0 0 252 1 0 0
