ply
format ascii 1.0
comment PCL generated
element vertex 252
property float x
property float y
property float z
element camera 1
property float view_px
property float view_py
property float view_pz
property float x_axisx
property float x_axisy
property float x_axisz
property float y_axisx
property float y_axisy
property float y_axisz
property float z_axisx
property float z_axisy
property float z_axisz
property float focal
property float scalex
property float scaley
property float centerx
property float centery
property int viewportx
property int viewporty
property float k1
property float k2
end_header
-0.025556656 0.030740967 0.14664449
-0.025541298 0.02880346 0.14692339
-0.025838168 0.026253074 0.14792787
-0.026329741 0.023991613 0.14859234
-0.0281555 0.021263372 0.15117756
-0.028166721 0.017880477 0.1530682
-0.028072316 0.014600499 0.15433893
-0.028494235 0.012183519 0.15436211
-0.022848956 0.031272229 0.14582396
-0.023504779 0.028979737 0.14645915
-0.023769699 0.026496615 0.14764725
-0.024118315 0.024114873 0.14809883
-0.025379747 0.021453835 0.14932135
-0.026801402 0.018747313 0.15095849
-0.027263649 0.015309846 0.15183461
-0.027781013 0.012090221 0.15216303
-0.028179996 0.0099269832 0.15153344
-0.028552458 0.0078277672 0.1508732
-0.029557904 0.0051269634 0.15089354
-0.030508703 0.0025888009 0.15053849
-0.031463053 0.00016331791 0.15074083
-0.031359781 -0.0030647181 0.15020533
-0.031933349 -0.0063313893 0.14928038
-0.020531455 0.031302519 0.14605552
-0.021134751 0.028826611 0.14731032
-0.021361554 0.02650236 0.14816333
-0.021606395 0.024129875 0.14881654
-0.022266198 0.021393726 0.14940964
-0.024294281 0.018703816 0.14957517
-0.02521541 0.015525488 0.15037853
-0.026141236 0.012040243 0.15092124
-0.026152762 0.0090839388 0.15083157
-0.02683744 0.0066949013 0.15096612
-0.027606985 0.0045900438 0.15095003
-0.028906886 0.002235556 0.15065783
-0.029634621 -0.00040941188 0.15086442
-0.029922964 -0.0039771651 0.1512793
-0.029981291 -0.007115202 0.1507623
-0.030407643 -0.0099038463 0.15133247
-0.0180401 0.033324309 0.14497398
-0.018751396 0.028804878 0.14819865
-0.018775707 0.026867868 0.14858566
-0.018981289 0.024207845 0.1496194
-0.019259226 0.021687161 0.1501575
-0.020614501 0.019174565 0.15030709
-0.021070214 0.015454195 0.15038237
-0.023246707 0.01180615 0.15084419
-0.023868984 0.0083923042 0.15024428
-0.024822263 0.0059425524 0.15067795
-0.024952875 0.0040485878 0.15162653
-0.027201276 0.0014573699 0.15107968
-0.027522843 -0.0011965595 0.15118246
-0.0282088 -0.0049028015 0.15269859
-0.028241254 -0.0080643725 0.15299094
-0.015605733 0.033190135 0.14488886
-0.015990613 0.029061148 0.14881764
-0.016237356 0.026767874 0.14906804
-0.016402187 0.024052585 0.14984642
-0.016739655 0.021856735 0.15009853
-0.017324744 0.018900376 0.15121594
-0.017577888 0.015642403 0.15125255
-0.018908706 0.011361508 0.15149781
-0.021007674 0.007698894 0.1514975
-0.021354055 0.0055066748 0.15226972
-0.022108577 0.0028966656 0.15311518
-0.02336226 0.00028673004 0.15315925
-0.023323728 -0.0024280329 0.15489241
-0.022826336 -0.0056358175 0.15652391
-0.025121821 -0.0079550995 0.15635876
-0.025816035 -0.010631971 0.15847778
-0.013545063 0.033018667 0.14614427
-0.013829833 0.029373445 0.14844801
-0.013944128 0.026667476 0.1497162
-0.013729358 0.023147654 0.14993435
-0.013830991 0.020963525 0.15058763
-0.013844691 0.018527417 0.1512928
-0.014923342 0.015559797 0.1524484
-0.015895942 0.012102418 0.1532197
-0.018114919 0.0078866184 0.15347211
-0.018367236 0.0051293266 0.15486042
-0.019394223 0.0018670809 0.15519212
-0.02005372 -0.00062856753 0.15587428
-0.019292219 -0.0022908067 0.15741853
-0.019099453 -0.0041645705 0.15932146
-0.018939393 -0.0061861407 0.16073576
-0.018606529 -0.0079440949 0.16303678
-0.011252119 0.032228779 0.1473377
-0.011315842 0.029000657 0.1488537
-0.011421771 0.026415156 0.14957462
-0.010922191 0.023623304 0.15001434
-0.010748839 0.021015275 0.1503554
-0.010568978 0.018929228 0.1509876
-0.011614231 0.016067075 0.15311784
-0.01191531 0.013114261 0.15459393
-0.014307596 0.0084128324 0.15558811
-0.015379421 0.0053352392 0.15605223
-0.017458376 0.001305685 0.15614137
-0.016991219 -0.00046123628 0.15704092
-0.016211795 -0.0017503012 0.15923807
-0.016123544 -0.0036751395 0.16095053
-0.016176146 -0.005820882 0.16200095
-0.015804883 -0.0077617089 0.16409059
-0.008795646 0.031617794 0.14763497
-0.0086107757 0.02875792 0.14899677
-0.0089300582 0.026333055 0.14990966
-0.008377241 0.023839189 0.15017816
-0.007871042 0.021443089 0.150489
-0.0074779671 0.019336117 0.15142615
-0.00658374 0.016046714 0.1540989
-0.0068681086 0.013624626 0.15504789
-0.0070318556 0.010530932 0.15666874
-0.0095483297 0.0080246087 0.15636081
-0.013524464 0.0033549746 0.15688843
-0.012465908 0.00043874982 0.15789934
-0.01309446 -0.00161328 0.16022554
-0.012963722 -0.0030449517 0.16221923
-0.012684191 -0.0055104704 0.16285512
-0.012956914 -0.0077421353 0.16378051
-0.0059176148 0.031503197 0.14863737
-0.006110034 0.028696155 0.14974941
-0.0060064471 0.026562432 0.14986351
-0.0053403787 0.024938911 0.15048061
-0.0046493183 0.022810856 0.15078719
-0.0043875366 0.020258769 0.15297689
-0.0041396683 0.016310092 0.15494807
-0.0035332099 0.014062099 0.1558809
-0.0032861943 0.011397826 0.1582894
-0.0048112692 0.0095505193 0.15831572
-0.0072388691 0.0067818738 0.15838994
-0.0083118249 0.00300077 0.15942536
-0.0085097384 -0.00039321947 0.1630514
-0.010457257 -0.002339877 0.16361448
-0.010385992 -0.0050443048 0.16422418
-0.0036063965 0.031499315 0.14935103
-0.0037066941 0.028891465 0.15058091
-0.0034728914 0.027113345 0.15064938
-0.002680222 0.025684034 0.15093571
-0.0023212677 0.023357064 0.1516903
-0.0024759143 0.019951979 0.1545915
-0.0019438106 0.016655799 0.15593505
-0.00096658053 0.014589134 0.15709521
0.00019158954 0.012747604 0.15841867
-0.0020348257 0.010553002 0.1592688
-0.0046170014 0.0071308836 0.16038221
-0.0055888547 0.0033209894 0.1618444
-0.0064513469 -0.00074644026 0.16394207
-0.0077340645 -0.0023923735 0.16410838
-0.0080451192 -0.0047628381 0.16546519
-0.00091486576 0.031585682 0.14986889
-0.0010060652 0.028872451 0.15088481
-0.0012858436 0.027354101 0.151122
-0.00045052532 0.026176183 0.15175755
0.00010467072 0.024031021 0.15187846
-0.00018324199 0.019743979 0.15567043
0.00032038524 0.016980801 0.15684675
0.00159161 0.015431715 0.15793628
0.0020040174 0.013252731 0.15863222
0.001780596 0.010707516 0.16022286
-0.0017494136 0.0074561718 0.16189073
-0.002877305 0.0030142444 0.16368437
-0.0042452565 -0.0014299799 0.16539171
-0.0051501105 -0.0029169496 0.16549528
-0.0053399489 -0.0049545034 0.16698632
0.0018082815 0.031557191 0.15003256
0.0019470454 0.029264297 0.15083653
0.002552964 0.027452888 0.15218595
0.0028793246 0.025453322 0.15323023
0.0025392477 0.022737667 0.15488206
0.0020510675 0.020579869 0.15590684
0.0024039089 0.0179269 0.1571632
0.0039840322 0.015833968 0.1587968
0.0044647949 0.013392922 0.15942471
0.0048334664 0.01083803 0.16077818
0.0030636922 0.0078670876 0.16186908
0.00015218821 0.0036031893 0.16448377
-0.0016479676 -0.0019556684 0.1659552
-0.0027242999 -0.0033218435 0.16639803
-0.0029045427 -0.0058151563 0.16914099
0.0046596755 0.031448413 0.1501954
0.0055957013 0.02922279 0.15181756
0.0057538389 0.027505981 0.15272912
0.0055386662 0.025649205 0.15409182
0.0051730382 0.023112541 0.15581831
0.0048412024 0.020553516 0.15703212
0.0049816207 0.018440293 0.15798128
0.006777335 0.016439633 0.15949756
0.007003983 0.013729508 0.16084662
0.007358761 0.011313149 0.16149007
0.0069024535 0.008691554 0.16263522
0.0067716707 0.006349646 0.16318959
0.0051625129 0.0023026087 0.16611724
0.0020385662 -0.0031146104 0.16895489
0.0012606537 -0.0054065967 0.17067876
0.0079519209 0.031739466 0.15077908
0.0077331737 0.029458681 0.1522087
0.0077531636 0.027760791 0.15302424
0.0078572063 0.026012506 0.15441489
0.0075922073 0.023960112 0.15575789
0.0073408862 0.02143242 0.15779205
0.010642406 0.018909993 0.16047929
0.0097281141 0.016237346 0.16126345
0.0098682335 0.01427012 0.16153775
0.0097093498 0.011604971 0.16213082
0.009816654 0.0091989813 0.16288669
0.0098206894 0.0064740931 0.16430807
0.010157117 0.0037466884 0.16724193
0.0062575415 -0.001516015 0.17108062
0.0049241837 -0.0042785597 0.17259166
0.010257376 0.031785503 0.15038893
0.0097912261 0.029762311 0.15154691
0.0098631522 0.027841447 0.15207559
0.010214843 0.026331365 0.15402535
0.010256 0.024901072 0.15693876
0.011457172 0.021929244 0.15920469
0.013129055 0.018955635 0.16076402
0.012500121 0.016700439 0.16196941
0.012786051 0.014322474 0.16252016
0.012158868 0.011829663 0.16314124
0.012415932 0.0096214898 0.16325709
0.012529316 0.0071363673 0.16477516
0.012372297 0.0045248671 0.16731769
0.0097648343 -0.00019506713 0.17244577
0.008407997 -0.0031334371 0.17451465
0.012706399 0.033250131 0.14934424
0.01409552 0.03134701 0.15073854
0.013434519 0.028840736 0.15371655
0.012500755 0.026756518 0.15618682
0.012668798 0.024501862 0.15863235
0.014246692 0.021308161 0.16036387
0.014777527 0.018945273 0.16087574
0.015151367 0.016930513 0.16132571
0.01481492 0.014417943 0.16262734
0.014784667 0.011916593 0.16349678
0.014593313 0.0097750928 0.16370969
0.015176625 0.0076875258 0.16568264
0.014540311 0.0038496584 0.16881169
0.013256772 0.00050241058 0.17228228
0.012162996 -0.0022540193 0.17440821
0.017190522 0.034122139 0.14985123
0.015957205 0.029619401 0.15449521
0.01461249 0.025677411 0.15893064
0.015316171 0.024069313 0.15968433
0.01600722 0.021308465 0.16070928
0.016862841 0.0190413 0.16131724
0.018234354 0.017219778 0.16187908
0.017160408 0.014841403 0.16286056
0.016994871 0.012002679 0.16445062
0.016691012 0.0093981856 0.1647491
0.018000552 0.0062823291 0.16743697
0.01781111 0.0037162323 0.16963935
0.016302004 0.00075783365 0.17125033
0.015064714 -0.0018374585 0.17300957
0 0 0 1 0 0 0 1 0 0 0 1 0 0 0 0 0 252 1 0 0
