ply
format ascii 1.0
comment PCL generated
element vertex 252
property float x
property float y
property float z
element camera 1
property float view_px
property float view_py
property float view_pz
property float x_axisx
property float x_axisy
property float x_axisz
property float y_axisx
property float y_axisy
property float y_axisz
property float z_axisx
property float z_axisy
property float z_axisz
property float focal
property float scalex
property float scaley
property float centerx
property float centery
property int viewportx
property int viewporty
property float k1
property float k2
end_header
-0.02577603 0.030387739 0.14685383
-0.02578745 0.028519282 0.1473937
-0.026043234 0.02611611 0.14874357
-0.026469357 0.023969699 0.14977317
-0.027928138 0.021380689 0.15295522
-0.028033108 0.017957173 0.15481298
-0.028101439 0.014558114 0.15581146
-0.028493995 0.012144366 0.15570369
-0.023138732 0.030723002 0.14570266
-0.023804028 0.02856349 0.14670414
-0.024031965 0.026286745 0.14822593
-0.02434333 0.024006968 0.14908436
-0.025398275 0.021490503 0.15074828
-0.026687168 0.018849511 0.15263718
-0.027360665 0.015427695 0.15336667
-0.02789758 0.012209091 0.15348887
-0.028261989 0.010156138 0.15282413
-0.02851134 0.0081717735 0.15209712
-0.029418986 0.005446922 0.15174408
-0.030161448 0.0029271247 0.15102388
-0.030854054 0.00045408038 0.15083052
-0.030637311 -0.0026301041 0.15032117
-0.031237144 -0.0057830131 0.14950706
-0.020803314 0.030670226 0.14566976
-0.021409461 0.028393324 0.14739306
-0.021628803 0.026261574 0.14866552
-0.021839568 0.024083758 0.14982696
-0.022366012 0.021410273 0.15061755
-0.024320163 0.018740354 0.15097421
-0.025328996 0.015676552 0.1518665
-0.02635823 0.012325713 0.15230156
-0.026254533 0.0095188543 0.15232141
-0.026788505 0.0071041477 0.15230925
-0.027491031 0.0049618911 0.15191454
-0.02860369 0.0026204514 0.15122332
-0.029071415 -6.1610786e-05 0.1511495
-0.02935922 -0.0035097501 0.15154071
-0.02933564 -0.0066032843 0.15108009
-0.029781613 -0.0093949195 0.15165272
-0.018232074 0.033223763 0.14439808
-0.019027283 0.028423587 0.148177
-0.019064214 0.026662888 0.14906676
-0.019215478 0.024244994 0.15061367
-0.019376997 0.021706196 0.15122195
-0.020598089 0.019117955 0.1513188
-0.021112783 0.015520415 0.15192778
-0.023534568 0.012289128 0.1523972
-0.023963418 0.0089952033 0.15190738
-0.024729431 0.0064812335 0.15216121
-0.024916852 0.0044738897 0.15282303
-0.026972115 0.0018683234 0.15173803
-0.027005538 -0.00084505312 0.1517895
-0.027818311 -0.0043720808 0.15312718
-0.027771562 -0.0075309104 0.15341571
-0.015764097 0.033622555 0.14461513
-0.016258551 0.028749326 0.14859901
-0.016523242 0.026635533 0.14949469
-0.016615786 0.024077304 0.1506785
-0.01681898 0.021783315 0.15097643
-0.017301936 0.018920368 0.15251428
-0.017573422 0.015706688 0.15307184
-0.019096745 0.011556977 0.1533742
-0.021219946 0.0084600262 0.15297009
-0.021452529 0.0062441891 0.15321593
-0.022047099 0.0035412426 0.15361536
-0.023254948 0.00086372474 0.15344045
-0.023124106 -0.0020339873 0.15498899
-0.022808935 -0.0052502956 0.15666845
-0.025001496 -0.0074806525 0.15677994
-0.025733469 -0.010225839 0.15888575
-0.013714104 0.033368014 0.14580713
-0.014032238 0.029150708 0.14826833
-0.014121044 0.026408954 0.14967442
-0.013741575 0.022916475 0.15019822
-0.013804124 0.020879846 0.15139802
-0.013819449 0.018617172 0.15260693
-0.014894595 0.015697282 0.15414016
-0.01590701 0.012162074 0.15494746
-0.018259119 0.0084417202 0.15464371
-0.018210473 0.0057224608 0.15521634
-0.019099556 0.0023953663 0.15519492
-0.01975647 -0.00017052781 0.15577734
-0.019114288 -0.0018597153 0.15732734
-0.019056173 -0.0038104374 0.1592083
-0.018891836 -0.0059267641 0.16051419
-0.018581763 -0.0078823091 0.16265549
-0.011404871 0.032408051 0.14705618
-0.011518697 0.028772989 0.14877045
-0.011558664 0.026173299 0.14952591
-0.010967962 0.023456777 0.15003754
-0.010754358 0.020904846 0.15088406
-0.01055187 0.018968668 0.15204735
-0.011628629 0.016377021 0.15468343
-0.011899521 0.013318769 0.15625021
-0.014297721 0.0086205276 0.15685549
-0.015214764 0.0057323077 0.15633513
-0.017219406 0.0018262453 0.15617625
-0.016808584 5.2754411e-05 0.15709779
-0.016248172 -0.0012697916 0.15938817
-0.016246719 -0.003361701 0.16097166
-0.016245149 -0.0056218361 0.16181526
-0.015900746 -0.007832814 0.16382536
-0.0089074504 0.031747233 0.14755486
-0.0087706614 0.028662117 0.14906362
-0.0090807602 0.026180794 0.14995088
-0.0084330868 0.023730744 0.15026011
-0.0078920191 0.021371478 0.15095471
-0.007480578 0.019465165 0.1524078
-0.0066959509 0.016648404 0.15549462
-0.007068601 0.014275572 0.15646312
-0.007423419 0.011096162 0.15809287
-0.0099581089 0.0087655615 0.1579642
-0.013463239 0.0039763344 0.15737864
-0.012486569 0.0010981319 0.15865685
-0.013320303 -0.0010993548 0.16075523
-0.013338186 -0.0027431152 0.16259772
-0.01296114 -0.0052758222 0.16309611
-0.013129426 -0.0076189353 0.16382012
-0.0059668664 0.031559989 0.14898862
-0.0061896113 0.028668854 0.14999014
-0.0061191665 0.026584262 0.15039328
-0.0053316038 0.024983613 0.15084535
-0.004560255 0.022854554 0.1510049
-0.0043780529 0.020384282 0.15375963
-0.0043101865 0.016789902 0.156243
-0.0037717882 0.014526695 0.15710297
-0.0034185222 0.011622049 0.15918094
-0.0050765132 0.0099111041 0.15931842
-0.0077516907 0.0073728557 0.15958582
-0.0088200402 0.0035620953 0.16041866
-0.0089090588 5.2651158e-06 0.16400948
-0.01098308 -0.0020878995 0.16439664
-0.010747303 -0.0048215301 0.16478218
-0.0036759654 0.031539623 0.14982979
-0.003847972 0.028931035 0.15111569
-0.0035648837 0.027202811 0.15123837
-0.0026907732 0.025789516 0.15134028
-0.002248395 0.023423793 0.15190083
-0.0025645609 0.020247363 0.15563601
-0.0021296451 0.017078435 0.157213
-0.001169689 0.014929776 0.15823169
0.00018816558 0.012870007 0.15932445
-0.0020337133 0.010580036 0.1597593
-0.0048771068 0.0074225427 0.16116209
-0.0058979052 0.0036710445 0.16269283
-0.0068975547 -0.00029671271 0.16501608
-0.0081379302 -0.0020010385 0.16503
-0.0083773741 -0.0045015183 0.16613194
-0.0010172967 0.031691115 0.15054011
-0.0012011833 0.02900517 0.15180235
-0.0014192887 0.027494755 0.15183635
-0.00052651152 0.026325233 0.15228078
0.00014274825 0.024179323 0.15218909
-0.00031573602 0.020146105 0.15689391
0.00012866614 0.017357724 0.15813662
0.0015087118 0.015676992 0.15912241
0.0019567811 0.013379346 0.15975077
0.0018112601 0.010730104 0.16099726
-0.0018367587 0.0074297725 0.16215821
-0.0031802622 0.0033668955 0.16444954
-0.0047904211 -0.00095564238 0.16659887
-0.0056345928 -0.002474078 0.16657224
-0.0057881935 -0.0045918399 0.16781186
0.001687563 0.031733733 0.15095419
0.0018360897 0.029403917 0.15177192
0.0024867957 0.027468113 0.15259846
0.0027929151 0.025418736 0.15338974
0.0025381891 0.02276255 0.1550605
0.0019580235 0.020860443 0.15643674
0.0022662235 0.018256377 0.15813001
0.0040225848 0.015959198 0.1598652
0.00442289 0.013505943 0.1605708
0.0047716117 0.010956121 0.16193615
0.0030429056 0.0078479052 0.16253753
-0.00010879911 0.0037305278 0.1651061
-0.0023236067 -0.0014465278 0.16733885
-0.0032783223 -0.00283304 0.16764644
-0.00347682 -0.0055046692 0.17012905
0.0044636489 0.031535544 0.1508365
0.0055631651 0.029027224 0.15187286
0.005752774 0.027275931 0.15242919
0.0055410229 0.025376663 0.15357827
0.0052760281 0.023002872 0.15537347
0.0049373354 0.020557942 0.15695596
0.0050783576 0.018514339 0.15834217
0.0068988772 0.016408293 0.1602418
0.0070472159 0.013809552 0.16185006
0.007312038 0.011356534 0.16273855
0.0068970444 0.0087357778 0.16397581
0.0069081043 0.006371099 0.16450892
0.0051344656 0.0025038084 0.16746567
0.0015025873 -0.0027196435 0.1703272
0.00065522478 -0.0050351308 0.1719162
0.0078144018 0.03158205 0.1510168
0.0076790662 0.029171335 0.15203018
0.0077365306 0.027464567 0.15256034
0.0078697782 0.025679195 0.15371357
0.007606802 0.023676546 0.15495718
0.0074522672 0.021285703 0.15710902
0.011107661 0.018303154 0.15983097
0.01009119 0.015866376 0.16127264
0.01000471 0.014158262 0.16229288
0.0097194919 0.011657277 0.16355996
0.0099694896 0.0093504246 0.16443194
0.010086658 0.0067234701 0.1659735
0.010607062 0.0040145162 0.16897431
0.0061118132 -0.0012207729 0.17234492
0.0045507033 -0.0038965913 0.17389059
0.010013684 0.031606361 0.15032002
0.0095926803 0.029625563 0.15118802
0.009662793 0.027681308 0.15140682
0.010190481 0.025989203 0.15317075
0.010367524 0.024566008 0.15596753
0.0118753 0.021282198 0.15827619
0.013607219 0.018192712 0.15984042
0.012843379 0.016216259 0.16141744
0.013006419 0.014143212 0.1629702
0.012214739 0.012023072 0.16451745
0.012497481 0.0099230725 0.16487959
0.012738098 0.0075728791 0.16647987
0.012822502 0.005011769 0.16921054
0.0097573018 0.00032306777 0.17403609
0.0081282733 -0.002629403 0.17603761
0.012312477 0.033033587 0.14889285
0.013865454 0.031035822 0.14973575
0.013443413 0.028458035 0.1527801
0.012666225 0.026207332 0.15503035
0.0131473 0.02376795 0.15723713
0.014773288 0.020379376 0.15897344
0.015204467 0.018093262 0.15974788
0.015513999 0.016220035 0.16071494
0.01499744 0.014152342 0.16307792
0.014819449 0.01205191 0.16468428
0.014604427 0.010141417 0.16538025
0.015317842 0.0082768407 0.16748302
0.015018651 0.0047443029 0.17104842
0.013449638 0.0014706495 0.17442405
0.012127069 -0.0014053263 0.17641747
0.017101971 0.033369124 0.14805034
0.016067812 0.029125333 0.15320145
0.01518986 0.024526054 0.15707041
0.015902076 0.022870842 0.15761362
0.016500466 0.020239078 0.15899245
0.017332405 0.018089123 0.15984637
0.018641915 0.016354274 0.16054702
0.017284395 0.014521022 0.16293794
0.017010707 0.012246061 0.16545153
0.016652912 0.0098745236 0.16640823
0.018447783 0.0071848268 0.16961153
0.018276896 0.0050854706 0.17224579
0.016749548 0.0022127584 0.17400432
0.015267618 -0.0006795706 0.17562464
0 0 0 1 0 0 0 1 0 0 0 1 0 0 0 0 0 252 1 0 0
