ply
format ascii 1.0
comment PCL generated
element vertex 252
property float x
property float y
property float z
element camera 1
property float view_px
property float view_py
property float view_pz
property float x_axisx
property float x_axisy
property float x_axisz
property float y_axisx
property float y_axisy
property float y_axisz
property float z_axisx
property float z_axisy
property float z_axisz
property float focal
property float scalex
property float scaley
property float centerx
property float centery
property int viewportx
property int viewporty
property float k1
property float k2
end_header
-0.025422746 0.030466037 0.1472895
-0.025438551 0.028599001 0.14781789
-0.025687272 0.026219785 0.14915913
-0.026108406 0.024100345 0.15022618
-0.027361676 0.021768671 0.1539188
-0.02759969 0.018511334 0.15585774
-0.027986869 0.015366167 0.15720974
-0.02863642 0.013023484 0.15757608
-0.022826938 0.030723354 0.14605588
-0.023485176 0.028605167 0.147099
-0.023699928 0.026351932 0.14856742
-0.024015753 0.024108723 0.14933577
-0.025058588 0.021620771 0.15132703
-0.02635509 0.01913126 0.15363118
-0.027405698 0.015763484 0.15462971
-0.028248481 0.012653689 0.15537433
-0.028793368 0.010541815 0.15513054
-0.029282518 0.0084499586 0.15476051
-0.030488014 0.0058150641 0.15502056
-0.031500593 0.003285913 0.15497379
-0.032297615 0.00086113549 0.155515
-0.032052103 -0.0024237025 0.15533426
-0.032662649 -0.0057717822 0.15471731
-0.020507587 0.030601889 0.14592999
-0.021080229 0.028394859 0.14762309
-0.021304522 0.026301518 0.14882645
-0.021525122 0.024133461 0.14981543
-0.022056114 0.021390419 0.1506229
-0.024153441 0.018806456 0.15171154
-0.025454262 0.015715403 0.15296799
-0.026832514 0.012417167 0.15409216
-0.026929146 0.009632743 0.15459608
-0.02767867 0.0072956723 0.155113
-0.028609481 0.0052083614 0.15516375
-0.029955136 0.0029065653 0.15504827
-0.030492658 0.00031028301 0.15559992
-0.030573715 -0.0032446403 0.15636274
-0.030600684 -0.0064827395 0.15612812
-0.031025495 -0.0092104636 0.15704703
-0.018210035 0.033049453 0.14456594
-0.018718135 0.028396998 0.14827353
-0.018781137 0.026691575 0.14917937
-0.018977834 0.024336472 0.15069883
-0.019152809 0.021782236 0.15132287
-0.020366192 0.019086923 0.15146762
-0.021199394 0.015557001 0.15254283
-0.024054771 0.012098185 0.15382446
-0.024794174 0.0088119544 0.15396401
-0.025732933 0.0064609949 0.1548261
-0.026005933 0.0046333866 0.15587352
-0.028311014 0.0021541414 0.15547718
-0.028336881 -0.00044798368 0.15595873
-0.028861398 -0.0040163663 0.15780942
-0.028846346 -0.0072231814 0.15839629
-0.015857184 0.033424906 0.14462872
-0.016081331 0.028696958 0.14877824
-0.016308168 0.026666783 0.1497117
-0.016416594 0.02419889 0.15096866
-0.016639182 0.021929331 0.15138519
-0.017210582 0.019149227 0.15304433
-0.017627455 0.015935233 0.15355229
-0.01944392 0.011788124 0.15424584
-0.022085311 0.0082223937 0.15473817
-0.022442495 0.0061004316 0.15540062
-0.023088641 0.003520027 0.15627007
-0.024379738 0.00095618796 0.1565852
-0.024279924 -0.0017663056 0.15870883
-0.023938738 -0.0050886511 0.16079673
-0.025928028 -0.007133923 0.1613964
-0.026450457 -0.0097708423 0.16374476
-0.013736633 0.033173356 0.14575517
-0.013959602 0.029122757 0.14872161
-0.014040846 0.026434362 0.15024979
-0.013615088 0.023021113 0.15085723
-0.013683335 0.021062652 0.15212917
-0.01371179 0.018760968 0.15322225
-0.014876309 0.015878063 0.1545305
-0.016085671 0.012501866 0.15560046
-0.018880989 0.0085346969 0.15597773
-0.018994516 0.0057382528 0.15705617
-0.020006306 0.0024410887 0.15763994
-0.020769788 -6.8637091e-05 0.15868922
-0.020044241 -0.0017221683 0.16031665
-0.019837301 -0.0035976325 0.16238387
-0.01952308 -0.0056288382 0.16381253
-0.018992739 -0.0074081831 0.16606255
-0.011384998 0.0322266 0.14704117
-0.011459339 0.02878751 0.14933075
-0.011486515 0.026202081 0.15015218
-0.010879966 0.023485325 0.15062982
-0.010673148 0.020991273 0.1514135
-0.010436572 0.019034255 0.15240547
-0.011467312 0.016344892 0.15483838
-0.011868036 0.013473391 0.15643604
-0.014638583 0.008998408 0.15795484
-0.015816247 0.0057892459 0.15785436
-0.018081482 0.0018127342 0.15847774
-0.017579539 5.6214816e-05 0.1595576
-0.016886028 -0.0011079813 0.16177964
-0.016828941 -0.0030486316 0.16368365
-0.016791934 -0.005218979 0.16479243
-0.016323334 -0.007225682 0.16707018
-0.0089286938 0.03145754 0.1474283
-0.0087215472 0.028682785 0.14961269
-0.0090017663 0.026206622 0.15055121
-0.0083366716 0.023728861 0.15076348
-0.0078320708 0.021412658 0.15131004
-0.0073375702 0.019447733 0.1524725
-0.0063259182 0.016402043 0.15507458
-0.0067539448 0.014170582 0.15615471
-0.0074065542 0.011359598 0.15878181
-0.010123508 0.0090989806 0.15912428
-0.013987758 0.0038531497 0.15886919
-0.013048704 0.00097033352 0.16041826
-0.013846332 -0.00093440758 0.1628871
-0.01380536 -0.0023390439 0.16500562
-0.013524512 -0.0048047039 0.16584745
-0.01373184 -0.0070786998 0.16690283
-0.0059197992 0.031203225 0.148421
-0.0061578057 0.028591776 0.15008172
-0.0060934578 0.026571956 0.15071321
-0.0052408408 0.024920443 0.15088104
-0.0044166083 0.02276285 0.15098681
-0.0040878854 0.020204438 0.15356915
-0.0039167395 0.016569842 0.15572408
-0.0034434011 0.014429188 0.15671891
-0.0033450488 0.011872376 0.15956105
-0.0051805964 0.010308187 0.16028936
-0.0079563716 0.0077715451 0.16095924
-0.0090508712 0.0039606881 0.16198167
-0.0091463458 0.00038392827 0.16567843
-0.011284905 -0.0016200029 0.16657756
-0.01115284 -0.0043377872 0.16710877
-0.0035474533 0.031191763 0.14904892
-0.0037649358 0.02885088 0.15099064
-0.0035081767 0.027128065 0.15123245
-0.0025898078 0.025697462 0.15126003
-0.0020953396 0.023347653 0.15183817
-0.0021938002 0.019957857 0.15529703
-0.0016913651 0.016839683 0.15658966
-0.00078349159 0.014816671 0.15770051
0.000443831 0.012851312 0.15891701
-0.002127006 0.010917353 0.16045074
-0.0050914218 0.0079791173 0.16254216
-0.0060906154 0.004143992 0.16416092
-0.0070149503 -1.4958025e-05 0.16632144
-0.0083652614 -0.0016767036 0.16662352
-0.0085815405 -0.0041368823 0.16787897
-0.00082076795 0.031282507 0.14942423
-0.0010964902 0.028896412 0.15155445
-0.0013463829 0.027413975 0.15170093
-0.00043595716 0.026277713 0.15215255
0.00028210084 0.024137465 0.15214351
0.0001224446 0.019774627 0.15643984
0.00062248996 0.017084824 0.15740494
0.0020051578 0.015544143 0.15820646
0.0023391163 0.01327794 0.15895954
0.0019066883 0.010824597 0.16083457
-0.0021260439 0.0081625935 0.16356736
-0.0032989036 0.0038208056 0.16568863
-0.0047325375 -0.0007707667 0.16756177
-0.0056613442 -0.0022847091 0.16766088
-0.0057634613 -0.0043786443 0.16899411
0.0019466052 0.031182954 0.14957044
0.0020401147 0.029061643 0.15102386
0.0026268312 0.027374286 0.15242973
0.0028562706 0.025592903 0.15375228
0.0027689179 0.022796141 0.1552819
0.002321261 0.020674996 0.15629387
0.0027916294 0.017956167 0.15744942
0.0044919364 0.015865458 0.15897159
0.00485144 0.013388006 0.15968028
0.0050476966 0.010874284 0.16122802
0.0029107393 0.0081622079 0.16294201
-0.00031840929 0.0044200495 0.16642886
-0.0022665418 -0.0013832516 0.16795065
-0.0032437402 -0.0027269672 0.1684013
-0.0033096522 -0.0052625388 0.1710494
0.0047381073 0.031107854 0.15010384
0.0056774598 0.028996615 0.15196869
0.0058381241 0.027375018 0.15276463
0.0056299586 0.025562178 0.15404375
0.0054811691 0.023092097 0.15560849
0.0053193388 0.020450808 0.15681113
0.0055921641 0.018386379 0.15778041
0.0073336363 0.016347038 0.1595656
0.0074194325 0.013686178 0.16106236
0.0076413276 0.011221975 0.16189656
0.0069900923 0.0088401604 0.16335776
0.0066616982 0.006730801 0.1644416
0.0047497419 0.0031110889 0.16802104
0.0015308731 -0.0024429969 0.17086408
0.00082530128 -0.0047186492 0.17252007
0.0078883385 0.031610474 0.15125382
0.0076846126 0.029349541 0.15253556
0.0077452254 0.02770333 0.15316686
0.0079022553 0.025905531 0.15428466
0.0076915622 0.023876816 0.1553828
0.0077211238 0.021295479 0.15715265
0.011326399 0.018340334 0.16012424
0.0104435 0.015786691 0.16083038
0.010267453 0.014096937 0.16184609
0.0099636894 0.011547375 0.16267827
0.0099629052 0.0093861157 0.16388308
0.0097430581 0.0069908835 0.16576038
0.0098571759 0.00473024 0.16934468
0.0057352399 -0.00048334699 0.17315893
0.0043771486 -0.0032374188 0.17464231
0.010099054 0.031910617 0.15109797
0.0095693991 0.029989939 0.15207759
0.0097210538 0.028111015 0.15232
0.010188903 0.026368001 0.15402587
0.010255888 0.024873832 0.15670469
0.011929622 0.021350062 0.15887377
0.013611323 0.018614711 0.16096447
0.012822228 0.016413679 0.16201019
0.012808487 0.014308473 0.16350321
0.012195545 0.011894147 0.16419967
0.012467734 0.0098561235 0.16454446
0.012404142 0.0076991185 0.16639313
0.012173916 0.0054755346 0.16954748
0.0091991061 0.001177135 0.17478313
0.0077213985 -0.0017163617 0.1768937
0.012692486 0.033204868 0.14999594
0.014165681 0.031109314 0.15089324
0.013451882 0.028646747 0.15397568
0.012445577 0.026675057 0.15632342
0.012739226 0.024225043 0.15853582
0.014456496 0.020942649 0.16063493
0.015045838 0.018753134 0.16152863
0.015422621 0.016875664 0.16243047
0.014661685 0.014523971 0.16415142
0.014548343 0.012110477 0.16517195
0.014476513 0.010072187 0.16538021
0.014919387 0.0083267437 0.16759965
0.014307652 0.0052042715 0.17171641
0.012724921 0.0021777009 0.17509837
0.011504377 -0.00052253762 0.17721148
0.017628687 0.033353053 0.14944512
0.016097404 0.029155446 0.15456268
0.014594612 0.025266588 0.15901813
0.015316824 0.023734517 0.15981817
0.01595705 0.021172533 0.16129406
0.016864771 0.019115379 0.16244239
0.018150982 0.01759172 0.16356149
0.016817849 0.015145047 0.16459602
0.016495034 0.012372376 0.16646667
0.01632056 0.0098198708 0.16678509
0.017789762 0.0077435779 0.1706724
0.017438343 0.0056343623 0.17327861
0.015904736 0.0027777043 0.17484529
0.01452367 7.1152055e-05 0.17643106
0 0 0 1 0 0 0 1 0 0 0 1 0 0 0 0 0 252 1 0 0
