ply
format ascii 1.0
comment PCL generated
element vertex 252
property float x
property float y
property float z
element camera 1
property float view_px
property float view_py
property float view_pz
property float x_axisx
property float x_axisy
property float x_axisz
property float y_axisx
property float y_axisy
property float y_axisz
property float z_axisx
property float z_axisy
property float z_axisz
property float focal
property float scalex
property float scaley
property float centerx
property float centery
property int viewportx
property int viewporty
property float k1
property float k2
end_header
-0.025887525 0.030447781 0.14840078
-0.02576361 0.028568774 0.14871997
-0.025829038 0.026129179 0.14980383
-0.026120551 0.023998151 0.15065894
-0.027350727 0.021593051 0.15444949
-0.02741199 0.018232903 0.15648203
-0.027553374 0.014873448 0.15753916
-0.028119076 0.012482121 0.15749106
-0.023347219 0.030925432 0.14707702
-0.023842651 0.028717091 0.14793631
-0.023862479 0.026380662 0.14914274
-0.024019696 0.024136549 0.14962173
-0.024992155 0.021622118 0.15164867
-0.026243327 0.019059503 0.154149
-0.027151221 0.015699314 0.15501679
-0.027847102 0.012521361 0.15523154
-0.02829653 0.010505792 0.15458906
-0.028657116 0.0085384576 0.15383573
-0.029779729 0.0059155812 0.15354398
-0.030675726 0.0034610436 0.15309103
-0.031180145 0.00096660567 0.15332395
-0.030657809 -0.0020842245 0.15266281
-0.03138981 -0.0051961686 0.15168728
-0.020995356 0.030922214 0.14680338
-0.021330608 0.028582534 0.14821181
-0.021367857 0.026415998 0.14908667
-0.021442467 0.024222801 0.14974721
-0.021944176 0.021508986 0.15055928
-0.024006791 0.018892325 0.15211584
-0.025246082 0.01585353 0.15329462
-0.026486609 0.012576047 0.15387419
-0.026422365 0.0097923866 0.1539789
-0.027054513 0.0074202321 0.15410836
-0.027890947 0.0054147127 0.1533841
-0.029144606 0.0032079197 0.15292466
-0.029364299 0.0006213173 0.15305501
-0.02911151 -0.002857917 0.15326491
-0.029187905 -0.0059292237 0.1526235
-0.029477727 -0.0087507647 0.15317687
-0.018830424 0.033555057 0.14563227
-0.018823257 0.028597802 0.14855701
-0.018769065 0.026834395 0.14924622
-0.018881431 0.024393432 0.15054137
-0.019061597 0.02180955 0.15097925
-0.020274045 0.01919334 0.15122852
-0.020981152 0.015603298 0.15238884
-0.023722446 0.012417206 0.15342058
-0.02429723 0.0091475584 0.15319484
-0.025112879 0.006717083 0.15366644
-0.025245968 0.0048362659 0.15390444
-0.027445653 0.0025482075 0.15298325
-0.027115876 8.3935498e-05 0.15292776
-0.027333593 -0.0036539896 0.15432894
-0.027243044 -0.006859648 0.15450457
-0.016432287 0.034015916 0.14562917
-0.016163487 0.028833516 0.14891355
-0.016298432 0.026789729 0.1497096
-0.016356528 0.02424765 0.15083024
-0.016615979 0.021940999 0.15096498
-0.017194523 0.018860975 0.15202093
-0.017501365 0.015737828 0.15259963
-0.019167241 0.011627858 0.15320168
-0.021517593 0.0084486278 0.15349613
-0.021784499 0.0062944223 0.15377684
-0.02234043 0.0037101426 0.15441804
-0.023600033 0.0013146976 0.1545105
-0.023159984 -0.0014380494 0.15590322
-0.02271032 -0.0049637542 0.15741763
-0.02443281 -0.0070594642 0.1575527
-0.024918895 -0.0099451616 0.15960488
-0.014261805 0.03370731 0.14665505
-0.014119499 0.029286368 0.14891793
-0.014140475 0.02653585 0.15031952
-0.013717394 0.023155296 0.15077785
-0.013757109 0.020986598 0.1515407
-0.013771123 0.018602161 0.15239707
-0.014794553 0.015635895 0.15356186
-0.015816851 0.012173365 0.15442216
-0.018303124 0.0084962575 0.15431786
-0.018199092 0.0058903932 0.15510041
-0.019131245 0.0026453023 0.15564445
-0.019783942 0.00018375396 0.15644549
-0.019091537 -0.0015129613 0.15789795
-0.019069763 -0.0034777508 0.15981147
-0.018940782 -0.0055356836 0.16126022
-0.018727783 -0.0073321261 0.16362475
-0.011758015 0.03265376 0.14766777
-0.011598372 0.028944518 0.14946471
-0.011590697 0.026344294 0.15022887
-0.010988963 0.023686552 0.15073459
-0.010765451 0.021126457 0.15130283
-0.010529273 0.019147074 0.15223318
-0.011556037 0.0163112 0.15429844
-0.011727105 0.013258179 0.15557435
-0.013983281 0.0085828472 0.15620491
-0.014928904 0.0058855512 0.15595613
-0.017103303 0.002063869 0.15644005
-0.016618961 0.00028978361 0.15750389
-0.016140366 -0.00099610118 0.15976584
-0.016314857 -0.002994284 0.16160679
-0.016455505 -0.0051651997 0.16271436
-0.01630752 -0.0071073724 0.16517559
-0.0091877617 0.031935509 0.14795423
-0.0088409418 0.028848212 0.14967211
-0.0090966141 0.026346883 0.15059046
-0.0084495125 0.023930579 0.15089779
-0.007936391 0.021619469 0.15142447
-0.0074769245 0.01972574 0.15273355
-0.0063913092 0.016540691 0.15547262
-0.0066153742 0.014068143 0.15633805
-0.0066556903 0.010758162 0.1580039
-0.0091400323 0.0084390584 0.1577007
-0.012963694 0.0039966782 0.15727264
-0.012179294 0.001075711 0.15899818
-0.013264565 -0.00093719905 0.16125637
-0.013484448 -0.0023658639 0.16335912
-0.013373372 -0.0047969511 0.16429193
-0.013792289 -0.0070298575 0.16553105
-0.0060704914 0.031594459 0.14891633
-0.0062399837 0.028719041 0.14999655
-0.0061657908 0.02669044 0.15056357
-0.0053481758 0.025133239 0.15113683
-0.0046339715 0.022991475 0.1515044
-0.0042594359 0.020530868 0.15410252
-0.0039181551 0.016625691 0.15612546
-0.0032888709 0.014367961 0.1570441
-0.0029871755 0.01164862 0.15980254
-0.0045112455 0.0098841265 0.1599652
-0.0070159575 0.007166483 0.15982333
-0.0081519131 0.0033924172 0.16071703
-0.0087501667 0.00023025127 0.16465321
-0.011011401 -0.0017291781 0.16510986
-0.011043144 -0.0044313604 0.16570149
-0.0036756892 0.031429127 0.14931484
-0.0037427037 0.028771238 0.15055647
-0.0035236583 0.027139356 0.15090527
-0.0026578219 0.025778824 0.15123723
-0.0021984151 0.023504488 0.15215512
-0.0022750567 0.020225501 0.15567105
-0.0017375736 0.01694954 0.15706418
-0.00074072496 0.01488428 0.15826215
0.00047629766 0.013135548 0.16014498
-0.0017667807 0.010829872 0.16101874
-0.0044136862 0.0074979393 0.16197217
-0.0054788454 0.0036951341 0.16326818
-0.0067214891 -0.00022018547 0.16553836
-0.0081272107 -0.0018570498 0.16564342
-0.0085446918 -0.0043154852 0.16681497
-0.00094772858 0.031376485 0.14946809
-0.0010089935 0.028589968 0.15071225
-0.0012854456 0.027317384 0.15119117
-0.0003782151 0.026250087 0.15182075
0.00020257436 0.024121128 0.15206803
6.5150271e-05 0.019976985 0.15665394
0.00051956926 0.017266393 0.15797606
0.0018907583 0.015770344 0.15933244
0.0022207762 0.013656787 0.16055197
0.0018779027 0.011310182 0.16252446
-0.0016849637 0.0078193871 0.16372682
-0.0028638192 0.0034063675 0.1651061
-0.0045644091 -0.0010719558 0.16692838
-0.0055708643 -0.0025256581 0.16699617
-0.0058755302 -0.0046177208 0.16831091
0.001793814 0.031191412 0.14952229
0.0019589169 0.02882723 0.15052058
0.00266736 0.02722222 0.1521332
0.0030696511 0.025412537 0.15332851
0.0027713035 0.022785403 0.15519626
0.0022047169 0.020810165 0.15637247
0.0025823903 0.018169245 0.15806423
0.0043742522 0.016083097 0.1602779
0.0046778917 0.013736438 0.16131163
0.0048659695 0.011443771 0.163142
0.0030086844 0.0084949378 0.1643135
6.7890331e-05 0.0039786999 0.16624288
-0.0021565256 -0.0018137185 0.16745998
-0.0032261256 -0.0031043377 0.16786334
-0.0035694095 -0.0057001249 0.17040445
0.0045634559 0.030962612 0.15011831
0.0056537902 0.028867356 0.15213834
0.005849991 0.027393479 0.15318824
0.0056623481 0.025682453 0.15458915
0.0054130196 0.023317019 0.1560608
0.0050582523 0.020728886 0.15745571
0.0053371433 0.018623147 0.15877059
0.0072466685 0.016510608 0.16075481
0.0072852373 0.014054693 0.1625486
0.0074067689 0.011804425 0.16375214
0.0068349256 0.009371764 0.16532546
0.0068077152 0.0068838703 0.16569035
0.0052237664 0.0025823775 0.16809867
0.0016812359 -0.0033033122 0.17018214
0.00071247487 -0.0055880705 0.17178795
0.0078979386 0.031248692 0.15107048
0.0077354186 0.029181821 0.15267722
0.0077894707 0.027698452 0.15362242
0.0079203276 0.02608991 0.15499884
0.0076391217 0.024156006 0.1561463
0.0074217869 0.021695074 0.15803
0.011103007 0.018657243 0.16155913
0.01028834 0.016042998 0.16223602
0.010159317 0.014408246 0.16323575
0.0097902641 0.011981429 0.16433409
0.0099935168 0.0096036568 0.16507345
0.01008565 0.0069110398 0.16649626
0.010639211 0.0041528614 0.16962206
0.0062035737 -0.0014484476 0.17261815
0.0047337888 -0.004351656 0.1738468
0.010155685 0.031310681 0.1506919
0.0096240696 0.029626677 0.15203395
0.0097380402 0.02788363 0.15270798
0.010211078 0.026420917 0.1546586
0.010291561 0.025175469 0.15741514
0.011669204 0.021592004 0.16000308
0.013484915 0.018742459 0.16203038
0.012761291 0.016577391 0.16324812
0.012885672 0.014406498 0.1645001
0.012235118 0.012039178 0.16526744
0.012542876 0.0099964961 0.16535041
0.012777905 0.0076007759 0.16685735
0.012957789 0.0050275964 0.16988109
0.0097552389 0.00024313382 0.17464389
0.008188691 -0.0029326342 0.17634363
0.012814434 0.032073125 0.14903852
0.014314717 0.030272113 0.15037555
0.013444305 0.028505748 0.15397249
0.012454145 0.026616877 0.15648501
0.012727531 0.024092274 0.15868722
0.014433832 0.020839576 0.16123258
0.01499633 0.018732207 0.16225469
0.015429001 0.016875364 0.16317795
0.014838981 0.014476286 0.16472016
0.014759961 0.012036783 0.1655809
0.014622744 0.010072613 0.1658023
0.015402799 0.0081125675 0.16776504
0.015175959 0.0048895725 0.17222644
0.013460889 0.0015366939 0.17530409
0.012157395 -0.0014962218 0.17705882
0.017614668 0.032699589 0.14893784
0.015984192 0.029056018 0.15446042
0.014687498 0.024853487 0.15869373
0.01540904 0.023277869 0.15948696
0.016009618 0.020954665 0.1614825
0.016947674 0.018941892 0.16276421
0.018320428 0.017368546 0.1637031
0.017057678 0.014964004 0.16478606
0.01692055 0.012113933 0.16647635
0.016658438 0.0095921522 0.16672865
0.018541662 0.0075109312 0.17100047
0.018373528 0.0054340255 0.17369571
0.016868392 0.0024304346 0.17525236
0.015366761 -0.00058515009 0.17656389
0 0 0 1 0 0 0 1 0 0 0 1 0 0 0 0 0 252 1 0 0
