ply
format ascii 1.0
comment PCL generated
element vertex 252
property float x
property float y
property float z
element camera 1
property float view_px
property float view_py
property float view_pz
property float x_axisx
property float x_axisy
property float x_axisz
property float y_axisx
property float y_axisy
property float y_axisz
property float z_axisx
property float z_axisy
property float z_axisz
property float focal
property float scalex
property float scaley
property float centerx
property float centery
property int viewportx
property int viewporty
property float k1
property float k2
end_header
-0.025841728 0.030764364 0.15041761
-0.025698682 0.028973375 0.15097673
-0.025625339 0.026755879 0.15238915
-0.025833795 0.024812695 0.15350142
-0.026805783 0.022344444 0.15709953
-0.026926965 0.01895255 0.15862425
-0.027245035 0.015870864 0.15982704
-0.027967099 0.013546539 0.16016942
-0.023585185 0.030853471 0.14848174
-0.023965467 0.028857261 0.14978085
-0.023819977 0.026764566 0.15130959
-0.023947878 0.024694219 0.15211366
-0.024726762 0.022471484 0.15429723
-0.025895795 0.019686798 0.1564863
-0.026880687 0.016301602 0.15724654
-0.027719203 0.013208132 0.15795285
-0.02826949 0.01111634 0.15773372
-0.02885001 0.0090426123 0.15735388
-0.030191639 0.0065041827 0.15765655
-0.031303789 0.0041284482 0.15790169
-0.031931888 0.0018190168 0.15869915
-0.031630501 -0.0013255083 0.15855947
-0.03280244 -0.0044624605 0.15827897
-0.021303337 0.030626794 0.1476559
-0.021445576 0.028526891 0.14941597
-0.021384317 0.026542878 0.15056762
-0.02141471 0.024570072 0.15162657
-0.02187416 0.022211906 0.15306275
-0.023874974 0.01958522 0.15448157
-0.025098791 0.016277147 0.15547782
-0.026353987 0.01289861 0.15656789
-0.02649878 0.010058024 0.15712412
-0.027345678 0.0078481371 0.157818
-0.028369019 0.0058203922 0.15774901
-0.02982334 0.0037336526 0.15782088
-0.030174751 0.0013109868 0.15842512
-0.030044097 -0.002146102 0.15894015
-0.030419432 -0.0052978764 0.15866923
-0.030683616 -0.0080216154 0.15962896
-0.019002935 0.033277176 0.14525796
-0.018893339 0.028302398 0.14904276
-0.018780695 0.026690975 0.15001537
-0.018764116 0.024632676 0.15179591
-0.019011296 0.022221085 0.15275478
-0.020301621 0.01975612 0.15347447
-0.021143842 0.016049242 0.15441175
-0.023704924 0.012277626 0.15576294
-0.024644403 0.0089598112 0.15611322
-0.025586281 0.0068417485 0.15732548
-0.025851594 0.0051586227 0.15836915
-0.028206866 0.0030120783 0.15804678
-0.027985292 0.00062526291 0.15830478
-0.028121656 -0.0029477084 0.1596784
-0.02810104 -0.0061753136 0.16006529
-0.016478674 0.033754498 0.1448455
-0.016164094 0.028390994 0.1487681
-0.016270811 0.026546035 0.15001339
-0.01629151 0.024271203 0.15172291
-0.016649559 0.022102015 0.15229866
-0.017378623 0.019215247 0.15383086
-0.017823903 0.016195767 0.15479885
-0.019606534 0.011963058 0.15555967
-0.021983642 0.0082256934 0.15636316
-0.02240359 0.006283822 0.15706888
-0.022974838 0.0038639309 0.15801287
-0.024340199 0.0016332957 0.15864363
-0.024061706 -0.0010230547 0.16000348
-0.023283944 -0.0046381834 0.16138044
-0.024856877 -0.0064842002 0.16211401
-0.025058068 -0.0092532253 0.16438833
-0.014272581 0.033488281 0.14581603
-0.014146232 0.028967964 0.14864129
-0.014175651 0.0264515 0.15047354
-0.013790227 0.023184087 0.15155433
-0.013830341 0.021119015 0.15278177
-0.013892786 0.018851876 0.15393855
-0.015083504 0.01607183 0.15560108
-0.016256219 0.012730757 0.15689126
-0.018812139 0.0085928813 0.15713844
-0.01874855 0.005949419 0.15833361
-0.019852377 0.0028869689 0.159266
-0.020609753 0.0005857622 0.16022944
-0.019871755 -0.001051312 0.16161506
-0.019556854 -0.003145016 0.16334105
-0.019259835 -0.0052476516 0.16480926
-0.018730938 -0.007122837 0.16721015
-0.011778679 0.032467116 0.14705883
-0.011654302 0.028772656 0.14935794
-0.011645585 0.026308665 0.15046042
-0.011087493 0.02372662 0.1510697
-0.010870282 0.021257222 0.15198885
-0.01063252 0.01934267 0.15317991
-0.01173743 0.016635887 0.15579645
-0.01206492 0.013750205 0.15758239
-0.014582452 0.0090723839 0.15906996
-0.0156956 0.0062851883 0.15929806
-0.01801762 0.0025465412 0.16013904
-0.017539766 0.00090153114 0.16115004
-0.016826354 -0.0004155802 0.16325079
-0.016728267 -0.0026380243 0.16504869
-0.016664866 -0.0048554288 0.1661061
-0.016108101 -0.0069579869 0.16854499
-0.0092596486 0.031921793 0.14789376
-0.0089181755 0.02881931 0.14978947
-0.0091659212 0.026387824 0.15083657
-0.0085126227 0.023958487 0.15108447
-0.0080299918 0.021744518 0.15182307
-0.0075426833 0.019929869 0.153383
-0.0065474166 0.016898699 0.15662993
-0.0068973247 0.014581006 0.1577099
-0.0071940045 0.011419231 0.15976141
-0.0099929776 0.009328505 0.16006315
-0.014026057 0.0048362236 0.16081263
-0.013122895 0.0019872538 0.16231178
-0.013865585 -0.0003875453 0.16451272
-0.013768314 -0.0020645061 0.16662121
-0.013495815 -0.0046068672 0.16741838
-0.013615298 -0.0069671622 0.16865617
-0.0061487821 0.031760842 0.14935096
-0.0063208952 0.028886911 0.15052553
-0.0061776112 0.026767487 0.1508361
-0.0052979793 0.025159353 0.15121083
-0.0045315111 0.023016831 0.15167874
-0.0043118922 0.020634174 0.15479721
-0.0041326247 0.016989034 0.1573569
-0.0035892006 0.014747708 0.15831417
-0.0031441229 0.011894667 0.16078113
-0.0047604376 0.010222515 0.16107939
-0.0075326883 0.0077481735 0.16141687
-0.0087034618 0.003990022 0.16234334
-0.0085712569 0.00031534358 0.16597535
-0.010960102 -0.0015613757 0.16758755
-0.010894233 -0.0042897849 0.1680565
-0.003717406 0.031514842 0.14961559
-0.0037663041 0.028889345 0.15097865
-0.0035263873 0.027229885 0.15119369
-0.0026348983 0.025860373 0.15151668
-0.0021689495 0.023599189 0.15252078
-0.0023591055 0.020395558 0.1565212
-0.0018960823 0.017226014 0.15817489
-0.00091647869 0.015114636 0.1592745
0.00046821882 0.01319629 0.1606075
-0.0017312835 0.010794993 0.16142358
-0.004433699 0.0076472745 0.16273513
-0.0054219058 0.0038673917 0.16407321
-0.0064033209 -0.00019673209 0.16643226
-0.0078849541 -0.001788305 0.16693978
-0.0081597697 -0.0042273416 0.16824019
-0.00095753197 0.031412449 0.14962445
-0.0010173545 0.028699519 0.15106677
-0.0013170152 0.027445292 0.15158457
-0.00044469914 0.026415301 0.15231512
0.00019023888 0.024322342 0.1527169
3.6227038e-06 0.020142524 0.1575893
0.00043246383 0.017447591 0.15892801
0.0018606181 0.015920844 0.1598486
0.0022262251 0.013769981 0.16083379
0.0020088968 0.011258614 0.16253805
-0.0014197595 0.0076313275 0.16368546
-0.0025148566 0.0033835934 0.1654202
-0.00410497 -0.0010474393 0.16755752
-0.0051168371 -0.0025348181 0.1677119
-0.0052535273 -0.0045889122 0.16913831
0.0018056075 0.031248085 0.14968033
0.0019511594 0.028946277 0.15087983
0.0026227697 0.027319169 0.15268707
0.0029751733 0.025638038 0.15432055
0.0028202694 0.022984229 0.15614475
0.002231125 0.020958794 0.15728956
0.0026020883 0.018274315 0.15882401
0.0043737967 0.016270094 0.16047172
0.0046926201 0.01389523 0.16145594
0.0049692653 0.011515998 0.16318105
0.0032074291 0.0083822142 0.16421258
0.0004493889 0.0038642944 0.16621089
-0.0017109654 -0.0017562659 0.1679032
-0.0027299004 -0.0030430327 0.16841462
-0.0027903505 -0.0054209903 0.17126583
0.0045616785 0.031001488 0.15038064
0.005719305 0.028720874 0.15221384
0.0059454404 0.027188253 0.15319777
0.0058661257 0.025448589 0.15477061
0.0056693661 0.023194937 0.15644132
0.0053015947 0.020669552 0.1579659
0.0054619024 0.018660652 0.15909205
0.0072782938 0.016634542 0.16076796
0.0073493957 0.01419348 0.16255139
0.0074999505 0.011915158 0.16369329
0.0069543528 0.0094366902 0.16525853
0.0069081099 0.0069907014 0.16573963
0.0054979795 0.0028405364 0.1684981
0.0021861889 -0.002712158 0.17101929
0.0014479251 -0.0048937267 0.1726633
0.0079540517 0.031094795 0.15105984
0.0078260936 0.0289564 0.15254588
0.0079139071 0.027443722 0.15343399
0.0081628757 0.025783546 0.15477446
0.0079572108 0.023856943 0.15600643
0.0078435196 0.021407666 0.15805271
0.011386485 0.018322332 0.1600247
0.0103991 0.016042156 0.16168311
0.010175837 0.014505468 0.16289958
0.0097613325 0.012139269 0.16418968
0.0099644419 0.0098148221 0.16506629
0.010110037 0.0072314995 0.16663204
0.010812043 0.0046242597 0.16987978
0.0067815585 -0.00072763173 0.17359966
0.005435593 -0.0035566234 0.17489316
0.010212933 0.031095715 0.15053929
0.0097022112 0.029333446 0.15173101
0.0098284855 0.027575929 0.15238632
0.010400144 0.026138073 0.15427057
0.010730007 0.024768483 0.15687715
0.012015161 0.02109341 0.15843712
0.013751986 0.018476607 0.16025618
0.01293608 0.016495919 0.16181053
0.012971754 0.014549831 0.16361992
0.01223327 0.012325294 0.16497326
0.012492962 0.010272889 0.16524537
0.012781033 0.0079984237 0.16690361
0.013094532 0.0055226902 0.16997701
0.010400168 0.0010874291 0.17539442
0.0089529445 -0.0019871017 0.17731319
0.012808325 0.032466803 0.14949611
0.014427985 0.030759098 0.15074995
0.013642566 0.028576091 0.15398854
0.012762959 0.02629297 0.15587367
0.012860082 0.023836551 0.15790996
0.014608802 0.020593818 0.15976353
0.015261862 0.018438706 0.16043174
0.015586934 0.01652921 0.16134375
0.014913005 0.014496909 0.16361763
0.014778316 0.01223127 0.16498949
0.014573486 0.010359838 0.16558267
0.015425925 0.0085914489 0.16766962
0.015548888 0.0052397279 0.17194961
0.014148627 0.0023433974 0.17563364
0.012935088 -0.00051533576 0.17776042
0.017754426 0.033214379 0.14909168
0.016116919 0.02934137 0.15478651
0.014573434 0.024836259 0.15838191
0.015264714 0.023424622 0.15895256
0.016157789 0.020795306 0.16005519
0.01725732 0.018547371 0.16065094
0.01860418 0.016673289 0.16106565
0.017164767 0.014762122 0.16331929
0.016991232 0.01229467 0.16564742
0.016637245 0.0099114506 0.16640237
0.018930197 0.0075157126 0.16999009
0.019064274 0.0055816942 0.17277515
0.017579217 0.0029066692 0.17490827
0.016091816 0.00022420926 0.17686376
0 0 0 1 0 0 0 1 0 0 0 1 0 0 0 0 0 252 1 0 0
