ply
format ascii 1.0
comment PCL generated
element vertex 252
property float x
property float y
property float z
element camera 1
property float view_px
property float view_py
property float view_pz
property float x_axisx
property float x_axisy
property float x_axisz
property float y_axisx
property float y_axisy
property float y_axisz
property float z_axisx
property float z_axisy
property float z_axisz
property float focal
property float scalex
property float scaley
property float centerx
property float centery
property int viewportx
property int viewporty
property float k1
property float k2
end_header
-0.025188733 0.030658701 0.1505014
-0.02502076 0.028878268 0.15111569
-0.024883667 0.026656002 0.15241577
-0.025022753 0.024706921 0.15319246
-0.026259184 0.022213925 0.15571475
-0.026784519 0.018684952 0.15659188
-0.027518928 0.015633058 0.15763971
-0.028379533 0.013340434 0.15799743
-0.023013489 0.030895621 0.14878008
-0.023316409 0.028867301 0.15000825
-0.023114199 0.026734756 0.15139782
-0.023173887 0.024659576 0.15194894
-0.023931235 0.022421347 0.15343687
-0.025351929 0.019547164 0.15487762
-0.026577817 0.015932262 0.15521024
-0.02762676 0.01285144 0.15596813
-0.028142754 0.010766684 0.1559189
-0.028659938 0.0087226368 0.15551372
-0.029952476 0.0061690337 0.15559015
-0.030986631 0.0037920317 0.15569988
-0.031484161 0.0014266948 0.15617834
-0.030932408 -0.001587324 0.15556277
-0.031941339 -0.0046534277 0.15500222
-0.020735854 0.030792989 0.14799184
-0.020832065 0.028624881 0.14962408
-0.020757655 0.026570836 0.15057072
-0.020808019 0.024502924 0.15130004
-0.021217873 0.022106653 0.15229121
-0.023121731 0.019569149 0.1532272
-0.02450997 0.015988925 0.15385498
-0.026043428 0.012501193 0.15499522
-0.026327357 0.0097568547 0.1555627
-0.027173331 0.0075396802 0.15600625
-0.028136581 0.0055379649 0.15547666
-0.029504852 0.0034738416 0.15553707
-0.029698933 0.0010560169 0.15585384
-0.029332684 -0.0023115242 0.1559774
-0.029589176 -0.0053848294 0.15555285
-0.02985983 -0.008155711 0.15638952
-0.018674446 0.033114571 0.14540328
-0.01832136 0.028401371 0.14908938
-0.018226633 0.026669789 0.14981903
-0.018225722 0.024396617 0.1512564
-0.018599235 0.022004412 0.15187778
-0.019853901 0.019704798 0.15242183
-0.02063269 0.01585955 0.15315643
-0.023382284 0.011967093 0.15461926
-0.024368519 0.0087082032 0.15472177
-0.025341259 0.0065817055 0.15559565
-0.025589501 0.0048967302 0.15601197
-0.027858103 0.0028295491 0.15560819
-0.02747287 0.0005264986 0.15563853
-0.027437486 -0.003051074 0.15680052
-0.027380815 -0.0062560597 0.15715095
-0.016164785 0.033546124 0.14496432
-0.015761502 0.028446436 0.14880466
-0.015800171 0.026451949 0.14974497
-0.015842788 0.024013104 0.15104908
-0.016345715 0.022020061 0.15150093
-0.017156627 0.019179499 0.15297632
-0.017481472 0.015979119 0.15355362
-0.019275028 0.011693181 0.1542142
-0.021721603 0.0081699183 0.15529384
-0.022082519 0.0062641832 0.15586409
-0.022645205 0.0038456544 0.15651906
-0.023961615 0.0016107549 0.15676549
-0.023582259 -0.0011647333 0.15797004
-0.022760138 -0.004854314 0.15941527
-0.024333596 -0.0066298605 0.15984334
-0.024600904 -0.0094696209 0.16209823
-0.013986171 0.033332556 0.14599615
-0.013920952 0.029088115 0.14894283
-0.014021288 0.026499359 0.15061794
-0.013597398 0.023266673 0.151366
-0.01364911 0.021174191 0.15233006
-0.01371788 0.01879744 0.15322256
-0.014808414 0.015822958 0.15435952
-0.015924983 0.012420649 0.15549384
-0.018582774 0.0085849119 0.1561437
-0.018488623 0.0060086646 0.15733485
-0.019450843 0.0027896201 0.1578611
-0.020049097 0.00027946843 0.15844372
-0.019175336 -0.0015584554 0.15958898
-0.018863769 -0.0036889389 0.1612839
-0.018606553 -0.0057922294 0.16274798
-0.018136438 -0.0076826946 0.1651579
-0.011549375 0.032468833 0.14745942
-0.011478959 0.028914405 0.14984253
-0.011502608 0.026405646 0.15084362
-0.010942306 0.023825558 0.1513167
-0.010706042 0.021353006 0.15185255
-0.010485538 0.01938444 0.15273048
-0.011611554 0.01639251 0.15477149
-0.011841097 0.013390846 0.15622726
-0.014345357 0.0088777468 0.15801561
-0.015372437 0.0062328428 0.15833873
-0.017461745 0.0022527231 0.15857574
-0.016835438 0.00042658809 0.15931626
-0.016047504 -0.0010963917 0.16123159
-0.016047355 -0.003276279 0.16302694
-0.016035177 -0.005441173 0.16410883
-0.015592087 -0.0075126817 0.16654968
-0.0091322605 0.031944871 0.14835529
-0.008763059 0.02891724 0.15034343
-0.0090381382 0.026471188 0.15133956
-0.0083790282 0.024076443 0.15152328
-0.0078851553 0.02189189 0.15202898
-0.0074214172 0.019967135 0.15321513
-0.0062894812 0.016530711 0.15597066
-0.0065989341 0.014237027 0.15702407
-0.0069695334 0.011342217 0.15963688
-0.0097469566 0.0092199231 0.15974124
-0.01350882 0.0045400485 0.15969665
-0.012376658 0.0014818837 0.16077596
-0.013193975 -0.0010214003 0.16272099
-0.013227789 -0.0026383398 0.16480415
-0.012978259 -0.005127205 0.16553508
-0.013110447 -0.0075391242 0.16661058
-0.006045504 0.031607404 0.14940715
-0.0061870893 0.028700888 0.15043785
-0.0060936981 0.026763149 0.15110806
-0.0052613192 0.025222981 0.15160096
-0.0045232181 0.023075219 0.15193634
-0.0040807952 0.020469053 0.15454766
-0.0037864409 0.016600749 0.15666135
-0.0032380733 0.01441509 0.15766598
-0.002906112 0.011830567 0.16056538
-0.004534605 0.01022263 0.16104124
-0.0072110095 0.0076520299 0.16124293
-0.0082099317 0.0037617465 0.16166978
-0.0081784716 7.1468225e-05 0.16469723
-0.01053204 -0.0020528606 0.16590236
-0.01040015 -0.0048056105 0.16620426
-0.003664203 0.031343564 0.14941768
-0.0036865612 0.028689981 0.15067449
-0.0034432926 0.027128864 0.15106454
-0.0025569408 0.025799472 0.15141331
-0.0020807956 0.023572329 0.15244071
-0.0020404211 0.02005277 0.15601286
-0.0015226831 0.016827177 0.15742995
-0.0005584989 0.014798612 0.15860854
0.0008876354 0.012978639 0.15998222
-0.001557631 0.010850907 0.16134901
-0.0041561709 0.007599649 0.16257581
-0.0049717142 0.0036518367 0.16336533
-0.0060304771 -0.0003447601 0.16527547
-0.007445253 -0.002051288 0.16559006
-0.0076748533 -0.0046050185 0.16664417
-0.00096056552 0.031308599 0.14930782
-0.00095268426 0.028503727 0.1506647
-0.0012049013 0.02730985 0.15126434
-0.00029587696 0.026294924 0.15196747
0.00029718332 0.024195278 0.15238082
0.00035007379 0.019656016 0.15691786
0.00082553923 0.0170261 0.15811464
0.0023884352 0.015550203 0.15894556
0.0027455566 0.013498464 0.16006345
0.0022223794 0.011138622 0.16217774
-0.0012948961 0.0077236206 0.16361211
-0.0022032124 0.0033161 0.16469465
-0.0037772844 -0.0011255568 0.16649343
-0.0047112047 -0.0026696427 0.16654171
-0.0048310957 -0.0048349914 0.16781433
0.001856498 0.031283993 0.1493808
0.0020699152 0.028867679 0.15047155
0.0027870729 0.027158404 0.15226269
0.0031691936 0.02545619 0.15386777
0.0029896884 0.022736177 0.15562794
0.0024675492 0.020608453 0.15663826
0.0029796644 0.017853161 0.15797916
0.0049150549 0.015974872 0.15972543
0.0051978626 0.013657761 0.16081996
0.0052837199 0.011387614 0.16274026
0.0032682791 0.0084278258 0.1640908
0.00052939699 0.0039599068 0.16581692
-0.0013197407 -0.0017030478 0.1670045
-0.0023633116 -0.0030858123 0.16738655
-0.0025017487 -0.0056665926 0.17006864
0.0047035716 0.031136239 0.15049756
0.0058297701 0.028665243 0.15226752
0.006054603 0.02702586 0.15319319
0.0059441794 0.025307531 0.15473723
0.0057386593 0.023081146 0.15627332
0.0054306705 0.020479893 0.15757895
0.0058376258 0.01840755 0.15851377
0.0077324761 0.016507693 0.16045584
0.0076964116 0.014065513 0.16220807
0.0077801016 0.011837787 0.16343652
0.0070594507 0.0094268806 0.16507234
0.0069827009 0.0069758575 0.16558823
0.0054440289 0.0028785362 0.16823512
0.0022842661 -0.0026809513 0.17036036
0.0015463764 -0.0049881414 0.17184742
0.0080355732 0.031240156 0.15150516
0.0078923125 0.028921656 0.15278696
0.0079846447 0.027324645 0.15360501
0.0082104858 0.025630884 0.15492785
0.0079714628 0.023779845 0.15613259
0.0078401845 0.021392168 0.15807088
0.011387059 0.01887692 0.16176599
0.010678965 0.016279873 0.16236056
0.010446521 0.01452275 0.16305307
0.0099794306 0.012144277 0.16431445
0.010125634 0.009839206 0.16523066
0.010126807 0.0072325156 0.1667628
0.010472586 0.0046011414 0.1700902
0.0064843544 -0.00092648849 0.17330249
0.0051561496 -0.0037764742 0.1743941
0.010287349 0.031326462 0.15114132
0.0097549362 0.029486906 0.1522187
0.0099246474 0.027617892 0.15274699
0.010452064 0.02605034 0.15457903
0.010641816 0.02474856 0.15723561
0.011990492 0.021358965 0.16021681
0.013609503 0.019095836 0.16249916
0.0129381 0.0170471 0.16365629
0.012984651 0.014758446 0.16475749
0.012251537 0.012378992 0.16556197
0.012590227 0.010363558 0.16578786
0.012712805 0.0080542658 0.16740833
0.012729826 0.0054896832 0.17046398
0.0098321401 0.00082522113 0.17541541
0.0083480245 -0.0022977083 0.17712863
0.012908705 0.0321826 0.14969832
0.014493424 0.030283909 0.15088309
0.013686894 0.028329641 0.15428993
0.012807379 0.026129005 0.15629731
0.012890215 0.023784621 0.15874317
0.014439552 0.021041021 0.16181707
0.015097194 0.019135656 0.16290161
0.015540915 0.017385481 0.16381522
0.014848752 0.014883479 0.16518576
0.014702744 0.012453299 0.16614746
0.014574541 0.010520882 0.16647696
0.015190942 0.0086909784 0.16856055
0.014993678 0.0051312638 0.1727386
0.013415569 0.0020625438 0.17603648
0.012167231 -0.00084910664 0.17792505
0.018049823 0.032063138 0.14877905
0.016230615 0.028858354 0.15489127
0.014731973 0.024715867 0.15895243
0.015302105 0.023397792 0.16005257
0.015915159 0.021279015 0.16227919
0.016972348 0.019387832 0.16352899
0.018405158 0.017772857 0.16435543
0.017008791 0.015383737 0.16541617
0.016729089 0.012583988 0.16723874
0.016485222 0.01011728 0.16761743
0.018452765 0.0077201938 0.17143781
0.018345406 0.0055929092 0.17407788
0.01680229 0.0027170817 0.17577206
0.015308389 -4.9134083e-05 0.17736967
0 0 0 1 0 0 0 1 0 0 0 1 0 0 0 0 0 252 1 0 0
