ply
format ascii 1.0
comment PCL generated
element vertex 252
property float x
property float y
property float z
element camera 1
property float view_px
property float view_py
property float view_pz
property float x_axisx
property float x_axisy
property float x_axisz
property float y_axisx
property float y_axisy
property float y_axisz
property float z_axisx
property float z_axisy
property float z_axisz
property float focal
property float scalex
property float scaley
property float centerx
property float centery
property int viewportx
property int viewporty
property float k1
property float k2
end_header
-0.023939431 0.034243491 0.14426091
-0.02388674 0.032327875 0.1454376
-0.024148043 0.030586753 0.14846687
-0.024615264 0.028434442 0.1502936
-0.025238 0.026312148 0.15301551
-0.025425142 0.023919014 0.1546199
-0.025873438 0.021465149 0.15764959
-0.026090775 0.019212298 0.15970363
-0.021431934 0.034035638 0.1430411
-0.021721303 0.03203743 0.14446613
-0.021930771 0.030486902 0.14792433
-0.02216558 0.028228562 0.14934142
-0.022607915 0.026252374 0.15229881
-0.02293044 0.023941824 0.15376101
-0.023383496 0.02141862 0.15595756
-0.023593422 0.018919196 0.15872097
-0.023724917 0.01637521 0.16096564
-0.023806289 0.01391096 0.16197346
-0.02385876 0.011243404 0.16339482
-0.024151871 0.0086542051 0.1646855
-0.024389274 0.0058680577 0.1646685
-0.024359766 0.0030298873 0.16572431
-0.024756541 0.00050771725 0.16757134
-0.018889615 0.034048542 0.14287731
-0.019290293 0.032145686 0.14542772
-0.019556344 0.030234052 0.1477541
-0.019786604 0.028292511 0.149652
-0.019951802 0.026287878 0.15214328
-0.020378871 0.024084616 0.15409426
-0.020587692 0.021545388 0.15556931
-0.020953892 0.019292053 0.15855235
-0.021071749 0.016829897 0.1609959
-0.021159232 0.014091562 0.16223586
-0.021160197 0.011262413 0.16332574
-0.021436645 0.0087910928 0.16492279
-0.02163074 0.0060498961 0.16531515
-0.021952786 0.0031260238 0.16723059
-0.022128776 0.00034534431 0.16820924
-0.022043139 -0.0019541576 0.16918024
-0.016105963 0.034329351 0.14248864
-0.01689917 0.032206666 0.14623977
-0.016955869 0.030142363 0.14747989
-0.017178526 0.028375089 0.14997187
-0.017449401 0.026414288 0.15243307
-0.017705675 0.024218952 0.15415947
-0.018065337 0.021761216 0.15683582
-0.018288229 0.019653739 0.15963626
-0.018374721 0.017067125 0.1615648
-0.018431848 0.014251694 0.16260986
-0.018419296 0.011543477 0.16423537
-0.018866833 0.008811486 0.166097
-0.019019401 0.0061330427 0.16619368
-0.019165212 0.0030849099 0.16811199
-0.019461386 0.00030486094 0.16971891
-0.013528837 0.034194622 0.14273725
-0.014249723 0.032704804 0.14655794
-0.014457043 0.030220533 0.14735928
-0.014720802 0.028417625 0.15031914
-0.014904345 0.026471825 0.15235616
-0.015087479 0.024032228 0.15392455
-0.015470476 0.021903371 0.15738489
-0.015696876 0.019743858 0.16080412
-0.015842814 0.017243069 0.1635904
-0.015808759 0.014150402 0.16557896
-0.016118595 0.011354889 0.16728233
-0.016187012 0.0084768273 0.16746303
-0.015963323 0.0057155746 0.16796646
-0.016054111 0.002892595 0.16940245
-0.016454974 0.00020203092 0.17040502
-0.016861998 -0.0024011321 0.17267682
-0.011333466 0.03476749 0.14402363
-0.011810434 0.033070769 0.14694217
-0.011895428 0.03062837 0.14762329
-0.01207065 0.028343964 0.15057027
-0.01229139 0.026208855 0.15246543
-0.012509514 0.023877818 0.15394327
-0.012909768 0.021887071 0.15789627
-0.013113065 0.019799838 0.16114612
-0.013160122 0.017301602 0.16422817
-0.013193297 0.014273513 0.16719481
-0.013310177 0.011224449 0.16821639
-0.013401121 0.0084970267 0.16962078
-0.013206154 0.0058358232 0.16991083
-0.013347251 0.0029976023 0.17103401
-0.013466414 0.0002001346 0.17176889
-0.013708643 -0.0025313646 0.17399009
-0.0091340244 0.03530157 0.14549588
-0.0094537893 0.03329511 0.14769952
-0.0093490211 0.030699052 0.14782824
-0.0095723486 0.02850973 0.15069744
-0.0096261306 0.026022123 0.15207936
-0.0097306324 0.02373793 0.1535089
-0.010217116 0.021791611 0.15744016
-0.010327307 0.019816007 0.16081116
-0.01044023 0.017329527 0.16346633
-0.010365069 0.014444957 0.16704208
-0.010544294 0.011183774 0.16859515
-0.010535717 0.0084140254 0.1702342
-0.01049644 0.0057509313 0.17233707
-0.010609761 0.002997939 0.17310707
-0.010843057 0.00011684673 0.1729344
-0.010953147 -0.0025206746 0.17451969
-0.0067297132 0.035508145 0.14619386
-0.0069962279 0.033452339 0.14818566
-0.006998071 0.031079968 0.14918189
-0.0070659979 0.028751228 0.15161778
-0.007020101 0.026197789 0.15292071
-0.0071789701 0.023805887 0.15434702
-0.0074866591 0.021910638 0.15819411
-0.0074947528 0.019617535 0.16010185
-0.0076544648 0.017222987 0.16244033
-0.007757464 0.014494259 0.16666424
-0.007954563 0.011431934 0.1692812
-0.0074213268 0.008323553 0.17060463
-0.0075982753 0.0055009071 0.17214999
-0.0076137027 0.0029082249 0.17461002
-0.0079231067 0.00021194578 0.17464697
-0.0085250335 -0.002166548 0.1749709
-0.0040684277 0.035408728 0.14626361
-0.0044911425 0.033515636 0.14858182
-0.0044942875 0.031226028 0.15029803
-0.0044247862 0.028733831 0.1528684
-0.0044655586 0.02628579 0.15347213
-0.0046097194 0.024021175 0.1552797
-0.0046959827 0.021869304 0.1594025
-0.0047614719 0.01952507 0.16009021
-0.0048341891 0.017050326 0.16207069
-0.0049271607 0.014397595 0.16561772
-0.0050018365 0.011449465 0.16887504
-0.0051495717 0.008503628 0.17152925
-0.0050420286 0.0054103928 0.17444828
-0.0049808617 0.0030699691 0.17643866
-0.0051628142 6.7146408e-05 0.17577131
-0.0017936864 0.035370689 0.1471013
-0.0020007163 0.033441257 0.14895925
-0.0019296408 0.031079398 0.15087351
-0.0017807073 0.028702257 0.15286452
-0.0019295526 0.026463423 0.15458257
-0.0021311799 0.024020644 0.15634623
-0.0021005021 0.021735922 0.15987341
-0.0020129159 0.019429371 0.16093667
-0.0019039089 0.017160429 0.16268422
-0.0017423871 0.014523201 0.16517524
-0.0021094421 0.011371596 0.16949426
-0.002327221 0.008349169 0.17164832
-0.0024132994 0.0051076943 0.17406449
-0.0024706344 0.0025387951 0.17488667
-0.0025422766 -0.00023976226 0.17579176
0.00061937899 0.035601471 0.14821278
0.00056579057 0.033449814 0.14938968
0.00052503747 0.030983774 0.15055414
0.0006379534 0.028677857 0.15309304
0.0006556781 0.026463682 0.15431473
0.00040994247 0.024135293 0.15747827
0.00052836805 0.021581799 0.1600949
0.00079376483 0.019489435 0.1611888
0.00081406429 0.017097188 0.1633302
0.001009253 0.014455398 0.16629295
0.00071949535 0.011261619 0.17012565
0.00059330283 0.0080832774 0.17195672
0.0004714719 0.0048423237 0.17393665
0.00046122842 0.0022453559 0.17490287
0.00045384979 -0.00050024141 0.17629579
0.0030620233 0.035608463 0.14856984
0.0030972078 0.033345994 0.14959541
0.0031869304 0.031039959 0.15102457
0.0031136782 0.028879687 0.15340057
0.0032925971 0.02648966 0.15557745
0.0034219823 0.024039786 0.15731023
0.0034363128 0.021540755 0.15917432
0.0035762184 0.01948088 0.1614297
0.0036912027 0.017048864 0.16354939
0.0038490477 0.014523774 0.16605425
0.0036283352 0.011387355 0.16951032
0.003393431 0.0080135548 0.17078277
0.0030321099 0.0043227654 0.1719251
0.0031724065 0.0021058731 0.17361848
0.003498574 -0.00069275434 0.17633875
0.005495463 0.035544891 0.14798519
0.0057571488 0.033558421 0.1501532
0.0058504734 0.03127725 0.15130879
0.0057902806 0.029055307 0.15316467
0.0059698434 0.026693475 0.15548307
0.0061365399 0.02406502 0.15705833
0.0061916579 0.021681935 0.15863931
0.0063563739 0.019490298 0.1613126
0.0065548746 0.017007137 0.16401711
0.0066023129 0.014480791 0.16551878
0.0065072034 0.011800558 0.16855885
0.0065689073 0.0090307361 0.16954081
0.0062846183 0.0057609696 0.17019945
0.0064274613 0.0022466171 0.17360944
0.006563379 -0.00063380791 0.17589502
0.0081322333 0.035422899 0.14716806
0.0082216999 0.033496708 0.14979535
0.0083414586 0.031233914 0.15142818
0.0083870115 0.029144468 0.15339229
0.0083569372 0.026758231 0.15493222
0.008671999 0.024411151 0.15706871
0.0087048095 0.021995924 0.15891638
0.0091252951 0.019236486 0.1614223
0.0093579814 0.016890669 0.16329095
0.0092712231 0.014636141 0.16637665
0.009444138 0.011880297 0.16818295
0.0093478048 0.0089919697 0.16921766
0.0093957447 0.006099795 0.17076045
0.0095665436 0.0024164156 0.17482111
0.0097602485 -0.00051374955 0.17646785
0.010557082 0.035708874 0.14670837
0.010725944 0.033279493 0.14950244
0.010808971 0.030889537 0.15091464
0.010985976 0.028979426 0.15303607
0.011287061 0.027150024 0.15599792
0.011180249 0.024900876 0.15859489
0.011412496 0.021925349 0.15946509
0.0119927 0.019347142 0.16224179
0.012215704 0.016791942 0.16428991
0.012068737 0.014546387 0.16683303
0.012192938 0.011832652 0.16767266
0.012068504 0.0090443622 0.16896144
0.011923349 0.0062555317 0.17086583
0.012545389 0.0026352764 0.1750675
0.012627002 -0.00039736851 0.17655297
0.012643206 0.036197316 0.14331271
0.013198489 0.033728361 0.14743923
0.013530316 0.030772526 0.15038697
0.01396668 0.028734634 0.15433556
0.013845311 0.027003631 0.15708509
0.014076586 0.024493422 0.15905161
0.014157952 0.021804636 0.16010849
0.014757808 0.019331941 0.16245468
0.014850698 0.016765751 0.1647781
0.015051693 0.014290028 0.16629083
0.014859876 0.01161434 0.16715702
0.014873176 0.0089747543 0.1688931
0.014652669 0.0058354274 0.17161946
0.01530325 0.0026866738 0.17425489
0.015229156 -0.00028383537 0.17524332
0.015535243 0.033948034 0.14550877
0.016118143 0.030636173 0.14992389
0.017082868 0.028277852 0.15559992
0.017164761 0.026542539 0.15750867
0.01692727 0.024215037 0.15896398
0.017139632 0.021956954 0.16148826
0.017753838 0.019383367 0.16298607
0.01767461 0.016733311 0.16449635
0.017701425 0.014167564 0.16656676
0.017673926 0.011416981 0.16834894
0.017674722 0.0082164733 0.17013492
0.017636688 0.0053993561 0.17163736
0.017406408 0.0024956123 0.17257698
0.017234191 -0.00028088436 0.17390139
0 0 0 1 0 0 0 1 0 0 0 1 0 0 0 0 0 252 1 0 0
