ply
format ascii 1.0
comment PCL generated
element vertex 252
property float x
property float y
property float z
element camera 1
property float view_px
property float view_py
property float view_pz
property float x_axisx
property float x_axisy
property float x_axisz
property float y_axisx
property float y_axisy
property float y_axisz
property float z_axisx
property float z_axisy
property float z_axisz
property float focal
property float scalex
property float scaley
property float centerx
property float centery
property int viewportx
property int viewporty
property float k1
property float k2
end_header
-0.026499648 0.028979009 0.15227416
-0.026284447 0.027285051 0.15255816
-0.026033454 0.025200719 0.15333241
-0.026080124 0.023507593 0.15363577
-0.026901152 0.022069288 0.15580186
-0.026287794 0.019650986 0.15927576
-0.026400441 0.016576391 0.16191971
-0.027376572 0.014407741 0.16255289
-0.024662692 0.029286047 0.15059711
-0.024842395 0.027351206 0.15140441
-0.024455249 0.02526989 0.15238191
-0.024401477 0.023390109 0.15267259
-0.024707796 0.021619806 0.15384823
-0.025417566 0.01989368 0.1565664
-0.025472628 0.016597033 0.1593273
-0.026641589 0.013690978 0.16063376
-0.027421601 0.011817966 0.16078033
-0.028406113 0.0099054975 0.16040516
-0.029996714 0.0075935125 0.16078582
-0.031360898 0.0056196386 0.16160482
-0.031958092 0.0037148192 0.1628297
-0.03209836 0.00087907235 0.16302027
-0.033443913 -0.0017314857 0.16437614
-0.022633625 0.029064059 0.14930184
-0.0225385 0.026991721 0.15071252
-0.02230178 0.025109038 0.15159127
-0.022225341 0.023266306 0.15231247
-0.022120394 0.021148173 0.15317765
-0.023152811 0.019264042 0.15495904
-0.023742275 0.016499115 0.15795825
-0.025091635 0.012929502 0.15980224
-0.025895083 0.010357236 0.16069226
-0.027161704 0.0086059542 0.161348
-0.028259642 0.0067929938 0.1611647
-0.030139523 0.0051475652 0.16126025
-0.030835312 0.0030955733 0.16174829
-0.030802226 -3.6220135e-05 0.1626143
-0.031483147 -0.0028494655 0.16356352
-0.031496465 -0.005358133 0.16504066
-0.020450199 0.030740526 0.14597027
-0.020224385 0.026816569 0.14987144
-0.019971339 0.025341328 0.15083201
-0.019683193 0.023423783 0.15253298
-0.019754075 0.021315338 0.15338615
-0.020557303 0.019401234 0.15419716
-0.020805137 0.016845306 0.15698591
-0.022616358 0.011639738 0.15953135
-0.024283839 0.0086472305 0.16030678
-0.025657408 0.0072991773 0.16145611
-0.026083503 0.0060417056 0.16221993
-0.028848592 0.004396921 0.1610321
-0.029365059 0.0022482646 0.16050461
-0.029059201 -0.0010080128 0.16227026
-0.028989533 -0.0040016701 0.16348131
-0.017593149 0.031815749 0.14571182
-0.017395902 0.026975552 0.14939782
-0.017509457 0.025350075 0.15059042
-0.017249426 0.023280818 0.15241306
-0.017621592 0.021482889 0.15321013
-0.018396864 0.019306906 0.15518604
-0.018120512 0.017032973 0.15665828
-0.019479761 0.012486474 0.15786855
-0.02252898 0.0082388213 0.15985264
-0.023071628 0.0068934648 0.16017205
-0.023656381 0.0049008438 0.16060223
-0.02517217 0.0029860372 0.16110712
-0.024667513 0.00061192259 0.16127908
-0.023443006 -0.0027872117 0.1617167
-0.02477552 -0.004501068 0.16311237
-0.024278909 -0.0070729312 0.16537672
-0.01540349 0.031797763 0.14682238
-0.014790077 0.027988488 0.14952751
-0.014934248 0.025597172 0.15126862
-0.014802618 0.022773862 0.15220772
-0.014854389 0.021194777 0.15403996
-0.014840656 0.019343572 0.15555295
-0.015459241 0.017037403 0.15709436
-0.01604634 0.013930018 0.15855099
-0.019374883 0.009050563 0.15899979
-0.019387456 0.0066539752 0.1595885
-0.020182284 0.0039641005 0.16043247
-0.020659059 0.0020288459 0.16107599
-0.019582774 0.0005792866 0.1615399
-0.019028908 -0.0015025737 0.16267629
-0.018577306 -0.0036276109 0.16382501
-0.017841121 -0.0056367628 0.16580176
-0.012644975 0.031202884 0.14799017
-0.012254841 0.027759688 0.15002926
-0.01235993 0.025427476 0.15105639
-0.011976711 0.023184001 0.15165579
-0.011819756 0.021496916 0.15334001
-0.011546825 0.019933982 0.15497805
-0.012517968 0.017627828 0.15723884
-0.012248993 0.015000996 0.15865168
-0.014059375 0.010262975 0.16053334
-0.015627163 0.0076952502 0.16030754
-0.017997352 0.0040104077 0.16077529
-0.017249174 0.0025351164 0.16130151
-0.016093392 0.0011579668 0.16291428
-0.015912158 -0.0012654272 0.16405545
-0.015796438 -0.0035388356 0.16477039
-0.015345406 -0.0058330782 0.16664892
-0.0097848643 0.03110615 0.14853901
-0.0094912658 0.027792303 0.15036449
-0.0098584294 0.025506442 0.15131786
-0.0094225528 0.023437161 0.1517155
-0.0089924224 0.022082826 0.15329038
-0.0084240986 0.020703733 0.15525278
-0.0067211045 0.017183971 0.15799573
-0.0068765944 0.01500948 0.15924674
-0.00644449 0.012116279 0.16188781
-0.0091615077 0.01052933 0.16155982
-0.013530555 0.0067362362 0.16185409
-0.012334149 0.0036981925 0.16292758
-0.013070586 0.00090371957 0.16419475
-0.012949757 -0.0010182015 0.16550027
-0.012843884 -0.0035821216 0.16575399
-0.013167672 -0.0059389919 0.1666906
-0.0064338506 0.031042797 0.14990874
-0.0066072182 0.028070113 0.15084706
-0.0066682845 0.026351141 0.15152706
-0.0057921489 0.025222847 0.15206611
-0.0050062942 0.023277996 0.15295322
-0.0046330532 0.020856787 0.15646492
-0.0040769521 0.017181037 0.1587927
-0.0035455185 0.015168172 0.16011716
-0.0030321868 0.012697934 0.16349506
-0.0044171885 0.011361832 0.16382836
-0.0070203035 0.0091207903 0.16348939
-0.0080595305 0.0053797229 0.1638106
-0.0086769154 0.001514233 0.16599694
-0.010525806 -0.0007680885 0.16616558
-0.010467718 -0.0034585483 0.16621566
-0.0041867476 0.03085611 0.15027374
-0.0041533206 0.028139528 0.15154627
-0.0038055566 0.026865214 0.15169707
-0.0029932924 0.025743596 0.15201671
-0.0025291995 0.023814388 0.1534733
-0.0027478349 0.020369053 0.15817811
-0.0019592291 0.017467162 0.1597185
-0.0008891747 0.015766338 0.16125868
0.00060389773 0.014111509 0.1633047
-0.0017089859 0.011885683 0.16460283
-0.0043453621 0.0091198385 0.16566782
-0.0053617065 0.0052796071 0.16615932
-0.0066946512 0.0011512975 0.16688235
-0.0079020839 -0.00069334655 0.16663584
-0.0080068493 -0.0033878877 0.16703191
-0.001645832 0.030994955 0.15021728
-0.0013791703 0.028083453 0.15185629
-0.001620346 0.027093679 0.15191248
-0.00072410615 0.026238555 0.15249643
-0.00012459209 0.024289418 0.15332562
-0.00044432355 0.020007817 0.15951298
0.00031069829 0.01778901 0.16059302
0.0019822649 0.016797937 0.16161834
0.0023946187 0.014668969 0.16313337
0.0020002695 0.012298953 0.16564208
-0.0017644485 0.0091372123 0.16723837
-0.0030297053 0.0049626613 0.16768208
-0.0046243113 0.0003449583 0.16813806
-0.0054068263 -0.0012496319 0.16786064
-0.0053927205 -0.003603746 0.16862302
0.0011702552 0.031205898 0.15007469
0.0016660917 0.028678814 0.15145834
0.0024452098 0.02703185 0.15283176
0.0029734478 0.025512025 0.15487428
0.0030580417 0.023092534 0.15722899
0.0021003364 0.02108752 0.15886621
0.0027268215 0.018621011 0.16022402
0.0047868653 0.016795287 0.16168411
0.0049227485 0.014609939 0.16322127
0.0051012309 0.012585809 0.1656687
0.0029095171 0.0095225656 0.16761999
-0.00054859341 0.0054257875 0.1692749
-0.0023195241 -0.00015952394 0.16896874
-0.0032432794 -0.001645959 0.16893339
-0.0032994689 -0.0045925402 0.17093454
0.0041629057 0.030914813 0.15084033
0.0054869698 0.02845341 0.15278849
0.0057530799 0.027029511 0.15399352
0.0058347699 0.025379336 0.15570077
0.0059136986 0.023281671 0.15709166
0.0057825623 0.020827077 0.15874009
0.0060058376 0.019035578 0.15989152
0.00772289 0.016836369 0.16174768
0.0076770619 0.014792505 0.16394952
0.0077132042 0.012871312 0.16578935
0.0070073744 0.010874353 0.16798407
0.0067285369 0.0084547112 0.16875583
0.0044892789 0.0045280559 0.17126112
0.00080641673 -0.001336618 0.17232579
0.00050187751 -0.0038246221 0.17322092
0.0076687844 0.030791679 0.151715
0.007542023 0.028700365 0.15317099
0.007662402 0.027305733 0.15419814
0.0080084885 0.025839081 0.15574341
0.0078867516 0.023926802 0.15678783
0.0082139531 0.021547427 0.15838358
0.011925943 0.018721033 0.16168275
0.010935227 0.016248232 0.16266054
0.0105652 0.015011786 0.16415539
0.0097951395 0.012984138 0.16588275
0.0098842196 0.010930998 0.16702908
0.010116766 0.0086188708 0.16884787
0.011169789 0.0062154843 0.17223501
0.0051973937 -0.00022061616 0.17391384
0.0037692864 -0.0030144365 0.17512916
0.009915784 0.030789964 0.15131976
0.0093288552 0.029060964 0.1523018
0.0094852233 0.02737242 0.15319283
0.01007459 0.026187371 0.15519288
0.010660355 0.025097569 0.15772247
0.012472798 0.021079769 0.16018631
0.014162706 0.018788666 0.16227245
0.013351556 0.01694392 0.16330166
0.013212617 0.015102999 0.16489303
0.012220494 0.013163867 0.1661851
0.012398156 0.011273691 0.16668716
0.01278121 0.009234068 0.16851488
0.013259311 0.0071692392 0.17141676
0.0093549872 0.0012708423 0.17575027
0.0076124379 -0.0021966971 0.17709637
0.012806818 0.032143816 0.15076047
0.014690172 0.030762019 0.15197639
0.013426716 0.028370453 0.15505613
0.012553927 0.026498342 0.15713546
0.012959201 0.023834035 0.15928382
0.014911188 0.020711636 0.16178152
0.015616586 0.018786188 0.16259292
0.015983725 0.016997414 0.16333042
0.015101816 0.014951828 0.16485026
0.014787165 0.012777778 0.16610667
0.014459896 0.011199594 0.16676459
0.01547004 0.0096944943 0.16877711
0.015171871 0.0059899176 0.17219624
0.013328421 0.0025758916 0.17569847
0.011865539 -0.00075669278 0.1774327
0.018639522 0.033395767 0.15099597
0.015982168 0.028910726 0.15598714
0.014639131 0.024703324 0.15985245
0.015440421 0.023346089 0.16056696
0.016348517 0.020929674 0.16220018
0.017499538 0.018982908 0.16312343
0.018856023 0.017295897 0.16374889
0.017343752 0.015171465 0.16456552
0.017075157 0.012622433 0.16656965
0.016517095 0.010602655 0.1674144
0.018839492 0.0079224426 0.17002782
0.018851604 0.0054306057 0.1723408
0.016872877 0.0027425773 0.17434816
0.014982956 8.5393891e-05 0.17629912
0 0 0 1 0 0 0 1 0 0 0 1 0 0 0 0 0 252 1 0 0
