ply
format ascii 1.0
comment PCL generated
element vertex 252
property float x
property float y
property float z
element camera 1
property float view_px
property float view_py
property float view_pz
property float x_axisx
property float x_axisy
property float x_axisz
property float y_axisx
property float y_axisy
property float y_axisz
property float z_axisx
property float z_axisy
property float z_axisz
property float focal
property float scalex
property float scaley
property float centerx
property float centery
property int viewportx
property int viewporty
property float k1
property float k2
end_header
-0.023683721 0.034085814 0.14427972
-0.023647074 0.032212682 0.14550239
-0.024054049 0.0305488 0.14849499
-0.024559312 0.028452834 0.15044805
-0.025279013 0.026369167 0.15357397
-0.025516849 0.023978662 0.15538052
-0.026106119 0.021477241 0.15844765
-0.02637418 0.019240191 0.16053158
-0.021084903 0.033929776 0.14319319
-0.021385891 0.032022692 0.14472692
-0.02180678 0.030545425 0.14813001
-0.022040607 0.028286641 0.14963797
-0.022626765 0.026204184 0.15258086
-0.022987507 0.023913756 0.15423113
-0.023525497 0.021407658 0.15658312
-0.023858229 0.018894866 0.15944137
-0.024053464 0.016500164 0.16179356
-0.024149835 0.014092452 0.1628115
-0.024114054 0.011395574 0.1642011
-0.024386935 0.0087351641 0.16525467
-0.024427263 0.0058812639 0.16494556
-0.024283554 0.0030040664 0.16589315
-0.024655316 0.00050011574 0.16779695
-0.018590342 0.034069892 0.14328597
-0.019062603 0.032277234 0.14583002
-0.01939394 0.030438956 0.14819518
-0.019671934 0.028510127 0.15008542
-0.019945815 0.026313355 0.15237285
-0.020403428 0.023989405 0.15434733
-0.020685855 0.02145108 0.15603337
-0.021184957 0.019176606 0.15910399
-0.021291271 0.01681382 0.16161309
-0.021473274 0.014211245 0.16291493
-0.021454753 0.011423168 0.16401987
-0.021652123 0.0089156181 0.16549586
-0.021711988 0.0061585899 0.16570596
-0.021943662 0.0031674914 0.16752818
-0.02206888 0.00044602048 0.16857044
-0.021975152 -0.0018415706 0.16956344
-0.016203541 0.03450159 0.14349553
-0.016776431 0.03253112 0.14685693
-0.016850879 0.030504826 0.14814986
-0.017121105 0.028700182 0.15062726
-0.017453823 0.026509665 0.15278271
-0.017734488 0.024083637 0.15428646
-0.018065743 0.021663927 0.15717638
-0.018357866 0.019353913 0.15994771
-0.01852232 0.016887784 0.16193826
-0.018751787 0.014200312 0.16307779
-0.018771848 0.011649717 0.16476235
-0.01921903 0.0090431711 0.16676487
-0.019184593 0.0063546738 0.16673428
-0.019209243 0.0032739744 0.16858523
-0.019468825 0.00055148161 0.17025134
-0.013865173 0.034495261 0.14408191
-0.014315641 0.033104938 0.14778219
-0.014393422 0.030725891 0.1484025
-0.014699089 0.028726293 0.15110804
-0.014900584 0.026417892 0.15262552
-0.015099925 0.02388511 0.15415877
-0.015481966 0.021840135 0.15789363
-0.015731422 0.019397503 0.1611737
-0.015900396 0.016834643 0.16356617
-0.01600373 0.014152222 0.16548838
-0.016408388 0.011619695 0.16745317
-0.016680427 0.0087967124 0.16808392
-0.016614979 0.0063121892 0.16910237
-0.016587166 0.0035948919 0.17045717
-0.016813254 0.00076256559 0.1711642
-0.016953519 -0.0019330918 0.1733712
-0.011632595 0.035034228 0.14528167
-0.011899597 0.033329673 0.14822641
-0.012010784 0.030914722 0.14881103
-0.012056627 0.028251201 0.15105489
-0.012327426 0.026097527 0.15286909
-0.012511819 0.023815954 0.15436956
-0.012920551 0.021792399 0.15853813
-0.013137225 0.019436324 0.16157162
-0.013170001 0.016737048 0.16402037
-0.013277723 0.014255447 0.16672996
-0.01357459 0.011448803 0.16826028
-0.013775163 0.0089698518 0.17028049
-0.013624124 0.0063419249 0.17058972
-0.013674327 0.0034652732 0.17149572
-0.013799247 0.00066204206 0.1719972
-0.013735295 -0.0023237364 0.17402451
-0.0092797419 0.035483342 0.14655453
-0.0094734132 0.033436146 0.14884713
-0.0094704619 0.030854734 0.14875898
-0.0095436322 0.02839067 0.15122601
-0.0095919715 0.025961567 0.15250589
-0.0097414218 0.023679528 0.15396744
-0.010195678 0.021740569 0.15797679
-0.01029528 0.019552384 0.16117898
-0.01047517 0.016779561 0.16347258
-0.010461874 0.014143525 0.16641587
-0.010801675 0.011247405 0.16857187
-0.010863028 0.0087629342 0.17057589
-0.010610497 0.0060285325 0.1724841
-0.010709617 0.0031728251 0.17302653
-0.01095862 0.00034535301 0.17265186
-0.010868329 -0.0024651841 0.17393939
-0.0068251127 0.035634845 0.14703751
-0.0069657178 0.033473548 0.14919747
-0.0070022168 0.031008033 0.14995876
-0.0070387274 0.02861529 0.15210354
-0.0070179296 0.026102662 0.1533381
-0.0071682557 0.023758881 0.15470293
-0.0074494951 0.02199675 0.15858178
-0.007448493 0.019632619 0.16032721
-0.0075908839 0.0169765 0.16250876
-0.0077891541 0.014097174 0.16583592
-0.0080488622 0.011195255 0.16834955
-0.0075923111 0.0083593847 0.17016418
-0.0077278106 0.0056662043 0.1719043
-0.0075161676 0.0029144729 0.17395607
-0.0076831388 0.00012250009 0.17380518
-0.0081841908 -0.0023010308 0.1740972
-0.004176171 0.035394721 0.14663349
-0.0044205361 0.033517133 0.14903358
-0.0044450578 0.031176129 0.15086378
-0.0043800781 0.028703466 0.15310131
-0.0043708333 0.026200531 0.15360469
-0.0045312345 0.024130676 0.15538636
-0.0046598627 0.022115724 0.15968806
-0.0047022705 0.019630231 0.16023272
-0.0047052391 0.016968608 0.16200888
-0.0045727817 0.014192628 0.16471221
-0.0046544154 0.011136812 0.16749196
-0.004955973 0.0081796153 0.17025517
-0.0048900684 0.0052026138 0.1731475
-0.0048012007 0.0030613181 0.17546023
-0.0048768343 6.91717e-05 0.17501293
-0.0018263084 0.035126429 0.14700399
-0.0018741698 0.033270009 0.14891869
-0.0018626191 0.031047413 0.15105894
-0.0017373117 0.028619044 0.15282586
-0.0018248329 0.026390085 0.15451877
-0.0020832685 0.02420445 0.156617
-0.0020470084 0.022003347 0.16009925
-0.001932869 0.019530846 0.16098961
-0.0017451065 0.017132744 0.16247241
-0.0014978203 0.014646342 0.16458659
-0.0018196423 0.011136072 0.1682594
-0.0020698211 0.0080569126 0.17040011
-0.0022695302 0.0049677179 0.17311971
-0.0023150053 0.0025126799 0.17404975
-0.0023712143 -0.0001671307 0.17512041
0.00076553103 0.035104271 0.14754003
0.00068128435 0.033021845 0.14887068
0.00054489874 0.030776702 0.15035683
0.00072902429 0.028565908 0.15295705
0.00078245316 0.026354644 0.15417919
0.00050593895 0.024447924 0.15762679
0.00056785933 0.021925448 0.16025694
0.00087179121 0.019599302 0.16103567
0.00098145916 0.017196743 0.16294993
0.0012093303 0.014565686 0.16574125
0.00093167921 0.011091898 0.16904403
0.00082580629 0.007929489 0.17093582
0.00061495689 0.0048102313 0.17339456
0.00055268133 0.0023035393 0.17430127
0.00054642459 -0.00029606404 0.1757862
0.0032685001 0.034927286 0.14750595
0.0032981595 0.032754563 0.14869811
0.0034768521 0.030695084 0.15053947
0.0033237087 0.028729806 0.15329485
0.003438456 0.026413413 0.15551713
0.0035356095 0.024081754 0.15731008
0.003466815 0.021678474 0.15911724
0.003645902 0.019522352 0.16097574
0.0038154093 0.017124953 0.16303906
0.0040073455 0.014650973 0.1654865
0.0038256075 0.01132132 0.16860402
0.0036181184 0.0078564845 0.16992961
0.0034250598 0.0043123113 0.17186083
0.003333905 0.0024336907 0.17347865
0.0036302288 -9.620886e-05 0.17634583
0.0057893526 0.03494605 0.14713065
0.0060310755 0.033230688 0.14962286
0.006167917 0.030999772 0.15098739
0.0060996064 0.028782504 0.1529194
0.0061743828 0.026499562 0.15544201
0.0062656747 0.023964394 0.15704261
0.006248116 0.021627169 0.15851319
0.0064402292 0.019528607 0.1607804
0.006664237 0.017039509 0.16346329
0.0067078923 0.014509483 0.16498335
0.0065955138 0.011873748 0.16778928
0.0065669478 0.0091608791 0.16867167
0.0064148614 0.005968689 0.16988669
0.0068978514 0.0029777361 0.17422192
0.0068383459 0.00038442208 0.17658289
0.0085484087 0.035052713 0.14676778
0.0084761279 0.033357609 0.14960891
0.008571689 0.031246221 0.15147261
0.0086266426 0.029081857 0.15335518
0.0086298492 0.026663071 0.15484457
0.0088557871 0.024263188 0.15705565
0.0091213835 0.021686055 0.15833497
0.0092022354 0.019393984 0.16100517
0.0094464878 0.016882144 0.16268557
0.0093324417 0.014569753 0.16555852
0.00941421 0.011839009 0.16717079
0.0092480434 0.0090004848 0.16832367
0.0095164571 0.0062495926 0.17049567
0.0099847009 0.0036078352 0.17572346
0.010138314 0.0010590551 0.17776063
0.010917309 0.03568045 0.14675444
0.010878181 0.033650618 0.15002555
0.011082731 0.031368807 0.15150276
0.011218764 0.02929415 0.15342118
0.011394799 0.027233629 0.15616888
0.011307864 0.024439456 0.15825236
0.011844669 0.021663899 0.15885903
0.012181099 0.019204149 0.16143818
0.012326011 0.016671229 0.16333142
0.012070698 0.014349266 0.16565679
0.012125107 0.011590038 0.16641124
0.011988522 0.0089233881 0.16790046
0.012090336 0.0064605987 0.17066395
0.012884473 0.0041415952 0.17617595
0.013014134 0.0014937598 0.17829007
0.01327664 0.037000895 0.14424145
0.013507226 0.034721419 0.14867933
0.013810766 0.031736322 0.15159993
0.013941873 0.029187893 0.15507996
0.013553935 0.027137367 0.15773498
0.0142001 0.024412319 0.15916656
0.014477524 0.021619689 0.15955929
0.01494655 0.018994272 0.16130485
0.01494622 0.016376795 0.16354313
0.014981891 0.013980248 0.16503251
0.014654143 0.011272227 0.165811
0.014865494 0.0087751467 0.16799416
0.014951792 0.0063442974 0.17180134
0.015773728 0.0040420536 0.17545369
0.015793838 0.0015117681 0.17717405
0.016041113 0.035535976 0.14723346
0.016414443 0.031966042 0.15147959
0.016894273 0.028862441 0.15671915
0.016919829 0.027118888 0.15870857
0.017014667 0.024507858 0.15954293
0.017377703 0.021687362 0.16103566
0.017987417 0.018789595 0.16158976
0.017727168 0.016240679 0.16321518
0.017635331 0.013765229 0.16537501
0.017518321 0.010985094 0.16707134
0.017972033 0.0084248288 0.16999285
0.018047767 0.0060034129 0.17206462
0.017920399 0.0035480193 0.17379192
0.017896274 0.0012898024 0.17574719
0 0 0 1 0 0 0 1 0 0 0 1 0 0 0 0 0 252 1 0 0
