ply
format ascii 1.0
comment PCL generated
element vertex 252
property float x
property float y
property float z
element camera 1
property float view_px
property float view_py
property float view_pz
property float x_axisx
property float x_axisy
property float x_axisz
property float y_axisx
property float y_axisy
property float y_axisz
property float z_axisx
property float z_axisy
property float z_axisz
property float focal
property float scalex
property float scaley
property float centerx
property float centery
property int viewportx
property int viewporty
property float k1
property float k2
end_header
-0.024211086 0.034891427 0.14594024
-0.024121195 0.032827381 0.14678988
-0.024293179 0.030652415 0.14904982
-0.02470248 0.028326644 0.15061441
-0.025409862 0.025863379 0.15336736
-0.025649248 0.023543298 0.15463217
-0.026268978 0.021377943 0.15720788
-0.026502678 0.019249825 0.15928295
-0.021621106 0.034900736 0.14433917
-0.021887431 0.03277399 0.14551944
-0.022078015 0.030663205 0.14848295
-0.022244027 0.028260348 0.14942402
-0.022802293 0.025792751 0.15221663
-0.0231902 0.023409622 0.15342802
-0.023837468 0.020984162 0.15513985
-0.024343105 0.018578837 0.15760657
-0.024591519 0.015995517 0.15908377
-0.024873668 0.013352149 0.15929593
-0.024949767 0.010407718 0.16004753
-0.025243789 0.0076122647 0.16066588
-0.025503352 0.0048458269 0.16046067
-0.025415832 0.0020754745 0.16083875
-0.025820274 -0.0007259046 0.16199042
-0.019049607 0.034893081 0.1443385
-0.019391479 0.032774884 0.14642739
-0.019595833 0.030570025 0.14828232
-0.019780327 0.028303334 0.14978467
-0.019971272 0.025882363 0.15176041
-0.020616878 0.023341993 0.1534515
-0.021057049 0.020677736 0.15451036
-0.021808013 0.018527826 0.15657189
-0.021827921 0.015612114 0.15794034
-0.022154685 0.012985945 0.15878987
-0.022368925 0.010357036 0.15963118
-0.022642216 0.0076326039 0.1607478
-0.022851961 0.0049298899 0.16106796
-0.023131989 0.001875247 0.16221811
-0.02319335 -0.0009282449 0.16244541
-0.023163311 -0.0034194707 0.16297849
-0.016448146 0.03495995 0.14391758
-0.016937811 0.032752033 0.14720671
-0.016951652 0.030541012 0.14807442
-0.017133193 0.028413488 0.15014379
-0.017426884 0.026030768 0.15205757
-0.017823856 0.023529809 0.15341398
-0.018271584 0.0207319 0.15544721
-0.018830428 0.018117078 0.15656759
-0.019110467 0.015213313 0.15746762
-0.019516533 0.012642216 0.15841189
-0.019437294 0.010371042 0.16005118
-0.020161659 0.0074579627 0.16162021
-0.020359367 0.0048103803 0.16204771
-0.020454513 0.0017014585 0.16307545
-0.020609906 -0.0012991888 0.16379435
-0.013877302 0.034571845 0.1441007
-0.014270659 0.032763563 0.14760467
-0.014474828 0.030547423 0.14810389
-0.014617053 0.028358696 0.15072963
-0.014798013 0.026078241 0.15200499
-0.01505472 0.02358642 0.15344112
-0.015612732 0.021242086 0.15628053
-0.016040908 0.01819413 0.15838286
-0.016267179 0.015223756 0.15953144
-0.016368879 0.012890884 0.16102892
-0.0167537 0.010032241 0.16254711
-0.017035879 0.0070660883 0.16258931
-0.017149834 0.0045707831 0.16349636
-0.017492231 0.0017660048 0.16466793
-0.017821921 -0.0012351807 0.16474105
-0.017806992 -0.0041696057 0.16631146
-0.01166211 0.035006057 0.14533328
-0.011914074 0.03299525 0.14779305
-0.012060892 0.030611107 0.14827766
-0.0120174 0.028100019 0.15076546
-0.012258344 0.025905862 0.15222435
-0.012361665 0.023554478 0.1533583
-0.013082337 0.021222293 0.15692693
-0.013364272 0.018519918 0.15930822
-0.013588762 0.015527223 0.16075547
-0.013697438 0.012982438 0.16282071
-0.013923786 0.0099028992 0.16355686
-0.014334565 0.0071854726 0.16490225
-0.014379152 0.0045904084 0.16531742
-0.014535693 0.0016794892 0.16616532
-0.014647611 -0.0010420198 0.16626866
-0.014581025 -0.0041133268 0.16801287
-0.009375683 0.035374414 0.14672495
-0.0095308339 0.033118367 0.14848919
-0.0095068431 0.030619925 0.1483123
-0.0094620623 0.028120004 0.15066577
-0.0094700037 0.02575502 0.15170312
-0.0095658088 0.023431106 0.15263225
-0.010184099 0.02116996 0.15632029
-0.010350418 0.018601391 0.15854101
-0.010718332 0.015670318 0.16058554
-0.01082223 0.013072423 0.16268472
-0.011393648 0.009680761 0.16429877
-0.011592486 0.0069999038 0.16560632
-0.011539297 0.0041078134 0.16720337
-0.011617905 0.0012772914 0.16754203
-0.011827347 -0.0013672281 0.16703682
-0.011632965 -0.004173466 0.16794814
-0.0069400729 0.035532411 0.14711975
-0.0070586638 0.033255715 0.1489145
-0.0070965239 0.030737547 0.14946568
-0.0069434717 0.028277624 0.15129171
-0.0068164757 0.025704561 0.15222761
-0.0069182175 0.023369227 0.15317172
-0.0072378698 0.020920847 0.15635507
-0.0073362184 0.018472558 0.15753305
-0.0077587455 0.015630029 0.15948717
-0.0080291489 0.013230599 0.1624396
-0.0085705472 0.0098806256 0.16522582
-0.0082023311 0.0066319644 0.16604744
-0.0086346501 0.0037774947 0.16698687
-0.0085762395 0.0010274643 0.16860083
-0.008537895 -0.0015825242 0.1680073
-0.0088491691 -0.0039484822 0.16800109
-0.0042130323 0.035380192 0.14683607
-0.004490369 0.033321526 0.14913873
-0.0044569089 0.030838391 0.15045045
-0.0042533535 0.028289745 0.15230303
-0.0041664867 0.025798682 0.15242986
-0.0042835395 0.023575727 0.15420768
-0.0046078875 0.020855874 0.1574671
-0.0044909478 0.018344885 0.1577705
-0.0047064587 0.015493614 0.15918581
-0.0046693715 0.013094917 0.16277082
-0.0049041598 0.010080137 0.16555618
-0.0054717558 0.0068983408 0.16741142
-0.0055052829 0.0034277737 0.16865344
-0.0063702511 0.0014695304 0.1698589
-0.0060659642 -0.0013843854 0.16957401
-0.0018141902 0.035174057 0.14728928
-0.0019251048 0.033193704 0.14915596
-0.0018105196 0.030875156 0.1510133
-0.0015702172 0.028420586 0.15237969
-0.001687943 0.026003676 0.15352412
-0.0020007552 0.02361225 0.15564902
-0.0021342994 0.020926731 0.15852916
-0.0020160314 0.018422645 0.15921444
-0.0019196382 0.015911018 0.16070487
-0.001660042 0.013257732 0.16311736
-0.0021674295 0.0099968938 0.16658521
-0.0025792627 0.0068687918 0.16824311
-0.0031842731 0.0034883465 0.16971077
-0.0035767616 0.0012332924 0.16981962
-0.0037806632 -0.0013458169 0.17067246
0.00070909393 0.03521958 0.14797907
0.00067589036 0.03301442 0.14916985
0.00048259713 0.03075484 0.15057015
0.00083818007 0.028398709 0.15269515
0.00086881529 0.026038807 0.15338758
0.00048582675 0.023796979 0.15680821
0.00036684098 0.021058572 0.15931356
0.00072870281 0.018852986 0.16036612
0.00086177158 0.01610012 0.16194862
0.0010697405 0.013179298 0.1643696
0.00048271433 0.009848902 0.16747357
0.00014287069 0.006689745 0.16934532
-0.00065537245 0.0034158628 0.17122939
-0.0010433566 0.0012514864 0.17168169
-0.0014296629 -0.001356539 0.17286433
0.0031617014 0.035111215 0.14806159
0.0031924467 0.032840408 0.14903422
0.0033190702 0.030565249 0.15055187
0.0033525752 0.028355846 0.15302314
0.0033600293 0.026013205 0.15511891
0.0033566908 0.023670143 0.15680213
0.0031890136 0.021233628 0.15893219
0.0035791008 0.018836394 0.16101965
0.0037582463 0.016119849 0.16255087
0.0038696979 0.013289249 0.16442184
0.0034068634 0.0099443123 0.16725494
0.0029817622 0.0067920424 0.16900918
0.0024263873 0.0033428895 0.17120925
0.0016646028 0.0015260794 0.17239109
0.0010770209 -0.0013003481 0.17513321
0.0056493543 0.035253271 0.14774486
0.005962674 0.033219472 0.14981321
0.0059687155 0.030768206 0.1510535
0.0058966451 0.028497692 0.15276827
0.0059570861 0.02605122 0.15517601
0.0060026939 0.023542978 0.1567311
0.0059484467 0.021298744 0.15858299
0.0063701412 0.018938441 0.16104378
0.0065515041 0.016115088 0.16326883
0.0065522157 0.013387227 0.16419911
0.0064076339 0.010495299 0.16647448
0.0064988253 0.007989875 0.16753718
0.0063031856 0.0050319145 0.1692699
0.0052122027 0.0017505239 0.17362799
0.0044363337 -0.00077885523 0.17601822
0.0085010771 0.035371505 0.14739275
0.0083478894 0.033270884 0.14998345
0.0083131436 0.030887295 0.15156305
0.0082572317 0.028610706 0.15318091
0.008253295 0.02621242 0.15449893
0.0085096704 0.023741543 0.15679926
0.0091146789 0.021466013 0.15923294
0.0090640252 0.018757064 0.16117801
0.0093479846 0.016117023 0.16253546
0.0091476645 0.013449562 0.16454177
0.0093915304 0.010784424 0.16595735
0.0093918201 0.0080293203 0.16731563
0.0096167978 0.0054174648 0.16967055
0.0084826574 0.0021744829 0.17466687
0.0078992136 -0.00034570406 0.17701416
0.01082633 0.035778653 0.14731853
0.010728583 0.033217512 0.15016924
0.010762253 0.030869715 0.15134072
0.010852471 0.028778028 0.15317638
0.010931846 0.026670765 0.15583551
0.011113867 0.024219071 0.1589829
0.011862513 0.021514867 0.16007487
0.012022357 0.018815553 0.16201031
0.01220541 0.015980942 0.16330361
0.011916269 0.013451368 0.16511606
0.012093998 0.010787759 0.16555792
0.012166772 0.008243938 0.16725481
0.012174669 0.0060073389 0.17012632
0.011598694 0.0026988909 0.1754825
0.011102994 0.00010320704 0.17768317
0.012963723 0.036782127 0.14480095
0.013300134 0.03407526 0.1483757
0.01355248 0.030808521 0.15104258
0.01357075 0.02857691 0.15499794
0.013467519 0.026665183 0.15790948
0.01403727 0.024125222 0.16006909
0.014299626 0.021494824 0.16073562
0.01471727 0.018879751 0.16192833
0.014755988 0.015858632 0.16363853
0.014751172 0.013334835 0.16506343
0.014574743 0.01070778 0.16543883
0.014883549 0.0083808703 0.16770373
0.014845552 0.0059933234 0.17180005
0.014818776 0.0031670965 0.17509796
0.014290146 0.00029739211 0.17687847
0.015852274 0.034965772 0.14680223
0.016162962 0.030845499 0.15082213
0.016575223 0.02806595 0.15670975
0.016683165 0.026507199 0.15894873
0.016696848 0.0241722 0.16048735
0.017002666 0.021596447 0.16216572
0.01778622 0.018694267 0.16225564
0.017436804 0.015899111 0.16330959
0.017396567 0.013349821 0.16558675
0.017264454 0.010500695 0.16693775
0.017914936 0.008132237 0.16980104
0.017930923 0.0058586881 0.17221718
0.01736486 0.0030789799 0.17389178
0.016735943 0.00038908955 0.1756845
0 0 0 1 0 0 0 1 0 0 0 1 0 0 0 0 0 252 1 0 0
