ply
format ascii 1.0
comment PCL generated
element vertex 252
property float x
property float y
property float z
element camera 1
property float view_px
property float view_py
property float view_pz
property float x_axisx
property float x_axisy
property float x_axisz
property float y_axisx
property float y_axisy
property float y_axisz
property float z_axisx
property float z_axisy
property float z_axisz
property float focal
property float scalex
property float scaley
property float centerx
property float centery
property int viewportx
property int viewporty
property float k1
property float k2
end_header
-0.024241339 0.034234777 0.1451721
-0.024151988 0.032324605 0.14626065
-0.024277408 0.03039363 0.14866486
-0.024661735 0.028153595 0.15023226
-0.025480827 0.025344549 0.15232083
-0.025735684 0.022970488 0.15358989
-0.02634047 0.020951794 0.15635522
-0.026572047 0.01890691 0.15853235
-0.021718549 0.034071498 0.14356016
-0.021985078 0.032115541 0.14500253
-0.022093898 0.030341653 0.14809741
-0.022258706 0.028054006 0.14917815
-0.022799009 0.025432307 0.1514211
-0.023226898 0.022910912 0.15252347
-0.023881922 0.020500725 0.15434772
-0.024365755 0.018202225 0.15697005
-0.024588484 0.015648065 0.15842427
-0.024874413 0.012973853 0.15875635
-0.024916159 0.010100266 0.15976998
-0.025224239 0.0073479437 0.16057071
-0.025563134 0.0045735287 0.16046885
-0.025611617 0.0018639322 0.16111365
-0.026124178 -0.00075178087 0.16271532
-0.019150626 0.034046277 0.14349465
-0.019468075 0.032199975 0.14583895
-0.019649891 0.030250156 0.1479148
-0.019830491 0.028156459 0.14956874
-0.01996698 0.025698697 0.15129425
-0.020629773 0.023003826 0.15270053
-0.021001084 0.020296218 0.15380356
-0.021815395 0.018125433 0.15603095
-0.02180662 0.015204999 0.15742646
-0.022164794 0.012584396 0.15829915
-0.022361603 0.0099868085 0.15914267
-0.022602132 0.0072940495 0.16040184
-0.022894459 0.0045811161 0.16083555
-0.023317961 0.001707001 0.16248849
-0.023514394 -0.0010135013 0.16313832
-0.023610543 -0.0034114781 0.1639588
-0.016518276 0.034378279 0.14304028
-0.017020343 0.032264415 0.14656313
-0.017049929 0.030215655 0.14764659
-0.017179677 0.028263593 0.1498155
-0.017443493 0.025902811 0.15166225
-0.017845018 0.023308145 0.1528268
-0.018309239 0.020412775 0.15476482
-0.018780531 0.017680723 0.15597373
-0.019090125 0.014777119 0.15698192
-0.019531 0.012216267 0.1579092
-0.019383764 0.009981174 0.15945736
-0.020063262 0.0070848614 0.16107102
-0.020352591 0.0044140271 0.16163969
-0.020652896 0.0015120861 0.1633333
-0.020955259 -0.0013393223 0.16447546
-0.013955221 0.034170553 0.14320453
-0.014385013 0.032451045 0.14670846
-0.014610407 0.030260881 0.14747092
-0.014656831 0.028181933 0.15029405
-0.014832313 0.02587015 0.15141207
-0.015106582 0.02324204 0.15263939
-0.01561657 0.020792715 0.15542854
-0.016025372 0.017641567 0.15749897
-0.016200248 0.014760535 0.15888937
-0.016310349 0.012536005 0.16068442
-0.016727205 0.0097042015 0.16220164
-0.0169951 0.006734272 0.16228788
-0.01718878 0.0043596206 0.1633646
-0.017655816 0.0016753839 0.16472682
-0.018125527 -0.001296974 0.16518727
-0.018190589 -0.0040796255 0.16699249
-0.011712334 0.034643605 0.14434826
-0.011979182 0.03280466 0.14678919
-0.012157924 0.030434044 0.14737028
-0.012201035 0.027910594 0.15053205
-0.01234277 0.025629986 0.15164737
-0.012432266 0.023213003 0.15264046
-0.013108372 0.02077521 0.15611379
-0.01334702 0.018001428 0.15838389
-0.013557518 0.015073002 0.16006452
-0.013712854 0.012648078 0.16253757
-0.013955961 0.0096294601 0.16340001
-0.014419532 0.0070242072 0.16483022
-0.014482894 0.0045048101 0.16534436
-0.014687658 0.001607328 0.16620243
-0.01484196 -0.0011157166 0.16628301
-0.014832499 -0.0041753571 0.16803986
-0.0094101876 0.035055995 0.1456105
-0.0095888153 0.032924563 0.1474231
-0.0096098464 0.03043578 0.14745939
-0.0096186185 0.028061859 0.15043922
-0.0095851496 0.025560467 0.15129997
-0.009649802 0.023176368 0.15207097
-0.010245005 0.020848325 0.155669
-0.010354234 0.018309118 0.15790676
-0.010663576 0.015336576 0.16008227
-0.010827415 0.012758513 0.1624569
-0.011468519 0.0094687371 0.164318
-0.011691993 0.0068966048 0.16572367
-0.011678889 0.0040138299 0.16728671
-0.011801372 0.001181889 0.16762276
-0.012037717 -0.0014482018 0.16706721
-0.011886455 -0.0042503015 0.16798085
-0.0069399155 0.035095531 0.14595832
-0.0071094786 0.033021744 0.14772172
-0.0071880431 0.030607486 0.14859459
-0.0071162442 0.028226977 0.15111557
-0.0069706449 0.025562359 0.15196046
-0.0070109237 0.023194198 0.15280397
-0.0073147146 0.020826468 0.15611996
-0.0073988279 0.018408136 0.1572814
-0.0078075081 0.015607256 0.15930104
-0.0080546867 0.013091306 0.16241169
-0.0086925467 0.0096838092 0.16527906
-0.0083098095 0.0065436182 0.16628763
-0.008792541 0.0036864602 0.16718069
-0.0088116853 0.00091057899 0.16881074
-0.0087972144 -0.0016382578 0.16820987
-0.0091220345 -0.0039794655 0.16809548
-0.0041356734 0.034817815 0.14581493
-0.0045324238 0.032886431 0.14822794
-0.004579904 0.030622717 0.1497097
-0.0044023059 0.028095288 0.15202297
-0.0043187789 0.025615726 0.15208715
-0.0044069542 0.023302972 0.15393706
-0.0046045496 0.020728974 0.15711218
-0.0045623141 0.018263329 0.15752499
-0.0048157917 0.015500269 0.15909965
-0.0048092045 0.013183371 0.16301467
-0.005170383 0.010135638 0.16598877
-0.0058114445 0.0068744556 0.16790867
-0.0060075596 0.0034171375 0.16947438
-0.0066473125 0.0012790893 0.1703378
-0.0063443384 -0.0015477452 0.16982344
-0.0017825452 0.034689803 0.14657483
-0.0019911304 0.032793291 0.14851028
-0.0019625723 0.030560283 0.15055664
-0.0016985742 0.02817481 0.15205258
-0.0018224685 0.025733629 0.15311031
-0.0020781797 0.023340249 0.15523164
-0.0020645985 0.020693835 0.15805581
-0.0020105583 0.018278623 0.1588203
-0.0019727664 0.015894616 0.16053736
-0.0019785608 0.013472708 0.1635931
-0.0025188741 0.010162159 0.16718091
-0.0029832285 0.0069434107 0.16898796
-0.0036233119 0.0033722084 0.17030311
-0.0038911817 0.0010461727 0.17014918
-0.0040186476 -0.0016174614 0.1707506
0.00071671582 0.034775954 0.14750709
0.00060712569 0.032626525 0.14874588
0.00033662174 0.030398212 0.15015377
0.00069606031 0.028114123 0.15229796
0.00074345659 0.025729738 0.15293281
0.00042833216 0.023459176 0.15632005
0.00044123779 0.020771828 0.15870947
0.00074306631 0.018658128 0.1599053
0.00075300492 0.016119283 0.1618593
0.0008332904 0.013402425 0.16472071
9.0091969e-05 0.010101407 0.16814539
-0.0003021259 0.0067884228 0.17010824
-0.00096796534 0.0030657873 0.17161103
-0.0012712567 0.00085565058 0.17178674
-0.0015827139 -0.0018548268 0.17269714
0.0031853511 0.03464048 0.14772566
0.0031822028 0.032382082 0.14871623
0.0033161233 0.030017724 0.14999488
0.0032623115 0.027659284 0.15209393
0.0032591461 0.025423614 0.15428321
0.0032765763 0.023174936 0.15612152
0.0031638455 0.020813512 0.15830576
0.0035362048 0.018677616 0.16064763
0.0036384382 0.016131256 0.16247723
0.0036585247 0.013455176 0.16464773
0.0030567159 0.010191144 0.16778232
0.00252707 0.0069687529 0.16973048
0.0021048556 0.0029583971 0.17130552
0.001476608 0.00097564689 0.17230415
0.0010051909 -0.0020684402 0.17472103
0.0057205837 0.034697387 0.14732768
0.0060161147 0.032656841 0.14929782
0.00606177 0.030254779 0.1504174
0.0059081181 0.027858138 0.1518635
0.0058756908 0.025339257 0.15417461
0.0059022163 0.022876937 0.15582763
0.0059336964 0.020766066 0.1579451
0.0063242172 0.018716851 0.16059324
0.0064500771 0.016122926 0.16317059
0.0063816616 0.01350564 0.1643624
0.0061005503 0.010657721 0.16669528
0.0060845125 0.0081189107 0.16765426
0.0058302549 0.0050182445 0.16923688
0.0049918317 0.0011251107 0.1731461
0.0043869982 -0.001641886 0.17545189
0.0085985083 0.034811303 0.14693002
0.0083804755 0.032823183 0.14958026
0.0083538871 0.030568514 0.15117516
0.0082378965 0.02822124 0.15264821
0.0082183722 0.025704751 0.15378499
0.0084203286 0.023093905 0.15590824
0.0093317693 0.020746358 0.15814775
0.0091160731 0.01826662 0.16037969
0.0092826271 0.01596868 0.16228308
0.0089299101 0.013505754 0.16454566
0.0090806289 0.010822308 0.16588457
0.0089778295 0.0080565382 0.16716799
0.0091908593 0.0052904412 0.16938467
0.0082173748 0.0015770695 0.17406625
0.0077596572 -0.0011634055 0.17625819
0.010954858 0.035358138 0.14698309
0.010717503 0.033040024 0.14998043
0.0108271 0.030792661 0.15120602
0.010849676 0.028706428 0.15305261
0.010719316 0.026488265 0.15554878
0.011057701 0.02373204 0.15836343
0.011932127 0.020952126 0.15937813
0.012025446 0.018307159 0.16126555
0.012093348 0.015662821 0.16279681
0.011690528 0.013336763 0.16488315
0.011757758 0.010694524 0.1653655
0.01178433 0.0081370929 0.16706313
0.011746584 0.0057482803 0.16977595
0.011294056 0.0020620131 0.17480841
0.010911574 -0.00072011008 0.17681184
0.013352453 0.036568474 0.14467986
0.013520717 0.034141541 0.14850324
0.013671207 0.031023437 0.15130536
0.013370921 0.02870338 0.15518108
0.013240447 0.026426939 0.15772469
0.013866552 0.0237481 0.15970407
0.014201364 0.021105323 0.16035295
0.01469748 0.018488141 0.16159745
0.014579569 0.015572418 0.16336641
0.014486757 0.013073733 0.16477333
0.014219281 0.010504252 0.16522697
0.014515363 0.0081617823 0.16747069
0.014408234 0.0055436366 0.17138602
0.014364127 0.0025629699 0.17445301
0.013927567 -0.00042585284 0.17593414
0.016204011 0.035148125 0.1471456
0.016296085 0.03133481 0.15143161
0.016253157 0.028345162 0.15716553
0.0163753 0.026451617 0.1591185
0.016414765 0.023938432 0.16044569
0.016725114 0.021338597 0.16212091
0.017676257 0.018455548 0.16252242
0.017249316 0.015578445 0.16328757
0.017087162 0.012993845 0.16534783
0.016868072 0.010202392 0.16675533
0.017567603 0.0076703527 0.16957925
0.01750005 0.0053410758 0.17188905
0.016842801 0.0025269825 0.17334476
0.016241059 -0.0002355465 0.17482892
0 0 0 1 0 0 0 1 0 0 0 1 0 0 0 0 0 252 1 0 0
