ply
format ascii 1.0
comment PCL generated
element vertex 252
property float x
property float y
property float z
element camera 1
property float view_px
property float view_py
property float view_pz
property float x_axisx
property float x_axisy
property float x_axisz
property float y_axisx
property float y_axisy
property float y_axisz
property float z_axisx
property float z_axisy
property float z_axisz
property float focal
property float scalex
property float scaley
property float centerx
property float centery
property int viewportx
property int viewporty
property float k1
property float k2
end_header
-0.024167286 0.034110263 0.14499961
-0.024047622 0.03215906 0.14600889
-0.024212647 0.030113271 0.14829232
-0.024530133 0.02786877 0.14980939
-0.025103955 0.025409527 0.15235066
-0.025366118 0.023164323 0.15378951
-0.026063845 0.021163395 0.15657862
-0.02641435 0.019015614 0.15855208
-0.021538204 0.034112599 0.14358981
-0.021814693 0.032105617 0.144934
-0.022030277 0.030147178 0.14783727
-0.022121288 0.027808804 0.14875738
-0.022533627 0.025328202 0.15112446
-0.022915224 0.022904851 0.15239756
-0.023630708 0.020680223 0.1544867
-0.024205888 0.018368389 0.15713514
-0.024496688 0.01573679 0.15830538
-0.024770591 0.013182922 0.1585087
-0.024835534 0.010321083 0.15934929
-0.025109498 0.0074003902 0.15957196
-0.025116295 0.0046658055 0.15896735
-0.025196852 0.001944398 0.1596224
-0.025654776 -0.00080360525 0.1612066
-0.018969094 0.034227077 0.14375839
-0.019360514 0.032250058 0.14597155
-0.019574743 0.03015076 0.14784281
-0.019751523 0.027897898 0.14930156
-0.019770412 0.025438167 0.15081041
-0.020367788 0.022839634 0.15224186
-0.020786753 0.020315977 0.15366395
-0.021669012 0.018387746 0.15642011
-0.021649942 0.015523637 0.15758228
-0.022056663 0.012815393 0.15815769
-0.022276599 0.010260204 0.15902749
-0.022512941 0.0075450898 0.15986423
-0.022616932 0.0048059509 0.15998745
-0.022993742 0.0017811875 0.16110989
-0.022997905 -0.001053958 0.16138607
-0.022973651 -0.0035533179 0.16195661
-0.016425218 0.03455697 0.14348507
-0.016967801 0.032398626 0.14696209
-0.016952928 0.030279327 0.1478778
-0.017141286 0.028146787 0.1498449
-0.017344039 0.025641827 0.15138422
-0.017621446 0.023022821 0.15238163
-0.018036295 0.020190179 0.15426974
-0.018622415 0.018016508 0.15634947
-0.018957445 0.015141374 0.1569957
-0.019407092 0.012484246 0.15769701
-0.019344926 0.010241966 0.15908791
-0.020080494 0.0073461472 0.16075642
-0.020380208 0.0047343164 0.16146962
-0.020291081 0.00156604 0.16181904
-0.020298321 -0.0014512062 0.16230562
-0.013910275 0.034261517 0.14368522
-0.014388029 0.03259673 0.14733213
-0.014536604 0.030467229 0.14803392
-0.014658109 0.028164536 0.15056866
-0.014731894 0.025781637 0.15153913
-0.014945854 0.023229228 0.15291843
-0.015433571 0.020734638 0.1553199
-0.015819972 0.017418791 0.15711568
-0.016110934 0.014671284 0.15800856
-0.016220225 0.01266218 0.15908162
-0.016455995 0.0098092752 0.16056316
-0.016764292 0.006858049 0.16059004
-0.016879518 0.0045006261 0.16146763
-0.017202633 0.0018115832 0.16237831
-0.017459907 -0.0012755686 0.16254379
-0.017230615 -0.004268555 0.16395234
-0.011744275 0.03476005 0.14491868
-0.012022228 0.032841153 0.1473377
-0.012132986 0.030455561 0.1479457
-0.012159326 0.027939618 0.15081939
-0.012299755 0.025812401 0.15216208
-0.01235671 0.023482075 0.1532626
-0.012976551 0.020771634 0.15623878
-0.013157458 0.017626032 0.15792041
-0.013427778 0.014813917 0.158793
-0.013360975 0.012606874 0.16056824
-0.013480038 0.0096020782 0.16116048
-0.013791324 0.006941413 0.16228496
-0.013827948 0.0044333125 0.1627346
-0.01402482 0.0016195799 0.16349436
-0.014088133 -0.0010726125 0.16341376
-0.013907989 -0.0042263665 0.16487017
-0.0095129563 0.03522912 0.14631166
-0.0096550928 0.033009797 0.14805359
-0.0095825801 0.030483635 0.14804791
-0.0095820501 0.028068721 0.1508078
-0.009590867 0.025841726 0.15201204
-0.0096407291 0.02359971 0.15287241
-0.010163421 0.021005223 0.15599909
-0.010166815 0.018046906 0.15757661
-0.01050204 0.014975896 0.15890807
-0.010469447 0.012615751 0.16028602
-0.010846788 0.009272919 0.16161408
-0.010989181 0.0067555141 0.16287155
-0.010984454 0.0039092586 0.16439228
-0.011067973 0.0011236249 0.16475894
-0.011178882 -0.0014607551 0.16409567
-0.010852239 -0.0043074512 0.16488163
-0.0071294662 0.035370965 0.14685917
-0.0072080214 0.033173315 0.14846988
-0.0071990369 0.030715307 0.14925371
-0.0071079684 0.02832232 0.15155686
-0.0070160567 0.025920106 0.15271662
-0.0070515755 0.023699949 0.15361024
-0.0072554266 0.02089077 0.15633295
-0.0072434386 0.018250065 0.15701282
-0.0076242657 0.015162028 0.15848723
-0.0076040723 0.012364745 0.15996188
-0.0077122869 0.0090443259 0.16196005
-0.0074534346 0.0061456924 0.16327043
-0.0080588609 0.0035321803 0.16431279
-0.0080824643 0.00080896617 0.16603138
-0.0077948552 -0.0017250861 0.16552298
-0.0078831259 -0.0040879976 0.16545421
-0.0044036852 0.035230447 0.14694293
-0.0047493014 0.033185136 0.14924482
-0.0046966206 0.030852808 0.15056261
-0.004471336 0.028436927 0.1526822
-0.0044185403 0.025959587 0.15278283
-0.0044558821 0.023590619 0.15442224
-0.0045814007 0.02064042 0.15720674
-0.0044153561 0.018137116 0.15735278
-0.0045836112 0.015177625 0.15854754
-0.0037651174 0.01193416 0.1607057
-0.0041670082 0.0090954397 0.16327915
-0.0050942753 0.0063402508 0.1652896
-0.0051757563 0.003206555 0.16714202
-0.006281808 0.0013688914 0.1680831
-0.0057353475 -0.0014334383 0.16787329
-0.0020558205 0.035137031 0.14770767
-0.0022298309 0.033186931 0.1495944
-0.0021232029 0.030912163 0.15140508
-0.0017637975 0.028503824 0.15268226
-0.001875208 0.026049318 0.15366969
-0.0020968739 0.023454098 0.15562612
-0.0020795574 0.020586738 0.1582575
-0.001940224 0.018133659 0.15882131
-0.0016860786 0.015550795 0.16006917
-0.0009851224 0.012156105 0.16165255
-0.0018466604 0.0093802549 0.1650483
-0.0026351425 0.0067194379 0.16718325
-0.0033499557 0.003582746 0.16882664
-0.0035808533 0.0013297402 0.16882755
-0.0037402834 -0.0012678626 0.16954157
0.00041521125 0.035253 0.14862274
0.00036025132 0.033070054 0.14986345
0.0001552201 0.03083214 0.15115809
0.00064374396 0.028475925 0.15286681
0.00070553256 0.026049165 0.15337442
0.00045718724 0.023414219 0.15658388
0.00039600561 0.02064888 0.1590054
0.00093235739 0.018505661 0.15985633
0.0011627969 0.015677206 0.16115104
0.0014358179 0.012496465 0.16339445
0.00050674187 0.0094562164 0.16652802
-0.00036928389 0.006931169 0.16903144
-0.0014469567 0.0038313642 0.17110424
-0.0015747503 0.0015708462 0.17133418
-0.001841491 -0.0011787736 0.17221783
0.0028610949 0.035125796 0.14874916
0.0028865396 0.032866657 0.14974384
0.0030245415 0.030539313 0.15101507
0.0031321745 0.028070489 0.15265402
0.0031971794 0.025675505 0.15463874
0.0032594092 0.023270413 0.15628707
0.0032606907 0.020760093 0.15835229
0.0038717228 0.018498663 0.16043308
0.0040087774 0.015761118 0.16188072
0.0041392855 0.01284703 0.16370972
0.0035398907 0.0095804604 0.1666581
0.0025390163 0.0069820913 0.16935463
0.0014657396 0.0041148826 0.1721441
0.00078807841 0.0021738331 0.17282216
3.2610827e-05 -0.00088067021 0.17509054
0.0052970038 0.03503627 0.14798003
0.0057129501 0.032922667 0.14976875
0.0057600597 0.030471968 0.15054844
0.0056325942 0.02812246 0.15208662
0.0057664765 0.025593672 0.15444262
0.0058437125 0.023036176 0.15596326
0.0060202973 0.020883856 0.158016
0.0066551729 0.018661268 0.16045961
0.0067840158 0.015827861 0.16273962
0.0067660664 0.013122742 0.16364737
0.0065079816 0.010484855 0.16620931
0.0065604211 0.0082059363 0.16759677
0.0060780905 0.0055063306 0.16970585
0.004183745 0.0025718152 0.17428328
0.0031740854 4.9489634e-05 0.17680229
0.0080882506 0.034937292 0.14713304
0.0080880858 0.032895368 0.14959976
0.0080926772 0.03045666 0.15082923
0.0080199009 0.028228227 0.15242283
0.0079890518 0.025805037 0.15366514
0.0083274003 0.023200056 0.15588135
0.009427716 0.021165032 0.15856721
0.0094254566 0.01851687 0.16071124
0.0096572144 0.015961174 0.16211765
0.0091996947 0.013430924 0.16408563
0.0093895411 0.01089025 0.16566163
0.0093368609 0.0083147809 0.16731741
0.0094937729 0.0058830432 0.16988324
0.0075837104 0.0028945759 0.17503268
0.0067288494 0.00057259685 0.17764895
0.010458708 0.035202097 0.1466632
0.010465149 0.032813158 0.14941397
0.010545497 0.030508777 0.15042616
0.010679799 0.028422492 0.15235463
0.010753905 0.0263351 0.15506981
0.011134984 0.024171665 0.15849012
0.012068115 0.021439927 0.15979962
0.012222366 0.018934242 0.16194746
0.012332885 0.016209938 0.16332926
0.011919998 0.013497661 0.16469295
0.012065704 0.010847213 0.16516504
0.012110575 0.0084068514 0.16712677
0.012007941 0.0063184728 0.17020051
0.010804657 0.0033799254 0.17578694
0.010015953 0.000964851 0.17827533
0.012692526 0.035765592 0.14366041
0.013164951 0.033444084 0.14743163
0.013443371 0.030561551 0.15043728
0.013394672 0.028596424 0.15453492
0.013358444 0.026773501 0.15761578
0.014005917 0.024222951 0.15983768
0.01434894 0.021603849 0.16065858
0.014875798 0.019136647 0.16223201
0.014791601 0.016163783 0.16391006
0.014726643 0.013455968 0.16490412
0.0145425 0.010754716 0.16507949
0.014851902 0.0085048638 0.1675301
0.01448443 0.0062814872 0.17194188
0.014070295 0.0037057425 0.17547499
0.013371238 0.0010129835 0.17739555
0.015764793 0.034080647 0.14570054
0.016095314 0.030753478 0.15040506
0.016347222 0.028563589 0.15665336
0.016519208 0.026839525 0.15891835
0.016567487 0.024367707 0.16047414
0.016917849 0.021855207 0.16230011
0.017894022 0.019001389 0.16277765
0.017464977 0.016205395 0.16378364
0.017264834 0.013503422 0.1657591
0.017085899 0.01058435 0.16680145
0.017697509 0.0084010195 0.17020155
0.017519986 0.0062003806 0.17266624
0.016744548 0.0035495718 0.17441584
0.015964352 0.0010665653 0.1760159
0 0 0 1 0 0 0 1 0 0 0 1 0 0 0 0 0 252 1 0 0
