ply
format ascii 1.0
comment PCL generated
element vertex 252
property float x
property float y
property float z
element camera 1
property float view_px
property float view_py
property float view_pz
property float x_axisx
property float x_axisy
property float x_axisz
property float y_axisx
property float y_axisy
property float y_axisz
property float z_axisx
property float z_axisy
property float z_axisz
property float focal
property float scalex
property float scaley
property float centerx
property float centery
property int viewportx
property int viewporty
property float k1
property float k2
end_header
-0.023860218 0.033929732 0.14435524
-0.023771215 0.031921148 0.1452167
-0.024045147 0.029819762 0.14746134
-0.024476435 0.027700791 0.14932366
-0.025179772 0.025666805 0.15334775
-0.025732562 0.023404062 0.15522757
-0.026333848 0.021164672 0.15816362
-0.026524078 0.018899992 0.15989365
-0.02109053 0.034000371 0.14294837
-0.021425078 0.031905685 0.14408526
-0.021826081 0.029789908 0.14689419
-0.02206623 0.027550906 0.14801899
-0.022708425 0.025370695 0.15152365
-0.02342098 0.023005299 0.15317684
-0.024347551 0.020694189 0.15541482
-0.024725974 0.018148821 0.1579598
-0.02504749 0.015484834 0.15904227
-0.025417741 0.012901971 0.15913057
-0.025579672 0.0099007199 0.1597254
-0.026023671 0.0070281052 0.16003372
-0.026489489 0.0043102172 0.15987109
-0.026551522 0.0015369451 0.16022469
-0.027114643 -0.0012097443 0.16142739
-0.018563112 0.034092203 0.14331098
-0.019052405 0.031912308 0.14521551
-0.019371094 0.029739276 0.14694446
-0.019683892 0.027575657 0.14861999
-0.019912979 0.025292793 0.15075809
-0.02084385 0.022625782 0.15254836
-0.021624751 0.020073695 0.15397799
-0.022353658 0.017917898 0.15685067
-0.022323046 0.015010753 0.15806064
-0.022816852 0.012355148 0.15851763
-0.023176998 0.0097282473 0.15897329
-0.023494035 0.0069403965 0.15994385
-0.023899207 0.0041775233 0.16041945
-0.024406372 0.00126519 0.16161105
-0.024536574 -0.0015392854 0.16180527
-0.024660069 -0.0040534348 0.16251677
-0.015895365 0.034566645 0.14328246
-0.016739447 0.031965308 0.14625657
-0.016775655 0.02984249 0.14714357
-0.017113997 0.027816778 0.1492721
-0.017423227 0.025389919 0.15104461
-0.017930444 0.022610707 0.15220982
-0.018576367 0.019513989 0.15421017
-0.019220797 0.017468708 0.15686144
-0.019636827 0.014576211 0.15761648
-0.020218503 0.011943131 0.15807118
-0.020291904 0.0095956493 0.15913746
-0.021109043 0.0065387054 0.16061354
-0.021447316 0.0038354243 0.1614663
-0.021808408 0.00092682551 0.16245502
-0.021944776 -0.0020199222 0.16305184
-0.01340107 0.034287427 0.1437809
-0.014190875 0.03233872 0.14709865
-0.014383431 0.030095663 0.14760192
-0.014679129 0.027834103 0.15015014
-0.014755421 0.025348844 0.15104361
-0.015051902 0.02265472 0.15229209
-0.015733028 0.019992867 0.15515533
-0.016380582 0.016911618 0.15772428
-0.016794987 0.014064089 0.15878192
-0.017016098 0.011929741 0.15989004
-0.017504672 0.0091393134 0.16135025
-0.018015461 0.0062083369 0.1616172
-0.018226916 0.0036310446 0.16294563
-0.018358203 0.00082245481 0.16404262
-0.018951517 -0.0020177381 0.16393866
-0.018900085 -0.0048810542 0.16552348
-0.011338879 0.034756172 0.14520344
-0.01186708 0.032721017 0.14751324
-0.012032973 0.030356403 0.1481245
-0.01214751 0.027472287 0.1508154
-0.012266353 0.025129154 0.15161365
-0.012371929 0.022742363 0.15257072
-0.013237286 0.020034887 0.1561152
-0.013683863 0.017146571 0.15848523
-0.014170467 0.014157567 0.15971319
-0.014256248 0.011907422 0.16164136
-0.014665097 0.0088143637 0.16238371
-0.015249305 0.0059616659 0.16381283
-0.015264571 0.0034310743 0.16477138
-0.015395253 0.00076481263 0.16596977
-0.015464359 -0.0019616606 0.16621965
-0.015329788 -0.0047293683 0.16807985
-0.009233797 0.035179723 0.14676394
-0.0095515614 0.03288966 0.14848115
-0.0095428377 0.030411247 0.14851338
-0.009584954 0.027772725 0.15102749
-0.0095364796 0.025214572 0.15149178
-0.0095893089 0.022882113 0.1521422
-0.0103164 0.020275949 0.15583815
-0.010516608 0.017655261 0.15816607
-0.011074384 0.014538014 0.15998922
-0.011321882 0.011907026 0.16156633
-0.012173136 0.0083062034 0.16306083
-0.012504106 0.005700964 0.16451949
-0.012378588 0.0031634823 0.16645007
-0.012527005 0.00049024797 0.16741399
-0.012695034 -0.0021126526 0.16713029
-0.012436274 -0.0047080102 0.16818295
-0.0068466295 0.035311934 0.14739619
-0.0071786614 0.033094198 0.14908133
-0.0072287661 0.030599495 0.14982538
-0.0071319705 0.027931247 0.1517664
-0.0069226217 0.025280455 0.15213625
-0.0069517922 0.023023285 0.15293054
-0.007239073 0.020622296 0.15658456
-0.007419433 0.018164551 0.15790908
-0.0079588704 0.015362745 0.16005027
-0.008452055 0.012374682 0.16170457
-0.0093471324 0.008803227 0.16369176
-0.009000645 0.0053205281 0.16485746
-0.009607139 0.0027325647 0.16645063
-0.0095311003 0.00048293499 0.16848876
-0.00939612 -0.0020313209 0.16802691
-0.0096358526 -0.0043229815 0.16784129
-0.0041463682 0.035090871 0.14735591
-0.0045547187 0.03296097 0.14956845
-0.0046298346 0.030568561 0.15086637
-0.0042958227 0.027860293 0.15219976
-0.0041484684 0.025350861 0.15212403
-0.0041843215 0.023022657 0.15397359
-0.0045626024 0.020612396 0.15756084
-0.0044574416 0.018281033 0.15833484
-0.0047202706 0.015596271 0.16014715
-0.0052962098 0.013150964 0.16300116
-0.0059557743 0.0099749863 0.16514759
-0.0065213824 0.00660623 0.16690242
-0.0061129141 0.0031119902 0.16864346
-0.0070685102 0.00097382208 0.16958483
-0.0067511834 -0.0018632644 0.1691606
-0.0018150078 0.034880348 0.14797767
-0.0020138219 0.032843936 0.14976232
-0.0019902932 0.030505208 0.15132748
-0.0015644341 0.027995337 0.15220554
-0.001626223 0.025507573 0.15312673
-0.0019577579 0.023166053 0.15546907
-0.0020103534 0.020712551 0.15852225
-0.0018970774 0.018394975 0.15957502
-0.0017317843 0.016066043 0.16108996
-0.0024146261 0.013550844 0.16357048
-0.0033451626 0.010217437 0.16658227
-0.0037722357 0.0070136795 0.16842532
-0.0038187068 0.0032116936 0.1695133
-0.0042221639 0.00077891978 0.16928507
-0.0043465802 -0.0019199259 0.1700357
0.00067081978 0.034893524 0.14882529
0.00056919095 0.03265151 0.14990988
0.00031478718 0.030369436 0.15105648
0.00082246895 0.027976032 0.15243134
0.00093179406 0.025569988 0.15296893
0.00049826677 0.023375465 0.15663102
0.00046529088 0.020853158 0.15926903
0.0009011139 0.018865239 0.16023538
0.00081483973 0.01624826 0.16176932
0.00055580982 0.013389767 0.16452505
-0.00067755592 0.010241638 0.16773695
-0.0011060002 0.0070161703 0.16970412
-0.0012289581 0.0030117694 0.17087609
-0.0015626161 0.00070836622 0.17094122
-0.0018336256 -0.0020860208 0.17202903
0.003093157 0.034778405 0.14899907
0.0031160491 0.032501899 0.14990212
0.0033285702 0.030253725 0.15119536
0.0034908731 0.02788586 0.15289719
0.0034488731 0.025457593 0.15488593
0.0034520978 0.023135768 0.15657471
0.00327697 0.02080711 0.15860879
0.003647398 0.018757485 0.16065367
0.003616822 0.016155051 0.16225599
0.0035504277 0.013419108 0.16434519
0.002556867 0.010216285 0.16743089
0.0017129947 0.007193028 0.1695361
0.0018538794 0.0030647765 0.17090859
0.0011410682 0.00099521852 0.17171469
0.00070073159 -0.0022632694 0.17419152
0.0055070003 0.03501391 0.14863136
0.0059628277 0.032989122 0.15060753
0.0060616713 0.030776113 0.15178166
0.0059781522 0.028436925 0.15318896
0.0060672048 0.02568683 0.1553043
0.0061465739 0.023144603 0.15670872
0.0059951432 0.02097486 0.15848321
0.0064239791 0.018834917 0.16064334
0.0064503793 0.016128547 0.16305064
0.0062972032 0.013452114 0.16407429
0.0059369984 0.010632504 0.16623765
0.0058747628 0.0082424013 0.16739149
0.0055171605 0.0053850431 0.16951257
0.0046679461 0.0011918314 0.17307894
0.004151254 -0.0016857006 0.17526665
0.0083939014 0.03529438 0.14836867
0.008305476 0.033209536 0.15084502
0.0083554015 0.031013852 0.15233868
0.0083175469 0.028768428 0.15383828
0.0083564669 0.026282286 0.15499303
0.0086360136 0.02361447 0.15705286
0.0091981404 0.02142168 0.15887515
0.0091453008 0.018673707 0.16091301
0.0093138637 0.016094113 0.1623776
0.0088038649 0.013588845 0.16424546
0.008954633 0.011031461 0.1656934
0.0088176196 0.0083725918 0.16717745
0.0090697389 0.0057358104 0.1697097
0.0080881575 0.0015788322 0.17397058
0.007628317 -0.0011666127 0.17591216
0.010689132 0.035901688 0.14824459
0.010659751 0.033398859 0.15090799
0.010769369 0.031129973 0.15201001
0.010956101 0.02910541 0.15388668
0.011023691 0.026977694 0.15654993
0.011241027 0.024354503 0.15875128
0.01195009 0.021294216 0.15950546
0.012070849 0.018666988 0.16154188
0.012068725 0.016015537 0.16313206
0.011534899 0.013693818 0.16490318
0.011591787 0.011053221 0.16540092
0.011585041 0.0085132308 0.16721393
0.011438197 0.0061197621 0.16983758
0.011192725 0.0022347113 0.17467514
0.010820076 -0.00066940545 0.1765911
0.012666937 0.037713718 0.14615722
0.013166178 0.034773264 0.14940327
0.013548169 0.031291347 0.15170929
0.013401891 0.028845664 0.15537162
0.013574634 0.026630474 0.15765771
0.014206302 0.023809299 0.15929183
0.014319436 0.021100977 0.16001177
0.01473487 0.018563082 0.16134107
0.014608459 0.015795747 0.16335818
0.014445793 0.013358145 0.16481818
0.014057285 0.010849032 0.16536877
0.01431902 0.0084911874 0.16764535
0.014017672 0.0055972966 0.17103529
0.014161826 0.0027158053 0.1742899
0.013783866 -0.00023274416 0.1757275
0.015605723 0.036079302 0.14794075
0.01609472 0.031481996 0.15146799
0.016337277 0.028088752 0.15680882
0.01677978 0.026110481 0.15818568
0.016803838 0.023573415 0.15939979
0.017084496 0.02100227 0.16109341
0.017792005 0.018148916 0.16142097
0.01724459 0.015654106 0.16288945
0.017146757 0.01320098 0.1651917
0.016757024 0.010490188 0.16673359
0.017229605 0.0074739312 0.16904132
0.017120881 0.0051155449 0.17135061
0.016493944 0.0025951772 0.17297821
0.015976956 -2.3444936e-06 0.17429282
0 0 0 1 0 0 0 1 0 0 0 1 0 0 0 0 0 252 1 0 0
