ply
format ascii 1.0
comment PCL generated
element vertex 252
property float x
property float y
property float z
element camera 1
property float view_px
property float view_py
property float view_pz
property float x_axisx
property float x_axisy
property float x_axisz
property float y_axisx
property float y_axisy
property float y_axisz
property float z_axisx
property float z_axisy
property float z_axisz
property float focal
property float scalex
property float scaley
property float centerx
property float centery
property int viewportx
property int viewporty
property float k1
property float k2
end_header
-0.024178008 0.03434138 0.1451778
-0.024016786 0.032317054 0.14584753
-0.024156157 0.030116672 0.14785531
-0.024493538 0.027980542 0.14934683
-0.025595123 0.025422448 0.1517929
-0.026245942 0.022626849 0.15298621
-0.026868904 0.020345673 0.15591007
-0.027215565 0.018210802 0.15777211
-0.021503357 0.034451477 0.14359218
-0.021834981 0.032279845 0.14463609
-0.022026973 0.030064121 0.14721441
-0.022180431 0.027857352 0.14826363
-0.022857822 0.025645912 0.15090431
-0.023638614 0.022888226 0.15162347
-0.024666809 0.019913387 0.15341409
-0.025108727 0.017427836 0.15619333
-0.025548473 0.014840096 0.15740018
-0.025812309 0.012199592 0.15776846
-0.025988201 0.0092187263 0.15855663
-0.026328258 0.0062965085 0.15885094
-0.026685828 0.0035056779 0.15856126
-0.026845422 0.00062657706 0.1586991
-0.027672401 -0.0021244076 0.1598151
-0.018959498 0.034473933 0.14382409
-0.019349128 0.0321301 0.14550848
-0.019576769 0.029912267 0.14715131
-0.019802658 0.027823063 0.14886534
-0.019953268 0.025768144 0.15084663
-0.021001635 0.022966443 0.15167537
-0.021769108 0.019792728 0.15234573
-0.022620905 0.017144198 0.15533513
-0.022666534 0.014373671 0.15693365
-0.023184124 0.011792997 0.15779832
-0.023525583 0.0092157042 0.15868907
-0.023929799 0.0063731237 0.15951297
-0.024360104 0.0034437166 0.15979667
-0.025068756 0.000452009 0.16051231
-0.025268862 -0.0023850694 0.16082816
-0.025525291 -0.0048071942 0.16176094
-0.016377132 0.035124306 0.14399911
-0.016874963 0.032013811 0.14631389
-0.016949423 0.029881809 0.14715578
-0.017193761 0.027955299 0.14930613
-0.017443031 0.025783887 0.15123059
-0.01807298 0.023275636 0.15236221
-0.018774031 0.019766867 0.15313484
-0.019477827 0.016736472 0.15530336
-0.019972187 0.013770829 0.15670243
-0.020619472 0.01133795 0.15780103
-0.020805925 0.0092388215 0.15928993
-0.021813888 0.006085278 0.16076563
-0.022256965 0.0032558758 0.16136506
-0.022723095 0.00017884395 0.16184555
-0.022913139 -0.0027270918 0.16248289
-0.013880085 0.03467289 0.14408146
-0.014245632 0.032165471 0.14693347
-0.014472156 0.029905349 0.14731953
-0.014635338 0.02780346 0.14986084
-0.014874172 0.025580173 0.15093492
-0.015230446 0.023064321 0.15241081
-0.015871594 0.020125011 0.15420027
-0.016647954 0.016473426 0.15589021
-0.017323213 0.013442707 0.15752746
-0.017650057 0.011308101 0.15900382
-0.018135937 0.0085590389 0.16065681
-0.018654447 0.0056214426 0.16101027
-0.018597525 0.0030228731 0.16177195
-0.018568223 0.00026497251 0.16221617
-0.019652853 -0.0025815116 0.16300854
-0.019791512 -0.005344552 0.16488117
-0.011708847 0.034951665 0.14525802
-0.012049843 0.032517798 0.14719437
-0.012169761 0.030036032 0.1475575
-0.012083651 0.027144292 0.14983501
-0.012269867 0.024984887 0.15084639
-0.01244541 0.022637678 0.15187865
-0.013310667 0.019889966 0.15486957
-0.01389139 0.016642649 0.15655182
-0.014680238 0.013515783 0.15812965
-0.014817124 0.011241267 0.16048184
-0.015210289 0.0081275804 0.16134124
-0.015472091 0.0052816216 0.16233124
-0.015313669 0.0027597705 0.16300483
-0.015390618 0.00010596646 0.16412829
-0.015543357 -0.0025665688 0.16433711
-0.015486481 -0.0052790991 0.16635276
-0.0094621079 0.035149693 0.14665969
-0.0096988324 0.032612447 0.14797823
-0.0096366806 0.030089665 0.14780816
-0.0094846096 0.027328305 0.14997333
-0.0094972327 0.024845945 0.15048936
-0.0095910579 0.022597518 0.15121321
-0.010385988 0.019988162 0.15459321
-0.010525892 0.017085802 0.15651527
-0.011318345 0.013751584 0.15814625
-0.011812075 0.011171991 0.16010347
-0.012612514 0.00761622 0.16182616
-0.012547356 0.00495202 0.16281247
-0.012387185 0.0024170354 0.16453904
-0.012558534 -0.00021589379 0.16554928
-0.012801418 -0.0027680839 0.16539839
-0.01267509 -0.0052738539 0.16670491
-0.0070133936 0.035184689 0.14703922
-0.0073190951 0.03280462 0.14842553
-0.0072996658 0.030250669 0.14901598
-0.0070633828 0.02750415 0.15078001
-0.0068584247 0.02493462 0.15124814
-0.0069040121 0.022758717 0.15214112
-0.006993969 0.020025594 0.15571389
-0.0071127191 0.017456451 0.15680146
-0.0076742559 0.014466291 0.15864156
-0.0084194317 0.0116922 0.16039968
-0.0094920658 0.008165352 0.16239731
-0.0089546572 0.0045425394 0.16309024
-0.0095690517 0.001908539 0.16468439
-0.0095591675 -0.00025165061 0.16670352
-0.0095475083 -0.0027501779 0.16657998
-0.0099955276 -0.0050197216 0.16698256
-0.0042285905 0.034860585 0.1467686
-0.0046343477 0.032668926 0.14893103
-0.0046755276 0.03023323 0.15015635
-0.0043099667 0.027474906 0.15154165
-0.0040024538 0.024998499 0.15147413
-0.0039661401 0.022648167 0.15334848
-0.004197489 0.019883959 0.15676342
-0.0039996952 0.01750279 0.1574209
-0.0042085233 0.014660578 0.1590621
-0.004953363 0.012224916 0.16166425
-0.0057029477 0.0090855686 0.16371344
-0.0061968537 0.0057048984 0.16513517
-0.0056483201 0.0022076799 0.16662644
-0.0069889994 0.00024072496 0.1677739
-0.0068605696 -0.0026204528 0.16765194
-0.0019297963 0.034526885 0.14717755
-0.0020790123 0.032484442 0.1489176
-0.0020116172 0.0301736 0.1507176
-0.0016039244 0.027761405 0.15186673
-0.0016113037 0.025283255 0.15270275
-0.0018877477 0.022857582 0.15504819
-0.0017279933 0.020009313 0.15784498
-0.0014913195 0.017613107 0.15878476
-0.0013060962 0.015203733 0.16030149
-0.0020672285 0.01242067 0.1620809
-0.0029932125 0.0091828872 0.16500054
-0.0033173645 0.0059629744 0.16661187
-0.0034037346 0.0022530458 0.16759661
-0.0040541557 -0.00012110073 0.16751227
-0.0043555163 -0.0027465839 0.16848746
0.0006255068 0.034413114 0.14780769
0.00051062688 0.032173414 0.14884441
0.00032106147 0.029998653 0.15033025
0.00074410054 0.027869178 0.15235165
0.00091806293 0.025499361 0.15283543
0.00042502375 0.023144467 0.15644094
0.00065582822 0.020206727 0.15874678
0.001103922 0.01822241 0.15995407
0.0010219878 0.015442275 0.16123466
0.00086952053 0.012331147 0.16331023
-0.00032027179 0.0091186222 0.16606221
-0.00062916597 0.0058845142 0.16786057
-0.00092345331 0.002013071 0.16907804
-0.0014373004 -0.00019803591 0.16927378
-0.0018752606 -0.0028868499 0.170534
0.0031029419 0.034199696 0.14789841
0.0031564694 0.031925861 0.14883067
0.003459777 0.029840816 0.15052193
0.0035942169 0.027868969 0.15313858
0.0034810982 0.025572507 0.15527667
0.0034394593 0.023290992 0.1570044
0.0032498224 0.020654876 0.15890396
0.0037252309 0.018129556 0.16051073
0.0037830384 0.015345858 0.16167814
0.0038671466 0.012385837 0.1632897
0.0029289166 0.009153313 0.16588807
0.0021632083 0.0060649458 0.16787021
0.0021287699 0.0019711906 0.16942851
0.0012118715 9.6774842e-05 0.17032987
0.00059570512 -0.0029990932 0.17296898
0.0056352047 0.03450891 0.14786966
0.0061515439 0.032665309 0.15020674
0.0062942626 0.030607458 0.1517161
0.006194626 0.028270947 0.15316628
0.0061951177 0.025636442 0.15549187
0.0061975121 0.023193801 0.15706688
0.0059021642 0.020908521 0.1588102
0.0064877062 0.018197879 0.16017185
0.0066741374 0.015219007 0.16230577
0.0065766373 0.012449787 0.16297989
0.0064047989 0.0094848638 0.16486783
0.0065244776 0.0071280422 0.16596065
0.0060921535 0.0043974686 0.16822541
0.0046776268 0.00066904153 0.17228349
0.003983974 -0.0021976379 0.17456155
0.0085437028 0.035000943 0.14798672
0.008488806 0.033054907 0.15067033
0.0086020911 0.030877609 0.15231188
0.0085611595 0.028536452 0.15370791
0.0085648131 0.026086425 0.15486868
0.0087277126 0.02347721 0.15717022
0.0096986257 0.020824162 0.1580905
0.0093479427 0.017930359 0.16005313
0.0095092747 0.015280999 0.16142191
0.0091859233 0.012640903 0.16300116
0.0094924439 0.01008793 0.16433313
0.0095369788 0.0073849508 0.16575246
0.0098945163 0.0048225881 0.16849208
0.0081725633 0.0014171776 0.1734795
0.0075102309 -0.0012565884 0.17555478
0.010895591 0.035466399 0.14782791
0.010876905 0.033203948 0.15079266
0.010945191 0.030947696 0.15189709
0.011197887 0.02882155 0.15363088
0.011308379 0.026618782 0.15624641
0.011528493 0.023813574 0.15780395
0.012439996 0.020874148 0.15885948
0.012386903 0.018177276 0.16082102
0.012414897 0.015429712 0.16244751
0.011884081 0.012957902 0.16389392
0.012113725 0.010366979 0.16418646
0.012296518 0.0077454355 0.16587593
0.012391078 0.0054025538 0.16889243
0.011388464 0.0021901298 0.17437784
0.010821374 -0.00056326546 0.1764704
0.012947266 0.036312651 0.14507286
0.01350497 0.033852004 0.14880422
0.01383544 0.031004304 0.15172267
0.013646473 0.028587315 0.1550843
0.013731607 0.026338022 0.1570392
0.014432569 0.02358021 0.15892307
0.014690746 0.020966614 0.15980873
0.015037138 0.018376678 0.16112897
0.014846891 0.015516306 0.16304697
0.014780153 0.012947603 0.16429892
0.014602472 0.010383929 0.16441454
0.015115879 0.0080719981 0.16670032
0.014906062 0.0055027399 0.17089203
0.014625461 0.0028285794 0.17426395
0.014125744 -8.3480936e-06 0.17587802
0.015949883 0.034548495 0.14685746
0.016393153 0.031194005 0.15140499
0.016420472 0.028106673 0.15671791
0.016831521 0.026154736 0.15810664
0.01689522 0.023681886 0.15955007
0.017116586 0.021178626 0.16144839
0.018001735 0.018517388 0.16228244
0.017478086 0.015786018 0.16319118
0.017324312 0.013251636 0.16526316
0.017129898 0.010311853 0.16633615
0.018080382 0.0080022104 0.16947463
0.017994339 0.0057517141 0.17194794
0.017312068 0.002974398 0.17343995
0.016710894 0.00038109501 0.17474727
0 0 0 1 0 0 0 1 0 0 0 1 0 0 0 0 0 252 1 0 0
