ply
format ascii 1.0
comment PCL generated
element vertex 252
property float x
property float y
property float z
element camera 1
property float view_px
property float view_py
property float view_pz
property float x_axisx
property float x_axisy
property float x_axisz
property float y_axisx
property float y_axisy
property float y_axisz
property float z_axisx
property float z_axisy
property float z_axisz
property float focal
property float scalex
property float scaley
property float centerx
property float centery
property int viewportx
property int viewporty
property float k1
property float k2
end_header
-0.023429783 0.034337685 0.1438064
-0.023429105 0.032538585 0.14524706
-0.023864558 0.030821312 0.14856884
-0.024402924 0.028590033 0.15034649
-0.025041401 0.02616029 0.1528129
-0.025276029 0.023662578 0.1545465
-0.025741955 0.021277141 0.15770216
-0.026011109 0.019155001 0.15995538
-0.020935101 0.034218706 0.1430202
-0.021219455 0.032256916 0.14444858
-0.021627896 0.030784119 0.14825545
-0.021909261 0.028490171 0.14965649
-0.022512572 0.026206722 0.15250184
-0.022799069 0.023835009 0.15401074
-0.023131497 0.021295324 0.15586556
-0.023461103 0.018933458 0.15896122
-0.023560029 0.016540283 0.16126353
-0.023664443 0.013982601 0.16242598
-0.0236478 0.011315508 0.16337703
-0.023849068 0.0086450605 0.16467446
-0.024074273 0.0057979678 0.16470942
-0.024114214 0.0030821627 0.16560535
-0.024502946 0.00053281442 0.16742402
-0.018498167 0.034194201 0.14299372
-0.018825136 0.032530371 0.14571019
-0.01919424 0.030703759 0.14835094
-0.019452004 0.028744547 0.15021849
-0.019796271 0.026375925 0.15231057
-0.020159548 0.023901582 0.15404686
-0.020336861 0.021391427 0.15550165
-0.020712698 0.019110721 0.15845208
-0.020917254 0.016766358 0.16107824
-0.021038361 0.014162361 0.16252859
-0.020948758 0.011464325 0.16340609
-0.021142116 0.0088187866 0.16499962
-0.021269443 0.0060127033 0.16513816
-0.021642918 0.0031548969 0.1668852
-0.021777526 0.00037453472 0.16793032
-0.021685863 -0.0018863187 0.16908149
-0.016187452 0.034329504 0.14291845
-0.016455702 0.032737274 0.14683385
-0.016592609 0.030720338 0.14828511
-0.016900344 0.028766774 0.15075196
-0.017262947 0.026529569 0.15280841
-0.0174696 0.02405088 0.15397778
-0.01778985 0.021751445 0.15674518
-0.018019473 0.019402634 0.15922908
-0.018247725 0.016968749 0.16158995
-0.018323816 0.014347175 0.16281714
-0.018392108 0.011700102 0.16408117
-0.018685756 0.0089353118 0.16598028
-0.018626668 0.0061239307 0.1659421
-0.018878745 0.003159473 0.16763666
-0.019093731 0.00043049559 0.16922827
-0.013860779 0.034264524 0.14325725
-0.014108263 0.033051528 0.14753146
-0.014137375 0.03076834 0.14843124
-0.014434689 0.028746389 0.150949
-0.014717693 0.02649387 0.15282609
-0.014845057 0.023976004 0.1539301
-0.015178585 0.02186048 0.15720825
-0.015377086 0.019511748 0.16013119
-0.015699985 0.017134383 0.16293323
-0.015871603 0.01442983 0.16494943
-0.015964622 0.011642937 0.16657396
-0.01601408 0.0088140238 0.16684015
-0.016033363 0.0060812272 0.16776997
-0.016192291 0.0034243781 0.1692013
-0.016315477 0.00062113674 0.17001607
-0.016464289 -0.002161616 0.17200531
-0.011503942 0.034712158 0.14419056
-0.011692272 0.033177372 0.1476763
-0.011772479 0.030831421 0.14845772
-0.011866947 0.028434744 0.15072598
-0.01210546 0.02627762 0.15272923
-0.012257873 0.023879463 0.15398753
-0.012593371 0.021836234 0.15758437
-0.012690833 0.019519825 0.16053802
-0.012954963 0.017026609 0.16294222
-0.013099029 0.014551599 0.16563286
-0.013131318 0.011622863 0.16675125
-0.013146534 0.0088562341 0.16870269
-0.0131891 0.006161809 0.16921648
-0.013349972 0.0033895769 0.17052478
-0.013473988 0.00055699795 0.17098007
-0.013529534 -0.0022460541 0.17293876
-0.0091294609 0.035125583 0.14555064
-0.0092237499 0.03329321 0.14828327
-0.0092482194 0.030752191 0.1482615
-0.0093309181 0.028532272 0.15088244
-0.0094340276 0.026039189 0.15216482
-0.0094926013 0.023746276 0.15337859
-0.0098805577 0.021719716 0.15697783
-0.0099275429 0.019550553 0.16014826
-0.010022108 0.016917929 0.1620277
-0.010261135 0.014510469 0.165105
-0.010302503 0.011524214 0.16655627
-0.010221848 0.0087593822 0.16892225
-0.010238652 0.0061929985 0.1710788
-0.010425988 0.0033618854 0.17212479
-0.01059786 0.00043843512 0.17193317
-0.010527201 -0.0023566231 0.1730455
-0.0066361744 0.035153084 0.14596032
-0.006708072 0.033350211 0.14848912
-0.0067190593 0.030950863 0.14931473
-0.0067661218 0.028684074 0.15163198
-0.0068336022 0.026192037 0.15291539
-0.0069040018 0.02377231 0.1539683
-0.007071428 0.021770351 0.15758808
-0.0070719509 0.019384412 0.15942736
-0.0071362853 0.016851358 0.16130631
-0.0072384072 0.014322522 0.16454397
-0.0074565248 0.011412143 0.16686501
-0.0072319768 0.0084805647 0.16910453
-0.0073410766 0.0059254696 0.17111222
-0.0074163093 0.0033013222 0.17358676
-0.0075233518 0.00034901343 0.17353079
-0.007888617 -0.0021202005 0.17352091
-0.0039417325 0.03496046 0.14566395
-0.004198065 0.033458143 0.14854679
-0.0041595576 0.031218231 0.15018095
-0.0042680078 0.028838182 0.15267102
-0.0041999724 0.026327774 0.1531457
-0.0042410777 0.023924585 0.1548292
-0.0042821541 0.021918751 0.15897872
-0.0042344024 0.019378515 0.15941831
-0.004296924 0.016854702 0.16119881
-0.0042624627 0.01419754 0.1639419
-0.0044724946 0.011376644 0.16707502
-0.0045853471 0.0085779335 0.16964006
-0.0046402505 0.0058890609 0.17313625
-0.0046544201 0.0033013665 0.17572503
-0.0046447827 0.00031493886 0.17500405
-0.0015930465 0.035030007 0.14640076
-0.0016709776 0.033337399 0.14845319
-0.0016435006 0.03130262 0.15048352
-0.0015850399 0.028853865 0.15234244
-0.0016168313 0.026476517 0.15380697
-0.0016826597 0.024059072 0.15556039
-0.0016584089 0.021898298 0.15949923
-0.0015386371 0.019500025 0.16038044
-0.0015242929 0.01703538 0.16195871
-0.0014442808 0.014445046 0.16447262
-0.0016745952 0.011519489 0.16846325
-0.0018131845 0.008611816 0.17049031
-0.0018254975 0.0057702041 0.17348029
-0.0018377854 0.0030639416 0.17449279
-0.0018787319 0.00021122061 0.17515896
0.00092816586 0.035292156 0.14729129
0.00090525515 0.033316005 0.14871599
0.00085230696 0.031153779 0.15006986
0.0008275939 0.028914897 0.15268083
0.00095545314 0.026590398 0.15366015
0.00083739549 0.024316289 0.15680072
0.0010195107 0.021935873 0.15968324
0.0011886946 0.01964169 0.1608448
0.0010881077 0.017100668 0.16290461
0.0012060532 0.014524154 0.1656608
0.0010613446 0.011589607 0.16984782
0.0010735823 0.008583867 0.1713503
0.0011317489 0.0058060889 0.1739869
0.0011085384 0.0029966431 0.17468868
0.0010601846 0.00013916907 0.17587002
0.0034511038 0.035341762 0.14763632
0.003489882 0.033148631 0.1488224
0.0035657403 0.031095428 0.15071067
0.0034960997 0.029141225 0.15308876
0.0034971936 0.026787007 0.15549025
0.0036187314 0.024435565 0.1572412
0.0036944365 0.021997577 0.15905878
0.0038380385 0.019788196 0.16142118
0.0038589283 0.017185412 0.16352753
0.0039435145 0.014648099 0.16588411
0.0039348984 0.011755135 0.16955471
0.0040409206 0.0085981982 0.17071411
0.0040473673 0.0055321697 0.17244747
0.0038929894 0.0029952736 0.17372477
0.00400538 0.0001679385 0.1762253
0.0060281008 0.035387222 0.14737701
0.006067764 0.033698145 0.15012048
0.0061229332 0.031636208 0.15176046
0.0061080228 0.029433362 0.15371753
0.0061658113 0.027136328 0.15596898
0.0062887371 0.024668491 0.15756078
0.006411735 0.022195078 0.15905823
0.0066071935 0.019899175 0.16163567
0.0066335606 0.017307788 0.16436511
0.0066573489 0.014694181 0.16560541
0.0065330327 0.012069077 0.16875245
0.0064982297 0.0091952868 0.16952766
0.0064354427 0.0061696633 0.17070524
0.0066234688 0.003115291 0.17377275
0.0068767243 0.00014706599 0.17605743
0.0086677074 0.035494167 0.14720646
0.0085468981 0.033826143 0.1499621
0.008591515 0.031774119 0.15210108
0.0086894482 0.029571423 0.15420415
0.0087009827 0.027162014 0.15569903
0.008896525 0.024877436 0.15789966
0.0088907536 0.022425456 0.16030978
0.0093864901 0.019785775 0.16224167
0.0094891153 0.017398648 0.16407149
0.0093376897 0.014815229 0.16654582
0.0094139818 0.011971572 0.16850242
0.0092203906 0.0090907216 0.16913587
0.0090146121 0.0062412345 0.17075264
0.0094850948 0.0029691525 0.17456193
0.009771633 -9.4904659e-05 0.176257
0.011087997 0.036206637 0.14685187
0.011020106 0.033990387 0.15038629
0.011106069 0.031632662 0.15208879
0.011304465 0.029557966 0.15424667
0.011526269 0.027383486 0.15670128
0.011448008 0.02477547 0.15925753
0.011638639 0.022248905 0.16071127
0.012166972 0.020051975 0.16364761
0.012235015 0.017538205 0.16584644
0.012073794 0.014688808 0.16746847
0.012170115 0.01189382 0.16803774
0.011966131 0.0090328474 0.16881683
0.011625949 0.0062281666 0.17048098
0.012345253 0.0027984357 0.17431735
0.012485669 -0.00026333786 0.17569821
0.013180342 0.037293945 0.14468949
0.013420206 0.034707088 0.14897005
0.013724968 0.031461973 0.15172856
0.014030213 0.029082369 0.15537833
0.014121103 0.026693091 0.15764387
0.014462793 0.024654893 0.16002572
0.014531705 0.022229103 0.16143702
0.014912702 0.020121055 0.16421051
0.014889542 0.017597273 0.16681081
0.015029191 0.014792413 0.16802405
0.015022393 0.011842946 0.16770729
0.014753937 0.0089014061 0.16873428
0.014377182 0.0056458963 0.17096524
0.015064605 0.0024548285 0.17356452
0.014944256 -0.00045223537 0.17415161
0.015753735 0.035399038 0.14782488
0.016221534 0.03135372 0.15124547
0.017104359 0.028409218 0.15665798
0.017499723 0.026406866 0.15840873
0.017421041 0.024352195 0.1601592
0.01757961 0.022393825 0.16260086
0.017885325 0.02023254 0.16499119
0.01784466 0.017412391 0.1665328
0.017793542 0.014685489 0.16828249
0.017758291 0.011666996 0.16959815
0.017439825 0.0079672663 0.16969191
0.017281447 0.0049884231 0.17076801
0.017044008 0.0021211472 0.17154087
0.016845459 -0.00062258047 0.17234495
0 0 0 1 0 0 0 1 0 0 0 1 0 0 0 0 0 252 1 0 0
