ply
format ascii 1.0
comment PCL generated
element vertex 252
property float x
property float y
property float z
element camera 1
property float view_px
property float view_py
property float view_pz
property float x_axisx
property float x_axisy
property float x_axisz
property float y_axisx
property float y_axisy
property float y_axisz
property float z_axisx
property float z_axisy
property float z_axisz
property float focal
property float scalex
property float scaley
property float centerx
property float centery
property int viewportx
property int viewporty
property float k1
property float k2
end_header
-0.024761008 0.03396605 0.14601064
-0.02455236 0.032104045 0.14690366
-0.024572995 0.029969752 0.14917953
-0.024745934 0.028050847 0.15057021
-0.025491849 0.025689483 0.15309745
-0.026125649 0.022709899 0.15410487
-0.026694614 0.019953582 0.15654907
-0.026894739 0.017632326 0.1581818
-0.022193359 0.033940341 0.14430201
-0.022484291 0.031903706 0.14551744
-0.022476878 0.029945433 0.14817947
-0.022594625 0.027827326 0.14919615
-0.023000795 0.025690952 0.15166938
-0.023791686 0.023058748 0.15244024
-0.024658421 0.019877102 0.15409295
-0.024946244 0.017000075 0.15647608
-0.025219968 0.014330047 0.15743436
-0.025430616 0.011715082 0.15756077
-0.025670737 0.008659753 0.15782864
-0.026067069 0.0057812813 0.15783463
-0.026763236 0.0031520827 0.15745981
-0.027260978 0.00031601806 0.15755528
-0.028279619 -0.0024675489 0.15858647
-0.019611912 0.033992857 0.144438
-0.019924268 0.031859148 0.1462822
-0.020049259 0.029758045 0.14791527
-0.020170867 0.027595256 0.14935833
-0.020179031 0.025405107 0.15097038
-0.021264985 0.022938496 0.15185353
-0.022030139 0.019833373 0.15267701
-0.022615761 0.016813057 0.15545228
-0.022541029 0.013813482 0.1565282
-0.022956425 0.011163126 0.15726204
-0.023250693 0.008596723 0.15783326
-0.023694534 0.0056957724 0.15832864
-0.024419457 0.0027786253 0.1583551
-0.025528347 -0.00012742044 0.15932035
-0.025972024 -0.0029513547 0.15969522
-0.026429977 -0.0054272036 0.16058503
-0.016964573 0.034852181 0.14483602
-0.017398739 0.031885017 0.14702047
-0.017386368 0.029765327 0.14774546
-0.017514739 0.027564449 0.14962511
-0.017655222 0.025208449 0.15096812
-0.018297376 0.022809215 0.15188934
-0.018987296 0.019547429 0.15291321
-0.019648524 0.016386636 0.15478353
-0.020040749 0.013159133 0.1555309
-0.020504965 0.010625348 0.15653706
-0.020458741 0.0084532499 0.15784629
-0.021472612 0.0052517205 0.15922517
-0.022160187 0.0022831941 0.15951177
-0.023298828 -0.00064696098 0.16071746
-0.023705611 -0.0035405306 0.161428
-0.014406677 0.034648553 0.14511889
-0.01465902 0.032086581 0.14777489
-0.014883727 0.029792067 0.14785828
-0.014942942 0.027372474 0.14991385
-0.015189476 0.025107255 0.15055946
-0.015541462 0.02246411 0.15174358
-0.016026754 0.019725891 0.15384756
-0.016790871 0.01612027 0.15537459
-0.017168745 0.012810573 0.1559802
-0.017315036 0.010479203 0.15724812
-0.017829074 0.0077730878 0.15900548
-0.018337788 0.0048184502 0.15946473
-0.01851674 0.0021433556 0.16065814
-0.018855346 -0.00065243547 0.16175972
-0.020307863 -0.0034890263 0.16243543
-0.020739172 -0.0061562648 0.16426314
-0.012178772 0.034791391 0.14629555
-0.012450143 0.032377873 0.1480955
-0.012618775 0.029962191 0.14828299
-0.01238614 0.02688474 0.14996621
-0.01256893 0.024626054 0.1507501
-0.012686945 0.022175331 0.15155581
-0.013484645 0.019413231 0.15453111
-0.014001884 0.016330235 0.1562922
-0.014579889 0.012982339 0.15707818
-0.014629497 0.010631214 0.15914072
-0.014974096 0.0074261283 0.16004615
-0.015437611 0.0045232666 0.16136084
-0.015573749 0.0021004088 0.16263652
-0.015879773 -0.00041230113 0.1642503
-0.016172804 -0.0029624102 0.16494389
-0.016316662 -0.0052956194 0.16723262
-0.0098452913 0.034859736 0.14752875
-0.010114188 0.032378957 0.14877494
-0.010068455 0.029927758 0.14845984
-0.0097704632 0.02703568 0.15028895
-0.0098154582 0.024547976 0.15066946
-0.0098207556 0.022260983 0.15111527
-0.010546574 0.01944761 0.15421225
-0.010530577 0.016582809 0.15618815
-0.011260538 0.01329193 0.15768203
-0.011655611 0.010658565 0.15932167
-0.012493833 0.0068033468 0.16085151
-0.012687817 0.0040770052 0.16225298
-0.012753893 0.0017971395 0.16447917
-0.013125889 -0.00056001032 0.16588089
-0.013500573 -0.0030915742 0.16619577
-0.013563329 -0.0053932541 0.16781713
-0.0073944912 0.034758538 0.14766417
-0.0076684509 0.032490384 0.14905195
-0.0076603349 0.02994564 0.14951286
-0.0073377262 0.027112778 0.15117092
-0.0071793096 0.024591254 0.15157571
-0.0071317316 0.022385268 0.15224044
-0.0067237602 0.019128725 0.15525168
-0.0067590685 0.016598402 0.15640308
-0.0072044702 0.013673053 0.15833876
-0.0081848688 0.01103317 0.15998068
-0.0095019145 0.0073635085 0.16182864
-0.0092154369 0.0034349032 0.16278569
-0.0099716503 0.0011734612 0.16483258
-0.010070639 -0.00063010782 0.16702981
-0.010150502 -0.0031322464 0.16714577
-0.010703516 -0.00535355 0.16784474
-0.0045459182 0.034420911 0.14739661
-0.0049193087 0.032212693 0.14955042
-0.0049894652 0.029753439 0.15057741
-0.0045435987 0.027034452 0.1517176
-0.004215782 0.024642613 0.15171894
-0.0040677199 0.022275444 0.15341449
-0.0037454802 0.019019416 0.15624341
-0.0034131166 0.016653726 0.1569598
-0.003512471 0.013898752 0.1588601
-0.0046812799 0.011607234 0.16163658
-0.0058723828 0.0084836446 0.16383192
-0.0065089241 0.0050708423 0.16522722
-0.0060682646 0.00157995 0.1672384
-0.007437624 -0.00019728641 0.16806436
-0.0074393 -0.0030692378 0.16816066
-0.0022063947 0.034030247 0.14772156
-0.0023411126 0.032022353 0.14954002
-0.0022980354 0.02967114 0.15102647
-0.0017979875 0.027373293 0.15191436
-0.0017699256 0.024925124 0.1527167
-0.0018791079 0.022344178 0.15487377
-0.0013051243 0.019205024 0.15730952
-0.00084308017 0.016825577 0.15829207
-0.00046122671 0.014407987 0.16004208
-0.0018276918 0.011805387 0.16246089
-0.0032227198 0.0085486583 0.16528919
-0.0037215645 0.0053626117 0.16698419
-0.0039173905 0.0015637348 0.16830929
-0.0046357214 -0.00063246716 0.16819072
-0.0050428268 -0.0031928848 0.16919707
0.00043750415 0.033835176 0.14828697
0.00025335912 0.031637516 0.14946567
-2.8456232e-05 0.02949876 0.15078044
0.00056509289 0.027516816 0.15233216
0.00076191587 0.025172912 0.15274367
0.00053255248 0.022468148 0.15606454
0.0010977888 0.019450307 0.15818842
0.0017631541 0.017344464 0.15952617
0.0016596325 0.014657971 0.161164
0.001228691 0.011815621 0.16386008
-0.00052714802 0.0085293697 0.16655533
-0.0010627814 0.0052145841 0.16843732
-0.0015694617 0.0012818848 0.16990429
-0.0021341902 -0.00075128401 0.17003565
-0.0025758413 -0.0033545129 0.17120796
0.0028635869 0.03360172 0.14833592
0.002910167 0.031411331 0.14935508
0.0032593037 0.029496972 0.15097494
0.0033680196 0.027492849 0.15316369
0.0033480108 0.02507703 0.15515807
0.003384423 0.022728888 0.15668949
0.0035803891 0.019969074 0.1586127
0.0042080446 0.017455924 0.16052535
0.0042645484 0.014766013 0.16205689
0.0042215814 0.012112045 0.16421641
0.0028781809 0.0086802309 0.16687816
0.0017703639 0.0054185563 0.16872229
0.0015706803 0.0011311604 0.17034507
0.00057899661 -0.00067651481 0.17097722
0.00012861991 -0.0038914802 0.17315201
0.0052400851 0.034050088 0.14820923
0.0058348128 0.032184057 0.15023941
0.0059551485 0.030056138 0.15136145
0.0059265201 0.02796003 0.15314554
0.0060077179 0.025427504 0.15556876
0.0061051133 0.022927921 0.15707333
0.0061059715 0.020471547 0.15888496
0.0069635487 0.017763909 0.16080879
0.0069990386 0.015083219 0.16321515
0.0069450941 0.012482028 0.16433406
0.0066508111 0.0094679305 0.16653414
0.0067709051 0.0069747232 0.16745944
0.006182909 0.0038860505 0.16944961
0.0046900464 -0.00041497385 0.17268236
0.0039703632 -0.0034618583 0.17434582
0.0080935387 0.034665544 0.14815174
0.0081113242 0.032555472 0.15044503
0.0081920791 0.030358285 0.15169659
0.0082981931 0.028300293 0.15342571
0.0083927326 0.025961159 0.15487313
0.0085986126 0.023497423 0.15742446
0.0094047878 0.021183064 0.16013958
0.0095376661 0.017991085 0.16177487
0.0099062705 0.015319522 0.16287917
0.0094295377 0.012803117 0.16483085
0.0097440844 0.010243595 0.16614822
0.0098500289 0.0074018026 0.16741706
0.010249021 0.004689198 0.16988117
0.0084008509 0.00063677324 0.17430553
0.0076835454 -0.0023110702 0.17600124
0.01040107 0.035234179 0.1478582
0.01038895 0.032810099 0.15031715
0.010530998 0.030522779 0.15117964
0.010823072 0.028631018 0.15322699
0.011056741 0.026857661 0.15619849
0.011398528 0.024275281 0.15921041
0.01217176 0.021149358 0.16055255
0.01231381 0.018521486 0.16265635
0.012551722 0.015813598 0.16430864
0.012051054 0.013314754 0.16587263
0.012340748 0.010666678 0.16623324
0.012600674 0.0079592355 0.16771783
0.012656141 0.0053628185 0.17015217
0.011622633 0.0016344229 0.17542884
0.011048588 -0.0013450492 0.17727715
0.012339759 0.036921281 0.14567907
0.013062933 0.034064401 0.14896791
0.013413674 0.030882817 0.15148373
0.01318262 0.02876484 0.15514027
0.013588606 0.026322104 0.15740165
0.014321877 0.023561828 0.15971121
0.014510405 0.021069096 0.1609568
0.015013382 0.018645322 0.16244391
0.014914894 0.016005876 0.16473313
0.014835837 0.013615623 0.16638213
0.014832302 0.01089754 0.1666996
0.015323673 0.0083997641 0.16849104
0.015207467 0.005216199 0.17164053
0.014911328 0.0023367594 0.17514892
0.014376462 -0.00055276754 0.17678772
0.015439406 0.035456259 0.1473424
0.015941402 0.031173594 0.15134491
0.016023777 0.027934248 0.1566197
0.016572503 0.025636762 0.15777738
0.016749751 0.023353994 0.15969974
0.01719635 0.021110591 0.16187242
0.018187633 0.018573571 0.16266236
0.017521016 0.016060635 0.16437268
0.017388957 0.013813695 0.1669185
0.017155347 0.011120775 0.16845605
0.018372318 0.0075892401 0.16992217
0.018397398 0.0051722587 0.17216165
0.01759465 0.0024322195 0.17393018
0.016928205 -0.00013715448 0.17543392
0 0 0 1 0 0 0 1 0 0 0 1 0 0 0 0 0 252 1 0 0
