ply
format ascii 1.0
comment PCL generated
element vertex 252
property float x
property float y
property float z
element camera 1
property float view_px
property float view_py
property float view_pz
property float x_axisx
property float x_axisy
property float x_axisz
property float y_axisx
property float y_axisy
property float y_axisz
property float z_axisx
property float z_axisy
property float z_axisz
property float focal
property float scalex
property float scaley
property float centerx
property float centery
property int viewportx
property int viewporty
property float k1
property float k2
end_header
-0.023404388 0.033791088 0.14308737
-0.02336088 0.03201168 0.14449982
-0.023857106 0.030409371 0.14792979
-0.024361378 0.028285675 0.14985141
-0.024956213 0.026244108 0.15259813
-0.025317525 0.023806367 0.15454683
-0.025851101 0.021359671 0.15786982
-0.026134852 0.019151622 0.16009027
-0.020857388 0.033815619 0.14239705
-0.021102153 0.031839717 0.14384328
-0.021612097 0.030435488 0.14764932
-0.021831214 0.02820009 0.14913227
-0.022399295 0.026183436 0.15210004
-0.022738641 0.023895599 0.15366766
-0.023223264 0.021400109 0.1558225
-0.023577681 0.019004809 0.15908451
-0.023666762 0.016582759 0.16140561
-0.023708472 0.013965743 0.16243787
-0.023705073 0.011289371 0.1633316
-0.023898842 0.0085586784 0.16445836
-0.024065189 0.0056777596 0.16445999
-0.023921728 0.002943699 0.16534847
-0.0243272 0.00042412331 0.16720974
-0.018448971 0.034004156 0.14261378
-0.0187835 0.032276422 0.14523709
-0.019172577 0.030454593 0.14784642
-0.019393384 0.028514102 0.14970757
-0.019695824 0.026292963 0.15190934
-0.020062244 0.023943024 0.15373807
-0.02036777 0.021460012 0.15531205
-0.020840449 0.019264022 0.15861261
-0.020955518 0.016900823 0.16119213
-0.02103493 0.014165547 0.16249664
-0.020957792 0.011393088 0.16322283
-0.021183318 0.0087268297 0.16482396
-0.02126083 0.0059476034 0.16496761
-0.021520043 0.0030902068 0.16685148
-0.02165057 0.00032989064 0.16796304
-0.021603905 -0.0018890875 0.16917855
-0.016228329 0.034475118 0.14291885
-0.016475407 0.032654539 0.14656912
-0.016551793 0.03060491 0.14795722
-0.016892673 0.028652739 0.15045066
-0.017209943 0.026509654 0.15254575
-0.017382363 0.024102855 0.15375905
-0.017763332 0.021866923 0.15669163
-0.018101491 0.019694293 0.15946203
-0.018265661 0.017116383 0.16164604
-0.018255036 0.014337876 0.16264133
-0.018269874 0.011587566 0.1639877
-0.018643346 0.0088771079 0.16595362
-0.018624254 0.0061144526 0.1659236
-0.018809237 0.0031812198 0.16784211
-0.019097185 0.0004814103 0.16956633
-0.013956366 0.034572132 0.14336482
-0.014103098 0.033174567 0.14761995
-0.014111519 0.03083957 0.14842001
-0.014420876 0.028742831 0.15073067
-0.014641969 0.026523121 0.15253773
-0.014781604 0.024034405 0.15372646
-0.015149518 0.022043629 0.157297
-0.015427351 0.019865233 0.16050306
-0.015656214 0.017333012 0.16313548
-0.015753126 0.014413056 0.1650155
-0.01593166 0.011711964 0.16684227
-0.015957609 0.0088966042 0.16722532
-0.015989358 0.0062861904 0.16845545
-0.016150795 0.0035392281 0.16983037
-0.016289901 0.00067493354 0.17049807
-0.016607609 -0.0020806626 0.17259049
-0.011587611 0.034979075 0.144206
-0.011652746 0.033316061 0.14769474
-0.011721514 0.030973613 0.14839573
-0.011774289 0.028377371 0.15025903
-0.012004176 0.026182398 0.15222897
-0.01216693 0.023836136 0.15362325
-0.012561142 0.022001352 0.15759705
-0.012727428 0.019852346 0.16086167
-0.012915511 0.017300345 0.16331883
-0.013056836 0.014678758 0.16603689
-0.013132934 0.011803181 0.16738655
-0.013216347 0.0091363052 0.16976143
-0.013257504 0.0064250426 0.17038469
-0.013441991 0.0035772291 0.17158595
-0.013577035 0.00069546001 0.17195469
-0.013683573 -0.002143488 0.17380795
-0.0091699967 0.035369359 0.14560607
-0.0091616036 0.033420481 0.14823802
-0.0092058955 0.030867592 0.14801209
-0.0092027718 0.028452232 0.15028544
-0.0093231332 0.025870953 0.1515522
-0.0093961991 0.02362109 0.15293936
-0.0098333647 0.021845294 0.15689842
-0.0099081965 0.019753659 0.16032097
-0.0099772178 0.017118333 0.16240099
-0.010210692 0.01471044 0.16571388
-0.010292124 0.011793232 0.16753189
-0.010288117 0.0090537928 0.1702958
-0.010312401 0.0063756104 0.17240581
-0.010559449 0.0035075468 0.17338261
-0.010769852 0.0005826531 0.17305624
-0.010755249 -0.0022229513 0.17417465
-0.0066483035 0.035471935 0.14594179
-0.0066381101 0.033450827 0.14822786
-0.006630877 0.031001676 0.14891654
-0.0066026174 0.028565006 0.15094896
-0.006676218 0.026000051 0.15213315
-0.0067877411 0.023670403 0.15356889
-0.0069615939 0.021919606 0.15761036
-0.0069645299 0.019506091 0.15956435
-0.0070104999 0.016885206 0.16140603
-0.0070628808 0.014299234 0.16495895
-0.0073409947 0.011502448 0.16760246
-0.0072202915 0.0086429538 0.17020956
-0.0074101435 0.0060391719 0.17211062
-0.0075209029 0.0033710792 0.17473032
-0.0077427332 0.00045473874 0.17472431
-0.0081718536 -0.0019917353 0.17476732
-0.003953462 0.035398863 0.14561138
-0.00409002 0.033655494 0.14827113
-0.0039838194 0.03128643 0.1497822
-0.0040329364 0.028756224 0.15204215
-0.0040401216 0.026204057 0.15248352
-0.0041144281 0.023920884 0.15459725
-0.0041387761 0.022073681 0.15904239
-0.0040561571 0.019464998 0.15948375
-0.004098271 0.016826747 0.1610768
-0.0040074098 0.013973812 0.16399604
-0.0042001167 0.01123367 0.16734318
-0.0044198255 0.0086099245 0.17019564
-0.0046099736 0.0060527329 0.17399046
-0.0046424563 0.0033816099 0.1765745
-0.0047337855 0.00037236622 0.1758233
-0.0015805998 0.035352658 0.1461762
-0.0015669097 0.033508211 0.14806585
-0.001417922 0.031297632 0.14995638
-0.0013575591 0.028653001 0.15163893
-0.0014437109 0.026299777 0.15324034
-0.0015570596 0.024102051 0.15530516
-0.001531563 0.022135463 0.1596189
-0.0013904178 0.019631395 0.16049618
-0.0014103174 0.017100148 0.16210213
-0.0012263529 0.014433249 0.1647969
-0.0013779082 0.011453482 0.1686639
-0.0016202923 0.0086564487 0.17095743
-0.0017731264 0.0058636731 0.17409177
-0.0018506997 0.0030698364 0.17501611
-0.0019004208 0.0002162521 0.17572409
0.00099945732 0.035480157 0.14682685
0.0010327217 0.033394456 0.1480965
0.0010323195 0.03110842 0.14934534
0.0010590028 0.028605582 0.15180351
0.0011326008 0.026306452 0.15290977
0.00097972376 0.0244583 0.15648502
0.0011296397 0.022251418 0.1598478
0.0012070489 0.019798629 0.16107064
0.0011284811 0.01723285 0.16324641
0.0014339356 0.014602651 0.16601694
0.0014152558 0.011605714 0.17004026
0.0012864395 0.0086173452 0.17176157
0.0011957049 0.0057731797 0.17435899
0.001112685 0.0029875096 0.17508394
0.0011044936 0.00018905192 0.17634335
0.0035662588 0.035432741 0.14692351
0.0036640691 0.0331381 0.14788562
0.0037858752 0.030827723 0.14940761
0.003595493 0.028596351 0.15175645
0.0036922782 0.02627212 0.15419772
0.0038287158 0.024046132 0.15612254
0.0038187441 0.02188771 0.15850765
0.0037888479 0.019832404 0.16153628
0.0039009526 0.017268429 0.1637003
0.0041412194 0.014752219 0.16609663
0.0043640258 0.011858658 0.16979122
0.0043302183 0.0086230831 0.17106916
0.0040076319 0.0053882236 0.17272751
0.0038756991 0.0029751889 0.17405783
0.0040869797 0.0003043467 0.17675039
0.0061753648 0.035556048 0.14663993
0.0062146769 0.03364148 0.1492333
0.0062423558 0.031495612 0.15081087
0.0061541023 0.029003128 0.15237308
0.0062746219 0.02652777 0.15437734
0.0064467425 0.02402758 0.15595837
0.0065312614 0.021687351 0.15789513
0.0065383972 0.019825997 0.16149339
0.0067326101 0.017301051 0.1642853
0.0067658913 0.014730318 0.16564561
0.0069833244 0.012395071 0.16911814
0.0069349478 0.0096747056 0.17017578
0.0066699218 0.006492543 0.17139883
0.0067955866 0.003365824 0.17434292
0.0070570423 0.00053865911 0.17680611
0.008844112 0.035779785 0.14660655
0.0086914394 0.033936754 0.14948866
0.0086754588 0.031773992 0.15160331
0.0086616417 0.029358644 0.15336651
0.008674372 0.026757497 0.15445037
0.0089077717 0.024309261 0.15643935
0.0086824996 0.021990607 0.15899281
0.0092185894 0.019522376 0.16152802
0.0095054358 0.017234046 0.16356657
0.0095309159 0.014774802 0.16627647
0.0097883623 0.012187286 0.16852288
0.0095203854 0.0094453422 0.16949731
0.009350976 0.0067271423 0.17136309
0.0097337551 0.0036192245 0.17531478
0.010052742 0.00074049889 0.17733535
0.011250814 0.036101677 0.14607944
0.011146393 0.033904579 0.14986823
0.011192398 0.031592038 0.15164053
0.011248726 0.029466016 0.15367109
0.011308967 0.027255835 0.15608163
0.011090584 0.024563337 0.15832643
0.011287341 0.021813521 0.15926404
0.012112466 0.019435706 0.16195516
0.012445127 0.017016754 0.16429724
0.012396173 0.014478024 0.16644466
0.012370382 0.011809349 0.16752221
0.012132647 0.0091576846 0.16879658
0.011821118 0.0066179242 0.17077494
0.012654867 0.0035942397 0.17512596
0.012834191 0.00069862028 0.17687048
0.013415694 0.036183935 0.14328386
0.013562465 0.033756297 0.14755341
0.01380101 0.031073743 0.15081617
0.013942982 0.029148674 0.15482338
0.013707912 0.026858449 0.15717082
0.014084355 0.02433431 0.15874575
0.01421901 0.021665318 0.15968876
0.014896798 0.019222999 0.16186252
0.015258525 0.016728181 0.16437474
0.015322669 0.014041159 0.16574894
0.014910254 0.011311445 0.16632283
0.014766856 0.0088037541 0.16821203
0.01444569 0.0059045102 0.17082761
0.015333147 0.0031038374 0.17399755
0.015239655 0.00033776156 0.1751011
0.015944397 0.033792898 0.14586894
0.016328199 0.030967826 0.15044907
0.016945008 0.028585058 0.15615493
0.017096492 0.026510216 0.15758927
0.01701548 0.024028694 0.15862313
0.017351599 0.021589143 0.16045381
0.017932223 0.018937001 0.1616908
0.017792208 0.015977887 0.16296442
0.017828023 0.013275 0.16481011
0.017804662 0.010581266 0.16667818
0.017336592 0.0077548265 0.16855054
0.017162368 0.0049640229 0.16999613
0.017011933 0.0023606522 0.17152497
0.016923223 -0.00015371933 0.17297514
0 0 0 1 0 0 0 1 0 0 0 1 0 0 0 0 0 252 1 0 0
