ply
format ascii 1.0
comment PCL generated
element vertex 252
property float x
property float y
property float z
element camera 1
property float view_px
property float view_py
property float view_pz
property float x_axisx
property float x_axisy
property float x_axisz
property float y_axisx
property float y_axisy
property float y_axisz
property float z_axisx
property float z_axisy
property float z_axisz
property float focal
property float scalex
property float scaley
property float centerx
property float centery
property int viewportx
property int viewporty
property float k1
property float k2
end_header
-0.024421737 0.033693612 0.14755748
-0.024150977 0.032117195 0.14877869
-0.02393139 0.030442009 0.15114656
-0.024121789 0.0286068 0.15252192
-0.025212998 0.02592474 0.15422718
-0.026452636 0.022364764 0.15420316
-0.02726778 0.018912923 0.15559444
-0.027471313 0.0164111 0.15657827
-0.022232139 0.032940481 0.14536713
-0.022379577 0.031429574 0.14708698
-0.02203723 0.030023912 0.14991207
-0.022243923 0.028013278 0.15094201
-0.022780253 0.025813563 0.15250246
-0.024097245 0.023119863 0.15262228
-0.025347942 0.019324278 0.15327829
-0.025805395 0.015894564 0.15469456
-0.026158717 0.01317409 0.15500948
-0.026357165 0.010574407 0.15507062
-0.026837517 0.0075986376 0.1552874
-0.027502596 0.0047677485 0.15519114
-0.028477777 0.0022454774 0.1546409
-0.028961727 -0.00064998405 0.15397893
-0.029985171 -0.0036563592 0.15413237
-0.019664733 0.032810915 0.14491282
-0.019747779 0.031227816 0.14724781
-0.01973962 0.029497737 0.14913489
-0.01986685 0.027332688 0.15045406
-0.020130774 0.025112234 0.15134014
-0.021595225 0.022904543 0.15158331
-0.022727933 0.019704683 0.15200007
-0.023517434 0.015716361 0.15370645
-0.023396224 0.012572099 0.15450226
-0.024001276 0.0098537421 0.1549564
-0.024520358 0.0073648333 0.15519276
-0.025277987 0.0044772616 0.15573895
-0.026358213 0.0015858158 0.15574662
-0.027572311 -0.0013477806 0.15586041
-0.027977044 -0.0042756568 0.1558487
-0.028666813 -0.0068396963 0.15665069
-0.016873615 0.033810645 0.1439129
-0.017151574 0.031191671 0.14745075
-0.017124122 0.029257007 0.14840882
-0.01725721 0.027061347 0.15026996
-0.01760312 0.024733333 0.15134978
-0.018532444 0.02240555 0.15162461
-0.019556208 0.019092964 0.1521953
-0.020332323 0.015364102 0.15367985
-0.020790426 0.011944843 0.15382671
-0.021509876 0.0093269516 0.15448813
-0.021587931 0.0071191811 0.15537027
-0.022984426 0.003817369 0.15645212
-0.024344495 0.00075421226 0.15706509
-0.025638262 -0.0021094384 0.15769742
-0.026091795 -0.0049932492 0.15816718
-0.014205255 0.033840775 0.14387703
-0.014520498 0.031492691 0.14704353
-0.0147407 0.029148061 0.14805628
-0.014745452 0.026898986 0.15052161
-0.015258084 0.024705937 0.15095387
-0.015919428 0.021813694 0.15134022
-0.01645276 0.018708184 0.15314476
-0.017521536 0.014948985 0.15432695
-0.017994175 0.01163515 0.15468767
-0.018155621 0.0092808018 0.15558709
-0.018809892 0.0063399584 0.15666799
-0.019407967 0.0033660638 0.15676866
-0.019693116 0.00034155537 0.15866324
-0.020012757 -0.002405074 0.16052364
-0.022374418 -0.0049743974 0.16062044
-0.023154987 -0.0075262366 0.16246404
-0.01202338 0.034193907 0.14506897
-0.012409718 0.031953931 0.14725772
-0.012655525 0.029515641 0.14810899
-0.012557763 0.026463501 0.1507909
-0.012794514 0.023995878 0.15102969
-0.012996884 0.021390654 0.15139332
-0.013946547 0.018303573 0.15406975
-0.014691925 0.015021416 0.15547535
-0.015532237 0.011721625 0.15606636
-0.01565177 0.009156595 0.15781425
-0.01606641 0.0057679671 0.15824644
-0.016481455 0.0025737539 0.15914854
-0.01636344 0.00030327318 0.16083731
-0.01673965 -0.0019207575 0.16286515
-0.016917355 -0.0043042647 0.16390644
-0.017090747 -0.0063611069 0.16640577
-0.0097379144 0.034360789 0.14639595
-0.010140195 0.032052603 0.1481546
-0.010197282 0.029534677 0.14862445
-0.0099061038 0.026664503 0.15080872
-0.010127593 0.023929659 0.1510819
-0.010091483 0.021584127 0.15127113
-0.010976237 0.018476918 0.15405239
-0.011083447 0.01534979 0.15577146
-0.012163227 0.01192596 0.15701658
-0.012780049 0.0092027793 0.15849905
-0.013708749 0.0049057035 0.15933533
-0.013594414 0.0022458371 0.16029646
-0.013509559 0.00032967608 0.16276076
-0.013810831 -0.0018023282 0.16443266
-0.014138877 -0.0042428528 0.16514422
-0.014140747 -0.0063556447 0.16698752
-0.0073757162 0.034226071 0.14685276
-0.0077148196 0.032114502 0.14864753
-0.0078682667 0.029723438 0.14975652
-0.0073705753 0.026640628 0.15134108
-0.007387362 0.02406941 0.15186189
-0.0074131549 0.021876421 0.15260811
-0.0072604506 0.018464511 0.15579556
-0.0073463051 0.01579918 0.15681577
-0.0077412478 0.012639522 0.15859562
-0.0089214742 0.0098886574 0.15934412
-0.010395541 0.0060757566 0.16027054
-0.0098725185 0.0020949841 0.1612234
-0.010533358 -1.843418e-06 0.16338366
-0.010628944 -0.0015644955 0.16562089
-0.010515823 -0.0040211547 0.16592708
-0.010922269 -0.0062148711 0.16674079
-0.0046738596 0.034131881 0.14758788
-0.0051002391 0.031761725 0.14962071
-0.0051719723 0.029373491 0.15068266
-0.0048116692 0.026611561 0.15165828
-0.0045153853 0.024268556 0.15194932
-0.0045089368 0.022143323 0.15415949
-0.0044882633 0.01854926 0.15694758
-0.0040757321 0.016062077 0.15751961
-0.0040224725 0.013148713 0.15930596
-0.0050514122 0.010852299 0.16037257
-0.0064327964 0.0079886336 0.16200325
-0.0070041795 0.0044121435 0.1633893
-0.0064457799 0.00081980368 0.16565822
-0.0080553144 -0.00082389731 0.16678414
-0.0079938965 -0.003649008 0.16711214
-0.0023539166 0.033843264 0.14807381
-0.0025082137 0.031657875 0.14975935
-0.0025495279 0.029180592 0.15098047
-0.0020961384 0.026996741 0.15189144
-0.0020974816 0.024603056 0.15291606
-0.0023833225 0.02224507 0.15578404
-0.0020972134 0.018898975 0.15810965
-0.0015305707 0.016379321 0.15884496
-0.0008525817 0.013961485 0.15975897
-0.0023297898 0.011476408 0.16112207
-0.0037509867 0.0081726247 0.1634859
-0.0041778656 0.0047966172 0.16505452
-0.0042887516 0.00083429343 0.16669494
-0.0052517545 -0.0011761396 0.16703521
-0.0056857299 -0.0035694325 0.16839629
0.00031973954 0.033722058 0.14865103
0.00011327098 0.03133836 0.1496453
-0.00028320795 0.02902991 0.15079693
0.00023896959 0.027227823 0.15237607
0.00043704678 0.024931995 0.15295626
5.3616681e-05 0.02241352 0.15684922
0.00025548248 0.019225847 0.15901905
0.0012040972 0.01705927 0.1594868
0.0013718025 0.014369466 0.16017978
0.0010677174 0.011581167 0.16219822
-0.00097716984 0.0082898661 0.1646906
-0.0014901233 0.0046908758 0.16646878
-0.0020670285 0.00061961223 0.16828619
-0.0027770489 -0.0012768531 0.16867274
-0.0030954974 -0.0036409008 0.17028806
0.0028494955 0.033532649 0.14868133
0.0029160671 0.031212522 0.14948957
0.0032272122 0.029169733 0.15096095
0.0032141197 0.027047204 0.15302274
0.0031415992 0.024726579 0.15506926
0.0030114015 0.022516847 0.15681063
0.0030392716 0.019787494 0.15873545
0.0039205658 0.017197119 0.15963452
0.0040894952 0.014405417 0.16067518
0.0041440777 0.011723717 0.16246058
0.0027390199 0.008472072 0.16467144
0.0013771689 0.0050039683 0.16681997
0.00094748585 0.00047101118 0.16892949
-6.0469658e-05 -0.0011994947 0.1696374
-0.00041790729 -0.0041200011 0.17229377
0.0054296567 0.033862349 0.14857025
0.006021651 0.03186347 0.15050115
0.0061409739 0.029909398 0.15169266
0.0060285423 0.027627338 0.15324293
0.0059730234 0.025016773 0.15539797
0.0058882362 0.022523945 0.1570178
0.0057385676 0.020196509 0.15863699
0.0067605926 0.017470079 0.15964766
0.0069428044 0.014644448 0.16172974
0.0068941233 0.012017817 0.16261894
0.0065651876 0.0092607597 0.16449611
0.0065655359 0.0069737029 0.16546498
0.0060727368 0.0036637625 0.16803913
0.0044045807 -0.00076214923 0.17187072
0.0035513989 -0.0035744135 0.17373018
0.0083679995 0.034428157 0.14877701
0.0081990017 0.032321695 0.15099823
0.0082360385 0.030293703 0.15219742
0.0084028123 0.028172901 0.1537341
0.0084621757 0.025737636 0.15493697
0.008523616 0.023088643 0.15721543
0.0096728206 0.020610485 0.15956797
0.009515875 0.017457101 0.16061677
0.0097855916 0.014882878 0.16136415
0.0094123669 0.012365504 0.16296443
0.0096708629 0.00989212 0.16412039
0.0096782492 0.0072112875 0.16561764
0.010201224 0.0048505645 0.16873708
0.0083309663 0.00082630065 0.17391367
0.0074805622 -0.0019285165 0.1758098
0.010682587 0.034926388 0.14850773
0.010448905 0.032647584 0.15083313
0.010599601 0.030545354 0.15173481
0.010835232 0.028709864 0.15370104
0.010984767 0.026681012 0.15645415
0.011220219 0.023858827 0.15893248
0.01224031 0.020749368 0.16002603
0.012288708 0.017913224 0.1613199
0.012553965 0.015067556 0.16229768
0.012140596 0.012552313 0.16347581
0.0122936 0.010088069 0.16378817
0.012474689 0.00760264 0.16558322
0.012544796 0.0054736305 0.16888051
0.011508044 0.0023118921 0.17509401
0.010760806 -0.00045914095 0.17733914
0.012621656 0.036437355 0.14707375
0.013460105 0.0339358 0.1494557
0.013564169 0.031057842 0.15223897
0.013085575 0.028877299 0.1555412
0.01321944 0.026423991 0.15796998
0.014064686 0.02336907 0.15967293
0.014402786 0.020749332 0.16034852
0.014869133 0.018141272 0.16085921
0.014852703 0.015121501 0.16226745
0.0148753 0.012445417 0.16316427
0.014724159 0.010037781 0.16356723
0.015261007 0.0079183159 0.16607422
0.015213071 0.0053873435 0.17050011
0.014857884 0.0030576542 0.17472754
0.014194734 0.00052386918 0.17699654
0.015935738 0.035827462 0.14825048
0.01609992 0.031566527 0.15235415
0.015733628 0.02802673 0.15742971
0.016080098 0.02602773 0.15865758
0.016316375 0.023349492 0.15976594
0.016949959 0.020663245 0.16080189
0.017984034 0.018040834 0.1603972
0.017307024 0.015250641 0.16163194
0.017396756 0.012402586 0.16331941
0.017227976 0.009614124 0.16424042
0.018409181 0.007137042 0.16805696
0.018492073 0.0051312558 0.17074634
0.017574139 0.0028962218 0.17325278
0.016803307 0.00068911718 0.17544894
0 0 0 1 0 0 0 1 0 0 0 1 0 0 0 0 0 252 1 0 0
