ply
format ascii 1.0
comment PCL generated
element vertex 252
property float x
property float y
property float z
element camera 1
property float view_px
property float view_py
property float view_pz
property float x_axisx
property float x_axisy
property float x_axisz
property float y_axisx
property float y_axisy
property float y_axisz
property float z_axisx
property float z_axisy
property float z_axisz
property float focal
property float scalex
property float scaley
property float centerx
property float centery
property int viewportx
property int viewporty
property float k1
property float k2
end_header
-0.024345934 0.033541832 0.14800358
-0.024044991 0.031854104 0.14904352
-0.023802796 0.029955445 0.15123604
-0.023925606 0.028012618 0.15250012
-0.024860242 0.025391787 0.15422153
-0.026139647 0.022089407 0.15440106
-0.02708981 0.018722687 0.15576096
-0.027383318 0.016160203 0.15657325
-0.022103721 0.033098862 0.14577793
-0.022268033 0.031375315 0.14737494
-0.0219009 0.029716829 0.14998794
-0.022054641 0.027639598 0.15086308
-0.022494672 0.025362797 0.15239207
-0.023783742 0.022737039 0.15262455
-0.025130862 0.019202573 0.15344067
-0.025670253 0.015779369 0.15472203
-0.026060645 0.01309214 0.15476499
-0.02631765 0.01050207 0.15443514
-0.026773384 0.0075224587 0.15441927
-0.027394056 0.0046910779 0.15400681
-0.028355433 0.0021828075 0.15323673
-0.028826151 -0.00073050096 0.1527058
-0.029873129 -0.0037411924 0.15293254
-0.019539271 0.033039335 0.14528488
-0.01962411 0.031229733 0.14742109
-0.019602979 0.029351164 0.14914303
-0.0197071 0.027102767 0.15034659
-0.019907257 0.024784215 0.15120441
-0.021315353 0.022506401 0.15143339
-0.022494461 0.019448992 0.15197429
-0.023431404 0.015712108 0.15379551
-0.023388928 0.012588416 0.15414253
-0.023976244 0.0098248003 0.15424049
-0.024462536 0.0073117786 0.15454563
-0.025245827 0.0043705418 0.1547769
-0.026331356 0.0014550047 0.15444963
-0.027647162 -0.0014216275 0.15479964
-0.028105563 -0.0043243989 0.15498082
-0.028920716 -0.0068568862 0.15577972
-0.01672353 0.034260686 0.14447965
-0.017046535 0.031161029 0.14743318
-0.017007096 0.029180057 0.1482852
-0.0171251 0.026929511 0.15013877
-0.017446967 0.024522439 0.15122527
-0.018319394 0.022101209 0.15148388
-0.019426735 0.018860757 0.15220305
-0.020363225 0.01546188 0.15377325
-0.020806547 0.012086649 0.15331268
-0.021495983 0.0093688229 0.15375523
-0.021675883 0.0070758765 0.15510684
-0.023094792 0.0036984603 0.15584607
-0.024431167 0.00056167552 0.15589118
-0.02595233 -0.0021450687 0.15694763
-0.026520224 -0.00497841 0.15756939
-0.013992405 0.034152858 0.14436923
-0.014365643 0.031486005 0.1470677
-0.014629065 0.02908659 0.14792259
-0.01464407 0.026842622 0.1504114
-0.015146006 0.024585821 0.15106116
-0.015795456 0.021700224 0.15169258
-0.016486077 0.018693471 0.15342699
-0.017640781 0.014959166 0.1544356
-0.018080024 0.011543462 0.15426905
-0.018293263 0.0090977848 0.15512612
-0.019046819 0.0062586116 0.15653488
-0.019769968 0.0033381828 0.15693769
-0.02007971 0.00053114881 0.1588642
-0.020489724 -0.0021469204 0.16066132
-0.022969602 -0.0048397523 0.16050388
-0.023926768 -0.0073553976 0.1623431
-0.011769053 0.03435754 0.1455746
-0.012230035 0.031960532 0.14754294
-0.012549229 0.029508052 0.14834344
-0.012476981 0.026399542 0.15102389
-0.012690397 0.023932802 0.15136984
-0.01288082 0.021327306 0.15176047
-0.013931819 0.018213622 0.15425457
-0.014777628 0.014914897 0.15546016
-0.015624169 0.011520237 0.15569367
-0.01573492 0.0089901239 0.15737425
-0.016279044 0.0057038735 0.15810305
-0.016934805 0.0027640623 0.1593897
-0.016879095 0.00060991832 0.1612374
-0.017265987 -0.0016198364 0.16318631
-0.017483566 -0.0039726356 0.164231
-0.017629346 -0.0060590976 0.16667989
-0.0094590709 0.034348045 0.14685525
-0.0099829184 0.031999663 0.1485334
-0.010111833 0.029513817 0.14904583
-0.0098173283 0.026588527 0.15109356
-0.010013388 0.023835609 0.15123335
-0.0099884532 0.021472184 0.15137109
-0.010896116 0.018278291 0.15404965
-0.011032745 0.015085614 0.15560818
-0.012216094 0.011637124 0.15661366
-0.012867002 0.0089924326 0.15803841
-0.014014367 0.0049013887 0.15935442
-0.014075047 0.0024454067 0.16064763
-0.014027089 0.00057501195 0.16316223
-0.014348374 -0.0015440752 0.16482775
-0.014713631 -0.0039805011 0.16548845
-0.014675183 -0.006162968 0.16721572
-0.0071002054 0.034115307 0.14726037
-0.0075751571 0.032036211 0.14912532
-0.0078146737 0.029653041 0.15025617
-0.0073013511 0.026493944 0.15174979
-0.0072763441 0.023850856 0.15193765
-0.0072467816 0.021571338 0.15244651
-0.0068031936 0.017884383 0.15538745
-0.0069263359 0.015299517 0.15650634
-0.007528448 0.012456062 0.1587341
-0.0091192424 0.0099902498 0.15970515
-0.010755522 0.0061507989 0.16039318
-0.010359915 0.0021841754 0.16150856
-0.011080217 0.00012803318 0.16371983
-0.011089457 -0.0014338563 0.16591223
-0.011038612 -0.0040103523 0.16594329
-0.011392709 -0.0062826769 0.16652742
-0.0043990221 0.033780131 0.14767255
-0.0049143224 0.031449381 0.14977683
-0.0051501365 0.02913584 0.15120381
-0.0047327578 0.026329389 0.15215087
-0.0044521699 0.023953587 0.15218601
-0.0041949917 0.021576932 0.15393223
-0.0039920658 0.018005673 0.15655719
-0.0035753925 0.015620306 0.1573085
-0.0036881429 0.012967125 0.15948078
-0.0051026177 0.010921561 0.16083595
-0.0068086153 0.0081373313 0.16250841
-0.0073748385 0.0044491338 0.16355117
-0.0065883645 0.00057350937 0.16508485
-0.0083127851 -0.0010605456 0.16638218
-0.0082814554 -0.0038998369 0.16656123
-0.0020941284 0.033197783 0.14786863
-0.0023460034 0.031115942 0.1497028
-0.00250259 0.028818017 0.15129995
-0.0019943418 0.02663229 0.15207049
-0.0019386738 0.024178125 0.15288131
-0.0020116845 0.021596413 0.15543136
-0.0016404543 0.018403243 0.15769379
-0.0010500296 0.016036456 0.15865973
-0.00040127238 0.013714498 0.15984094
-0.0023263157 0.011486022 0.16156183
-0.0041061072 0.0082027176 0.16393279
-0.0045611551 0.0047237417 0.16521528
-0.0045309006 0.00062865595 0.16630168
-0.0054496089 -0.0014852894 0.1663954
-0.0058948193 -0.0039349073 0.16767105
0.00057945447 0.03288329 0.1483086
0.00023810416 0.030602733 0.14949486
-0.00029193389 0.02856669 0.15092936
0.00037578348 0.026793739 0.15231755
0.00057832716 0.024475371 0.15275049
0.00042982009 0.021781674 0.15647648
0.00072879303 0.018749349 0.15862283
0.0016558311 0.016751761 0.15942883
0.0017449881 0.014199243 0.1605399
0.0010595628 0.011609577 0.16290368
-0.0013596832 0.0082946839 0.16522458
-0.0019615847 0.0046137492 0.16675264
-0.0024810932 0.00043611793 0.16811179
-0.0030830018 -0.0015577389 0.16820435
-0.0034439759 -0.0039621051 0.16972269
0.0030404567 0.03261169 0.14841655
0.0029804225 0.030436153 0.14950754
0.0032479584 0.028712913 0.1511948
0.0033284081 0.026695937 0.15303296
0.0032586504 0.024348494 0.15503785
0.0031944646 0.02208453 0.15667237
0.0034474863 0.019348135 0.15859094
0.0042642904 0.017053708 0.16016285
0.0043212455 0.014421294 0.16154751
0.0040636626 0.011902994 0.16363691
0.0023472945 0.0086763361 0.16580759
0.00080459542 0.0050526294 0.1675223
0.00037489063 0.00045645022 0.16915439
-0.00059315551 -0.0013009834 0.16959041
-0.0011306183 -0.0042818519 0.17217375
0.0055043059 0.033087645 0.14855902
0.0060901544 0.031380385 0.15072981
0.0062107244 0.029560981 0.15207006
0.0060466696 0.02741985 0.15369646
0.0059802197 0.024874922 0.15575963
0.0059197298 0.022351574 0.1573033
0.0059908465 0.019957609 0.15900487
0.0070237857 0.017511172 0.16075073
0.0068784393 0.01492285 0.16310307
0.0067834244 0.012434081 0.16423671
0.0061364132 0.0097937146 0.16624875
0.0060303444 0.007456074 0.16710235
0.0050565177 0.0039524049 0.16927284
0.0028734989 -0.00061496045 0.17245726
0.0022222314 -0.0034758821 0.17419115
0.0084530823 0.033599362 0.14865482
0.008333656 0.031713653 0.15104301
0.0083630541 0.029803623 0.15238076
0.0084680067 0.027856454 0.15410663
0.0084331473 0.025582045 0.1554908
0.0084847091 0.023054464 0.15778038
0.0098048085 0.020807998 0.16092485
0.0095507298 0.017838651 0.16245653
0.0097396625 0.015334121 0.1633013
0.009144024 0.013018345 0.16517042
0.0092250435 0.010556933 0.16639484
0.009063337 0.0077853408 0.16770738
0.0090112798 0.005045325 0.17022246
0.0063195187 0.00012459523 0.17409784
0.0053506414 -0.0026440807 0.17581688
0.010796078 0.033783454 0.14808773
0.010613282 0.031722311 0.15054509
0.010688643 0.029687962 0.15163416
0.010934521 0.028110191 0.15383029
0.011116343 0.026399039 0.15688336
0.011331663 0.023928752 0.15968893
0.012234132 0.021084145 0.16171238
0.012046632 0.018636569 0.16385275
0.012221892 0.015991608 0.16511241
0.011691213 0.013390747 0.16622023
0.011851225 0.010898155 0.16662197
0.011787252 0.0082891146 0.16821575
0.011195499 0.0055892132 0.17041023
0.0094018849 0.0011037543 0.17534883
0.0084369518 -0.0018129527 0.17727025
0.012827438 0.034140721 0.14567563
0.013655912 0.032043282 0.14842877
0.013698744 0.029949872 0.1518693
0.013278965 0.02822876 0.15550222
0.013340589 0.026068527 0.15813333
0.01406063 0.023502002 0.1607507
0.014256615 0.021197701 0.16232973
0.014665313 0.018946549 0.16394867
0.014496646 0.016169667 0.16570571
0.014414216 0.013534092 0.16667129
0.014263061 0.011046236 0.16705771
0.014350733 0.0086402018 0.16907001
0.013312001 0.0048555941 0.17161836
0.012547573 0.0017011581 0.17521375
0.011762287 -0.0011588817 0.1769595
0.016247144 0.033109315 0.1465096
0.01622667 0.030278534 0.15182351
0.015838286 0.027517019 0.15740646
0.01614161 0.025654824 0.15890345
0.016211219 0.023483742 0.16107622
0.016624684 0.021303613 0.16331306
0.017816218 0.018994214 0.16425596
0.017032886 0.016323783 0.16554525
0.016864778 0.013652483 0.16739506
0.016551761 0.010906165 0.16843903
0.016864197 0.0069810045 0.17024143
0.016418654 0.0043782624 0.17228596
0.015226011 0.0016828849 0.17402376
0.014316925 -0.00086174323 0.17564303
0 0 0 1 0 0 0 1 0 0 0 1 0 0 0 0 0 252 1 0 0
