ply
format ascii 1.0
comment PCL generated
element vertex 252
property float x
property float y
property float z
element camera 1
property float view_px
property float view_py
property float view_pz
property float x_axisx
property float x_axisy
property float x_axisz
property float y_axisx
property float y_axisy
property float y_axisz
property float z_axisx
property float z_axisy
property float z_axisz
property float focal
property float scalex
property float scaley
property float centerx
property float centery
property int viewportx
property int viewporty
property float k1
property float k2
end_header
-0.025047567 0.032397125 0.14713824
-0.024792181 0.030859912 0.14830552
-0.024699047 0.029127834 0.1506478
-0.024777494 0.027369719 0.15236674
-0.025466092 0.024844771 0.15478235
-0.026285345 0.02135385 0.15511204
-0.027366256 0.018080397 0.15593544
-0.027820209 0.015603584 0.15669677
-0.022547821 0.032144252 0.14521772
-0.02283925 0.030580826 0.14708309
-0.022681125 0.029055221 0.14971095
-0.022748988 0.027151743 0.1510714
-0.023068065 0.024982046 0.15308815
-0.024133068 0.022213709 0.15384117
-0.025432952 0.018340664 0.15389048
-0.026342575 0.015024903 0.15481381
-0.026770532 0.012422453 0.15467486
-0.027196405 0.009840834 0.15423162
-0.027901139 0.0069381148 0.15440962
-0.028899143 0.0041760695 0.15434377
-0.030212158 0.001690214 0.15432747
-0.030867325 -0.0014325845 0.15379906
-0.031810001 -0.0046586473 0.15376787
-0.020068733 0.032423209 0.14516111
-0.020288348 0.030709576 0.14734061
-0.020300318 0.028959345 0.14919715
-0.020397235 0.026911618 0.15062992
-0.020497279 0.024591124 0.15199749
-0.021721734 0.022185372 0.1526871
-0.022747375 0.018667482 0.15305619
-0.024150917 0.014769932 0.15393287
-0.024207285 0.011730033 0.15421712
-0.024956748 0.0089382613 0.15411226
-0.025643807 0.0065250387 0.15440921
-0.026717748 0.003718928 0.15480897
-0.02803674 0.00090580498 0.15520544
-0.029322261 -0.0023078348 0.15551662
-0.029715551 -0.0053915256 0.15546122
-0.030385431 -0.008007518 0.15618321
-0.017050855 0.034406152 0.14456175
-0.017738145 0.030745529 0.14737141
-0.017701099 0.028831856 0.14829904
-0.017766612 0.026642529 0.15018035
-0.018024461 0.024235804 0.15137112
-0.018848324 0.021918926 0.15207152
-0.019776111 0.018422205 0.15324463
-0.021168346 0.014584851 0.15454355
-0.021590414 0.011171778 0.15369222
-0.022467753 0.0084033376 0.15379474
-0.02272781 0.0061770082 0.15477285
-0.024445701 0.0029097074 0.15546079
-0.025875747 -6.791015e-05 0.15618128
-0.027360616 -0.0031916287 0.15731683
-0.027837813 -0.0061359191 0.15784787
-0.014214298 0.034469828 0.14451484
-0.014723129 0.031109922 0.1469453
-0.015188639 0.028646708 0.14779808
-0.015181096 0.026404625 0.15023559
-0.015699692 0.024140522 0.15077856
-0.016391819 0.021186518 0.15127689
-0.017153811 0.018197523 0.15353207
-0.018369827 0.01438635 0.15516274
-0.018929705 0.010829138 0.15480968
-0.019226436 0.0083286539 0.15526986
-0.020077851 0.0054432875 0.15636753
-0.02085533 0.0025061071 0.15660593
-0.021220474 -0.00041838564 0.15861505
-0.021407895 -0.0031968192 0.16038977
-0.024016399 -0.0059212293 0.16052426
-0.024846543 -0.0084763579 0.16242617
-0.011967391 0.03451515 0.14574242
-0.01251016 0.031663712 0.14741629
-0.012909322 0.029085586 0.14823738
-0.012856444 0.025786841 0.15051685
-0.013121269 0.023350032 0.15099224
-0.013323481 0.020738304 0.15143284
-0.014588304 0.017775999 0.15432616
-0.01544977 0.014592202 0.15605739
-0.016542995 0.011012538 0.15647429
-0.016878961 0.0083087943 0.15786241
-0.017469365 0.0048995386 0.15834005
-0.01812304 0.0020026108 0.15932164
-0.017823888 -0.00012447206 0.1609394
-0.018028423 -0.0024357173 0.16278079
-0.018104635 -0.0047583766 0.16366608
-0.018154861 -0.0069129663 0.16597548
-0.0096724732 0.034273837 0.14694826
-0.010241076 0.031571008 0.14839372
-0.010428851 0.028998239 0.14878879
-0.010138813 0.026000161 0.15025969
-0.010348593 0.023269568 0.15075931
-0.010298663 0.020922424 0.15102641
-0.011362483 0.017891975 0.15398955
-0.011548303 0.01480707 0.15592019
-0.013037361 0.011265866 0.1575707
-0.013982157 0.0084262872 0.15879871
-0.015351866 0.0042517055 0.1596953
-0.015161344 0.0019395455 0.16062774
-0.014893012 1.1414761e-05 0.16287452
-0.015102383 -0.0021978775 0.16436739
-0.015335415 -0.0046289684 0.1649434
-0.015243538 -0.0068175574 0.16661228
-0.0072841523 0.034046151 0.14740361
-0.0077790688 0.031547982 0.14897425
-0.008069763 0.029006183 0.14981511
-0.0075989761 0.025986275 0.15066229
-0.0075275279 0.023404431 0.15122454
-0.0074829203 0.021177569 0.1520551
-0.006906454 0.017440002 0.15512383
-0.0070072655 0.014813352 0.1562746
-0.0075890487 0.011795048 0.15834168
-0.0094629675 0.0092433589 0.15891999
-0.011891083 0.0056071281 0.16031478
-0.011208688 0.0021120938 0.16158675
-0.011900956 -0.00016782578 0.16367479
-0.011896525 -0.0018597632 0.16574228
-0.011764735 -0.0043323119 0.16583727
-0.012178956 -0.0065603042 0.16659856
-0.0045835422 0.033827845 0.14799957
-0.0050881864 0.031341061 0.15000999
-0.0053221569 0.028721528 0.15064886
-0.004887342 0.026139475 0.1511392
-0.0044937651 0.023811385 0.15130478
-0.0042551588 0.021544384 0.15346891
-0.0041850391 0.017681036 0.15642697
-0.0036546267 0.01527169 0.15726355
-0.0037834367 0.01248058 0.15944359
-0.005149988 0.010368438 0.16000099
-0.0070536034 0.0075746956 0.16131274
-0.0078349058 0.0040294523 0.16287377
-0.0075847181 0.00049949373 0.1658328
-0.0092908731 -0.0011696219 0.16683637
-0.0092678433 -0.0039966116 0.16708824
-0.002320138 0.033322711 0.1481459
-0.0025281915 0.03116245 0.14986798
-0.0026812027 0.028765555 0.15089518
-0.0021604423 0.026643787 0.15136659
-0.0020286555 0.024206592 0.15225138
-0.0021272723 0.021633305 0.15502782
-0.0019281892 0.018247945 0.15765326
-0.0012847243 0.015896337 0.1588615
-0.00060432439 0.01374449 0.16016492
-0.0024000825 0.011206431 0.16090575
-0.0043337685 0.0077906479 0.16287743
-0.0049488111 0.0043151071 0.16457208
-0.0054134177 0.0003248541 0.16662738
-0.006463238 -0.0016016158 0.16686636
-0.0068646725 -0.0040420881 0.16818315
0.00034418199 0.033101153 0.14855433
3.9791164e-05 0.030705154 0.14951937
-0.00040852663 0.028630609 0.15057801
0.00019578853 0.026968954 0.15183157
0.00047869052 0.024650125 0.15228729
0.00029834892 0.021826191 0.15611377
0.00033124656 0.018745933 0.15876359
0.0011380726 0.016900986 0.16004266
0.0013971317 0.014448924 0.16086836
0.0010428976 0.011648209 0.16257465
-0.0015123516 0.0080134356 0.16422704
-0.0022437316 0.0041184998 0.16606808
-0.0030689074 -0.00013414781 0.16797861
-0.0038248783 -0.00195217 0.16826224
-0.0041589378 -0.0042578657 0.16980116
0.0028083469 0.032991331 0.14877486
0.0028660232 0.030723993 0.14955309
0.0033483815 0.028807858 0.15093406
0.0032627843 0.026798904 0.15271886
0.0031008958 0.024569005 0.15483625
0.0029050254 0.022410909 0.15648694
0.0029002998 0.01971646 0.15893075
0.0036690971 0.017361648 0.16090295
0.0039838166 0.014627649 0.16185574
0.0040640682 0.011911181 0.16336586
0.0025011224 0.0085221566 0.16478294
0.00068635942 0.0045309844 0.16653809
-6.087542e-05 -0.0004622883 0.16844127
-0.0011551338 -0.0020472989 0.16911384
-0.0015839237 -0.004742614 0.17203128
0.0051628565 0.033607423 0.14921315
0.0058964156 0.031656243 0.15103382
0.0061028576 0.029657876 0.1520528
0.0059646852 0.027378011 0.1533519
0.0058299345 0.024955194 0.15545681
0.0056429268 0.02258555 0.15715918
0.0053346623 0.02042185 0.1595362
0.0064436193 0.017903177 0.16142635
0.0066067763 0.015044007 0.16333067
0.0067793787 0.012390807 0.16393751
0.0063948422 0.0094350586 0.16486369
0.0063476795 0.0071131373 0.16534252
0.0052916356 0.0032730941 0.16788419
0.0029895948 -0.0014692069 0.17170416
0.0021574763 -0.0040678158 0.17373957
0.0081284028 0.034491818 0.14967696
0.008080652 0.032123663 0.15162921
0.0081665572 0.030016126 0.15255734
0.0082828524 0.027848201 0.15392458
0.0082974387 0.025586868 0.1551265
0.0082619572 0.023231858 0.15753944
0.0098752677 0.021024482 0.16147825
0.0092655336 0.018025659 0.16284536
0.0094509041 0.015588149 0.163508
0.0091827754 0.012898701 0.16440509
0.0093919579 0.010320216 0.16499592
0.0094055366 0.0073745549 0.16586253
0.0096333139 0.0044209654 0.16859537
0.006777504 -0.00044359174 0.17343494
0.0057348264 -0.0032267934 0.17517212
0.010395401 0.034902796 0.14928634
0.010279161 0.032431051 0.15126967
0.010452208 0.030238343 0.15196125
0.010750012 0.028347749 0.15384886
0.01085771 0.026377339 0.15666416
0.011200428 0.024046445 0.15997075
0.012353407 0.021144902 0.16206853
0.012056256 0.018593131 0.16377281
0.012151148 0.015998283 0.16499205
0.011653746 0.013249867 0.16567041
0.011975288 0.010765877 0.1653977
0.012123737 0.0079422891 0.16654676
0.011864676 0.0051357499 0.16896625
0.010108707 0.000600236 0.1745411
0.0091092708 -0.0023534035 0.17649306
0.012244137 0.035708509 0.14720419
0.013247475 0.033069558 0.14908139
0.013359744 0.030439068 0.15215766
0.012825844 0.028528824 0.15572354
0.01295446 0.026263716 0.15847601
0.014005184 0.0235545 0.16123529
0.014272881 0.021162078 0.16257079
0.01464628 0.018862294 0.16364342
0.014442275 0.016107537 0.16533162
0.014414729 0.013438354 0.16610572
0.01435129 0.010931088 0.16591744
0.014744448 0.008373376 0.16759393
0.014207018 0.0045748004 0.17052357
0.013448877 0.0012400059 0.17410846
0.012626114 -0.0016169059 0.17599672
0.01568415 0.034761753 0.14759909
0.015849052 0.030663041 0.15217814
0.015295436 0.027874719 0.15794657
0.015802303 0.025964539 0.15958877
0.016038926 0.023556909 0.16159479
0.016610291 0.02117431 0.16338117
0.017812692 0.018917758 0.16399285
0.01696703 0.016290665 0.1650912
0.016878886 0.01350823 0.16678117
0.016650878 0.010638211 0.16727822
0.017602602 0.0069931103 0.16910274
0.017499806 0.004350747 0.1711888
0.016269069 0.001406688 0.17277741
0.015274469 -0.0012259836 0.17443322
0 0 0 1 0 0 0 1 0 0 0 1 0 0 0 0 0 252 1 0 0
