ply
format ascii 1.0
comment PCL generated
element vertex 252
property float x
property float y
property float z
element camera 1
property float view_px
property float view_py
property float view_pz
property float x_axisx
property float x_axisy
property float x_axisz
property float y_axisx
property float y_axisy
property float y_axisz
property float z_axisx
property float z_axisy
property float z_axisz
property float focal
property float scalex
property float scaley
property float centerx
property float centery
property int viewportx
property int viewporty
property float k1
property float k2
end_header
-0.025003383 0.032406632 0.14718018
-0.024742644 0.030830767 0.14829208
-0.024620419 0.029018855 0.15055074
-0.024720004 0.027184185 0.15215367
-0.025518931 0.024499625 0.15426069
-0.02632237 0.021025509 0.15424757
-0.027300525 0.017873973 0.15505183
-0.027710116 0.015436056 0.15593201
-0.022573577 0.03216337 0.14517929
-0.022834824 0.030546112 0.14699318
-0.022624204 0.028941128 0.1495588
-0.02271002 0.026988024 0.15083215
-0.023085132 0.024719404 0.15268108
-0.024180356 0.021889519 0.15317117
-0.025437238 0.018078662 0.15294519
-0.026254198 0.014845453 0.15401918
-0.02659064 0.012337535 0.15410745
-0.026877709 0.0098129781 0.15372638
-0.027509818 0.0069098459 0.15365079
-0.02838617 0.0041428772 0.15339167
-0.029524738 0.0016328848 0.15312068
-0.030067746 -0.0013470048 0.15258291
-0.031113666 -0.0044721258 0.15268469
-0.020079451 0.032391176 0.14503054
-0.020265788 0.030604642 0.14713348
-0.020258399 0.028796857 0.14891934
-0.020356266 0.026713489 0.15026148
-0.020491194 0.024374595 0.1515712
-0.021740353 0.02192563 0.15216707
-0.022761956 0.018381404 0.15214445
-0.024044262 0.014569559 0.15309122
-0.02402194 0.011582036 0.15376209
-0.024660381 0.0089287749 0.15389913
-0.025257576 0.0065704482 0.15396333
-0.026245967 0.0037499138 0.15404473
-0.027379418 0.00090764707 0.15411574
-0.028690474 -0.0021765239 0.15447898
-0.029188456 -0.0051841554 0.15457301
-0.029955972 -0.0077725821 0.15532169
-0.016966263 0.034285102 0.14427446
-0.017700892 0.030600453 0.14710693
-0.0176694 0.028650247 0.14794326
-0.017734397 0.02640181 0.14971662
-0.018001944 0.023981322 0.15078317
-0.018839445 0.021674719 0.15143237
-0.019694431 0.018088331 0.15231457
-0.020986959 0.014327311 0.15348229
-0.021426203 0.010943647 0.15324877
-0.022227002 0.0083354581 0.15373147
-0.022491766 0.0062576705 0.15475297
-0.02407516 0.0030113545 0.15502228
-0.02525566 -1.2929955e-06 0.15522617
-0.026913263 -0.0030191278 0.15649363
-0.027514197 -0.0059081991 0.15712813
-0.014127434 0.034240507 0.14414558
-0.014649894 0.030934973 0.14673704
-0.015145013 0.028475191 0.14749758
-0.015145075 0.026141306 0.14970846
-0.015660709 0.023876447 0.15005529
-0.016340461 0.020913044 0.15034227
-0.017043924 0.017842874 0.15251538
-0.018211085 0.014080401 0.1541722
-0.018702934 0.010648902 0.15419756
-0.019004012 0.0082470775 0.15485188
-0.019891862 0.0054326407 0.15604918
-0.020741463 0.0025299711 0.15636359
-0.021032445 -0.00045243077 0.15803024
-0.02123691 -0.0032469297 0.15963715
-0.023911921 -0.0057689478 0.1600005
-0.02487997 -0.0082379868 0.16198277
-0.011846102 0.034212194 0.14527319
-0.012401169 0.031387057 0.14704236
-0.012823589 0.0288416 0.14794821
-0.012794236 0.025512548 0.14990221
-0.013060446 0.023084251 0.15020321
-0.013261154 0.020483376 0.15061092
-0.014526373 0.01749678 0.15342586
-0.015354975 0.014342411 0.15522149
-0.016291803 0.010831591 0.15574656
-0.016527321 0.0081991684 0.15720971
-0.017174277 0.0048024268 0.15774679
-0.017817862 0.0018567211 0.15851548
-0.017508365 -0.0003015782 0.15994745
-0.017772971 -0.0025553233 0.16182064
-0.017857281 -0.0048640943 0.16270918
-0.01794908 -0.0069763097 0.16502964
-0.0095255859 0.033897247 0.14638746
-0.010089729 0.031237794 0.14791945
-0.010322826 0.028692912 0.14838623
-0.010060919 0.025740596 0.14979413
-0.010266151 0.023027638 0.15010564
-0.010221314 0.020718191 0.15045419
-0.011373797 0.017730996 0.15337572
-0.011554542 0.014764378 0.15553258
-0.01286872 0.011102316 0.156921
-0.01365173 0.0082572894 0.15806799
-0.014983173 0.0040500346 0.15879291
-0.014797118 0.0017132714 0.15959153
-0.014570391 -0.00019261564 0.16177715
-0.014819495 -0.0023564559 0.16330472
-0.015072968 -0.004757944 0.16393021
-0.01502091 -0.0069130771 0.16560115
-0.007169357 0.033566095 0.14676674
-0.007605589 0.031147081 0.14837286
-0.0079311738 0.028660864 0.14931992
-0.0075297407 0.025726978 0.1502317
-0.0074654254 0.023188848 0.15071182
-0.0074886917 0.021068472 0.15172981
-0.0070943278 0.017658627 0.15548457
-0.0072466391 0.015101489 0.15675698
-0.0077950819 0.012173461 0.15886135
-0.0096337087 0.0095252171 0.15911083
-0.011673097 0.0054982859 0.15962316
-0.010853937 0.0018936314 0.16058661
-0.011578565 -0.00035556813 0.16263722
-0.011637411 -0.0020050562 0.16470401
-0.011473483 -0.0044507831 0.16480014
-0.011906595 -0.0066581406 0.16554634
-0.004482381 0.033415649 0.14758807
-0.0050926912 0.030982919 0.14959075
-0.0052604894 0.028451521 0.15029077
-0.0048624654 0.0259587 0.1509736
-0.0044463123 0.023644235 0.15106872
-0.0042390162 0.021291904 0.15323743
-0.0041763871 0.017634178 0.15643376
-0.0037701041 0.015224525 0.15724413
-0.0038701138 0.012535349 0.15948981
-0.005361001 0.010582126 0.16019821
-0.0072428803 0.0077799852 0.16139346
-0.0079102423 0.0041112355 0.16265671
-0.0074801296 0.00048445552 0.16530997
-0.0091316625 -0.0012302756 0.16600144
-0.0090710837 -0.0040509673 0.16626419
-0.0022432364 0.033055801 0.14811972
-0.0025699888 0.030965839 0.1499176
-0.0027437648 0.028663525 0.15108131
-0.0021735388 0.026514512 0.15143986
-0.0020230219 0.024014153 0.1521398
-0.0020748801 0.021306783 0.15477861
-0.0017275442 0.017965877 0.15728217
-0.0010829357 0.015557848 0.15830155
-0.0005109295 0.013324341 0.15932672
-0.0025209154 0.011188077 0.16073769
-0.0044755815 0.0079016695 0.16285953
-0.0049902829 0.0043380326 0.16433135
-0.0053688949 0.00034897396 0.16625929
-0.0063852575 -0.0015601484 0.16641623
-0.0067630834 -0.0040406683 0.16766982
0.00033374393 0.032967228 0.14893858
2.012398e-05 0.030634578 0.14999406
-0.00046607791 0.028630722 0.15106599
0.00014825922 0.026857501 0.15207304
0.00046623874 0.024511611 0.15230455
0.00040051129 0.021404365 0.15578683
0.00069035421 0.018225906 0.15795724
0.0015272034 0.016172888 0.15848011
0.0015587594 0.013837731 0.15948954
0.0010544079 0.011350556 0.16168977
-0.0015933068 0.0080025671 0.16400164
-0.0022371116 0.00409341 0.16576399
-0.003092722 -6.8873087e-05 0.16773376
-0.003854055 -0.0018444759 0.16802517
-0.0042054271 -0.0041520908 0.16951169
0.002713803 0.032853808 0.14939266
0.0027285407 0.03063933 0.15032949
0.0031625961 0.028838422 0.15176837
0.003226582 0.026652077 0.15293995
0.0032764529 0.023994371 0.15445621
0.0031734919 0.021620134 0.1557125
0.0033264533 0.01869534 0.15721588
0.0040643532 0.016442647 0.15870303
0.0042087208 0.013898066 0.16008399
0.0041727205 0.011471903 0.16210102
0.0025147106 0.008253511 0.16397935
0.00069427775 0.0044445884 0.16616157
-0.00016089914 -0.00033302809 0.16838571
-0.0012304012 -0.0018739727 0.16903496
-0.0017438453 -0.0045583346 0.17191195
0.0050286306 0.033104062 0.14942364
0.0058304109 0.031284083 0.15129516
0.0060898443 0.029421072 0.15237284
0.0060509485 0.027046481 0.1532996
0.0061140754 0.024193263 0.15471795
0.0060694246 0.021477278 0.15579303
0.0059269434 0.018973064 0.15712559
0.0068990947 0.01676926 0.15886283
0.0069708196 0.014299296 0.16125782
0.0069566127 0.011821041 0.16240154
0.0063694282 0.0091444701 0.16405681
0.0062111849 0.0068837628 0.16485129
0.0051995376 0.0033131635 0.16769047
0.0027929393 -0.0011379658 0.17178583
0.0018810891 -0.0036877231 0.17388375
0.0080655385 0.033745497 0.14936809
0.0080838222 0.031664453 0.15159005
0.0082462337 0.029649017 0.15251002
0.0084630484 0.027376981 0.15361483
0.0085537462 0.024915829 0.15430377
0.0087549984 0.022025913 0.15593421
0.010564743 0.01927107 0.15800066
0.009811095 0.01651717 0.15955855
0.0098399576 0.014513383 0.16104798
0.0093159797 0.012205717 0.16277128
0.0093674781 0.0098366439 0.16398157
0.0092416201 0.00718365 0.16551654
0.0094261998 0.0048271241 0.16871651
0.0065226029 0.00013842955 0.17352608
0.0054001119 -0.0025415902 0.17547493
0.010232343 0.034078784 0.14878395
0.010239658 0.03192348 0.15091775
0.010485767 0.029813217 0.15146762
0.010942315 0.027824035 0.15319386
0.011351836 0.025397154 0.1556112
0.011926395 0.022649147 0.15735869
0.013054922 0.019291932 0.15842974
0.012599385 0.016885374 0.15999159
0.01248419 0.014823194 0.16194472
0.011783322 0.012645443 0.16371599
0.011958411 0.010200949 0.16423136
0.011986667 0.0077490327 0.1660285
0.01166625 0.0054869149 0.16888405
0.0098001612 0.001473822 0.17471425
0.0087128133 -0.0013584836 0.17691268
0.01181131 0.035601776 0.14718531
0.012958685 0.033225372 0.14893429
0.013360647 0.030197471 0.15155406
0.013268573 0.027608845 0.15453312
0.013658203 0.02499456 0.15649875
0.014800338 0.021718489 0.15785326
0.014987434 0.019249547 0.1588414
0.01520346 0.017017582 0.15990753
0.014750074 0.014923357 0.1623953
0.01452029 0.012714331 0.16405348
0.014323864 0.010333234 0.16469993
0.014630768 0.0082636448 0.16690573
0.013996188 0.0050800326 0.17039329
0.013139838 0.0022970641 0.17444731
0.012240052 -0.00044187313 0.17659239
0.015244892 0.03531209 0.14762141
0.015838955 0.030643359 0.15155742
0.015922414 0.026522074 0.156159
0.016582662 0.024353364 0.15686104
0.016846731 0.021569896 0.15800707
0.017354876 0.0191612 0.15942724
0.018378992 0.016978122 0.16022511
0.01728886 0.014944615 0.16229078
0.016943708 0.012828052 0.16480127
0.016514948 0.010335383 0.16611591
0.017481931 0.0069478019 0.16846015
0.017275989 0.0048369914 0.17106974
0.015949676 0.0023007165 0.17323332
0.014901846 -0.00010201899 0.1752194
0 0 0 1 0 0 0 1 0 0 0 1 0 0 0 0 0 252 1 0 0
