ply
format ascii 1.0
comment PCL generated
element vertex 252
property float x
property float y
property float z
element camera 1
property float view_px
property float view_py
property float view_pz
property float x_axisx
property float x_axisy
property float x_axisz
property float y_axisx
property float y_axisy
property float y_axisz
property float z_axisx
property float z_axisy
property float z_axisz
property float focal
property float scalex
property float scaley
property float centerx
property float centery
property int viewportx
property int viewporty
property float k1
property float k2
end_header
-0.025072262 0.032635499 0.1474687
-0.024859402 0.030974394 0.14845005
-0.02484878 0.028995259 0.15052736
-0.025063351 0.027044665 0.15191586
-0.026056744 0.024286835 0.15370236
-0.026670137 0.02086868 0.15364663
-0.027574223 0.017823655 0.15444255
-0.028015682 0.015407105 0.15533471
-0.022549013 0.032594554 0.14565518
-0.022861017 0.03082723 0.14727069
-0.022789294 0.029012134 0.14968686
-0.022960514 0.026959345 0.15078478
-0.023506211 0.024572417 0.15234089
-0.024547936 0.021726932 0.15273342
-0.025549961 0.017982431 0.15249918
-0.026410356 0.014798085 0.15354089
-0.026740108 0.012287508 0.15356955
-0.027015164 0.009727872 0.15328121
-0.027646314 0.0068210745 0.15332857
-0.028546469 0.004015713 0.15329725
-0.029698497 0.0014461416 0.15320601
-0.030371325 -0.0015819985 0.15299894
-0.031607099 -0.0046892771 0.15343282
-0.020038011 0.032871526 0.14568253
-0.020305973 0.030915793 0.14761065
-0.020375846 0.028962964 0.1492354
-0.020541869 0.026763231 0.1503561
-0.020797642 0.024316307 0.15142193
-0.022073163 0.021833988 0.15191862
-0.022868834 0.018282367 0.15192346
-0.024154147 0.014513678 0.15264906
-0.02415623 0.011541306 0.1531955
-0.024796559 0.0088635962 0.15347271
-0.025409067 0.0064892927 0.15369895
-0.026430015 0.0036587692 0.15400217
-0.027575653 0.00076278992 0.15427116
-0.028952491 -0.0024195288 0.15488397
-0.02955249 -0.0054571554 0.15511931
-0.030314695 -0.0080341995 0.15596294
-0.017116278 0.034987003 0.1454277
-0.017723493 0.030981649 0.14785267
-0.01772658 0.02896896 0.14847338
-0.01788184 0.026520163 0.14992422
-0.018213447 0.024023574 0.15067779
-0.019086163 0.021727219 0.15130723
-0.019844476 0.018264476 0.15250739
-0.021108186 0.014334247 0.15296946
-0.021565106 0.010883728 0.15272726
-0.02237485 0.0082881376 0.15342608
-0.022747567 0.0062804068 0.15476435
-0.024326254 0.0029878982 0.15513253
-0.025471348 -0.00011175682 0.15546066
-0.027046679 -0.0033386135 0.15676162
-0.027639709 -0.0062633432 0.15745211
-0.014394893 0.034830462 0.14517868
-0.014755625 0.031314347 0.14773522
-0.015205135 0.028847301 0.14825495
-0.015293905 0.026253814 0.14994341
-0.015810294 0.02398276 0.1500812
-0.016457271 0.021072662 0.15062478
-0.017216938 0.018203564 0.15289861
-0.01835138 0.014282391 0.15406695
-0.018882664 0.010623457 0.15387341
-0.019267792 0.0081811231 0.15473244
-0.02022893 0.0054563889 0.15615445
-0.021214994 0.002611941 0.15667629
-0.02149253 -0.00048683505 0.15846342
-0.021506004 -0.0034991303 0.1599514
-0.023862235 -0.0062233214 0.16002578
-0.024628427 -0.0087600108 0.16199526
-0.012069128 0.034634199 0.14608775
-0.012550713 0.031630799 0.14774361
-0.012934006 0.029034514 0.14864036
-0.01295679 0.025657408 0.1501552
-0.013222913 0.023285327 0.15065454
-0.013427008 0.020733923 0.1512493
-0.014711718 0.017831806 0.15387729
-0.015510962 0.014552306 0.15530348
-0.016420458 0.010822964 0.15547176
-0.016673747 0.0080964202 0.15698855
-0.017467169 0.0047382279 0.1577393
-0.018250249 0.0018165782 0.15878424
-0.017887568 -0.00040422537 0.16029213
-0.018049587 -0.0027117976 0.16214779
-0.018082222 -0.0050182971 0.16303027
-0.018081401 -0.0071532563 0.16534527
-0.0096822623 0.0341377 0.14695904
-0.010167019 0.031340383 0.14836285
-0.010436649 0.028772134 0.14876842
-0.010229583 0.025801243 0.15012433
-0.010455227 0.023178909 0.15066209
-0.010420995 0.020892907 0.15097792
-0.011538714 0.017972089 0.15383698
-0.011679419 0.014899099 0.15572484
-0.012945488 0.011083005 0.15669391
-0.013720693 0.0080677103 0.15770864
-0.015336974 0.0039292332 0.15883443
-0.015190272 0.0016121189 0.15981369
-0.014881218 -0.00029674912 0.16205227
-0.01507172 -0.0024617587 0.1635858
-0.015287369 -0.0048717363 0.16420801
-0.015169151 -0.0070389523 0.16586491
-0.0073014293 0.033732351 0.14713867
-0.007644664 0.031139268 0.1485579
-0.0079745343 0.028631203 0.14945872
-0.0076653748 0.025758112 0.15048784
-0.0076395995 0.023269191 0.15112187
-0.0076262555 0.021110706 0.15200697
-0.0072024968 0.017436884 0.15566537
-0.0073414757 0.014813556 0.15701529
-0.0079136528 0.011970486 0.15935364
-0.0097770514 0.0094519565 0.15947209
-0.011892891 0.0053555593 0.15967616
-0.011178515 0.0017733243 0.16075587
-0.011863454 -0.00045244468 0.1628425
-0.011853616 -0.0020990446 0.16491699
-0.011706445 -0.0045549753 0.16498195
-0.012124394 -0.0067790048 0.16568689
-0.0045746337 0.033537261 0.14790295
-0.0051393243 0.030932419 0.14969923
-0.005323228 0.02838896 0.15031233
-0.0049986565 0.025971884 0.15101868
-0.0046118833 0.023655422 0.15109831
-0.0044779405 0.021438196 0.15340918
-0.0043899463 0.017536068 0.1568384
-0.0038830121 0.015058315 0.1577414
-0.0039322646 0.012378632 0.16018568
-0.0054722019 0.010488657 0.16089527
-0.0074456902 0.0077591082 0.1619557
-0.0081026116 0.0040795295 0.16302489
-0.0074432455 0.00028827298 0.16514651
-0.0092328265 -0.0014151216 0.16600029
-0.0092133265 -0.0042392127 0.16623606
-0.0023253928 0.033142142 0.14840132
-0.0026226856 0.030910274 0.15002972
-0.0028072088 0.028576761 0.1510196
-0.0022800048 0.026481131 0.15133511
-0.0021635816 0.024012528 0.15208158
-0.0023630017 0.021514772 0.15501131
-0.0019964084 0.017983027 0.15776879
-0.0012303967 0.015496614 0.15893175
-0.00052110781 0.013279991 0.16021681
-0.002589822 0.011103957 0.16155635
-0.0046795658 0.0078581134 0.16355266
-0.0051784986 0.0042792954 0.16476257
-0.005309477 0.00012162118 0.16608852
-0.0063903658 -0.0018092822 0.16615875
-0.0067865127 -0.0042967335 0.16742975
0.00027295022 0.032977812 0.14914468
-3.5609668e-05 0.03056537 0.15004954
-0.00052416767 0.028508415 0.15090945
6.9253707e-05 0.026786963 0.15186016
0.0003453141 0.024450438 0.15212885
7.8360616e-05 0.021641847 0.15608142
0.00039436464 0.018333772 0.15858403
0.0014240911 0.016213296 0.15949593
0.0015653853 0.013859528 0.16062322
0.0011116512 0.0113352 0.16281126
-0.0017370984 0.0079542128 0.16486169
-0.0023870552 0.0040098731 0.1662737
-0.0030361537 -0.00036413508 0.16756278
-0.0037852062 -0.0021679963 0.16767815
-0.0041170721 -0.0044934377 0.16911213
0.0026809766 0.032781772 0.14942612
0.0026913388 0.030515309 0.15022203
0.003180319 0.028597882 0.1513506
0.0031700507 0.026561735 0.15271717
0.0030307411 0.024147101 0.15462388
0.0027982236 0.021922508 0.15612289
0.0030647384 0.018919317 0.15819004
0.0040081833 0.016529063 0.1599835
0.004205842 0.01400539 0.16140795
0.0041964492 0.011604115 0.16344178
0.0025258332 0.0083071496 0.1651895
0.00056535413 0.0044306722 0.16700773
-0.0001126615 -0.00063645543 0.16817775
-0.001155853 -0.0022330245 0.16867092
-0.0015667561 -0.0050598849 0.17141229
0.0050346404 0.03294047 0.14920412
0.005818509 0.031042526 0.15088944
0.006054698 0.029218482 0.15194331
0.0059474809 0.027010614 0.15322869
0.0058176829 0.024398958 0.15513083
0.0056120972 0.02187174 0.15661664
0.0055890065 0.01928669 0.15833762
0.0068340367 0.016931705 0.16020894
0.0069291107 0.014513656 0.16266106
0.00695471 0.012082473 0.16389008
0.0064164768 0.0094050197 0.16566552
0.0062885303 0.0070804805 0.16637622
0.0052756579 0.0033054396 0.16860783
0.0028822934 -0.0016307627 0.17162199
0.0020959566 -0.0043443241 0.17338045
0.0080862241 0.033568699 0.14912471
0.0080124857 0.031555388 0.15132481
0.0081011457 0.029639231 0.15241082
0.0082366001 0.027544755 0.15386158
0.0083008418 0.025167095 0.15489586
0.0082658296 0.022507014 0.15702987
0.010240681 0.019901093 0.15997179
0.0097299069 0.01690997 0.16114561
0.0097730765 0.01486686 0.16263071
0.0093012191 0.012623013 0.1645873
0.0094437897 0.010201247 0.16567244
0.0094212983 0.0074410206 0.16699934
0.0096942699 0.0047967914 0.16982087
0.006602481 -0.00049340859 0.17362717
0.0055329781 -0.0033502488 0.17521301
0.010283555 0.034038767 0.14881758
0.010140798 0.03200436 0.15105648
0.010422529 0.030026315 0.15183689
0.010706179 0.028187837 0.15386871
0.010730755 0.026091391 0.15668362
0.0113544 0.023293914 0.15919846
0.012678598 0.020121489 0.16062507
0.012390393 0.017663401 0.16207632
0.012370449 0.015423873 0.16387945
0.011851463 0.013011383 0.16543925
0.012060152 0.010582227 0.16579047
0.012183538 0.0080112657 0.16742027
0.011945755 0.0054610665 0.16994309
0.0099018449 0.0007442378 0.17502648
0.0088210786 -0.0023024913 0.17685698
0.012027381 0.035908826 0.14799137
0.013079497 0.033814527 0.15022118
0.013173483 0.030822445 0.1528303
0.012682055 0.028268998 0.15579033
0.01297672 0.025664063 0.15810917
0.014258375 0.022610327 0.1600744
0.014576977 0.020204503 0.16113964
0.014951424 0.01801105 0.1621813
0.01464719 0.015575914 0.16423936
0.014660279 0.013052109 0.16542818
0.014485979 0.010679877 0.16598822
0.014849129 0.0084817261 0.16815796
0.014255201 0.0049178568 0.17124592
0.013331456 0.0016702553 0.17492178
0.01238833 -0.0013153241 0.17672403
0.015377987 0.036184125 0.14958382
0.015509264 0.031560991 0.15350825
0.015147174 0.027256068 0.15787575
0.01590714 0.025230637 0.15890341
0.01629493 0.022615001 0.16036062
0.016912688 0.020267352 0.1618388
0.018074891 0.018135952 0.1625095
0.01716256 0.015730429 0.16392723
0.017178915 0.013086211 0.16581023
0.016870385 0.010458725 0.16690405
0.017677901 0.0071052541 0.16953337
0.017526211 0.0047354409 0.17191803
0.016224498 0.0019052764 0.17377202
0.015149207 -0.00075051544 0.17546737
0 0 0 1 0 0 0 1 0 0 0 1 0 0 0 0 0 252 1 0 0
