ply
format ascii 1.0
comment PCL generated
element vertex 252
property float x
property float y
property float z
element camera 1
property float view_px
property float view_py
property float view_pz
property float x_axisx
property float x_axisy
property float x_axisz
property float y_axisx
property float y_axisy
property float y_axisz
property float z_axisx
property float z_axisy
property float z_axisz
property float focal
property float scalex
property float scaley
property float centerx
property float centery
property int viewportx
property int viewporty
property float k1
property float k2
end_header
-0.025206003 0.032032765 0.14701442
-0.025008911 0.030343441 0.14793989
-0.025058975 0.028280253 0.1499235
-0.025279667 0.026243415 0.1512149
-0.026178522 0.023521699 0.15305531
-0.02654177 0.020247532 0.15339611
-0.027267233 0.017388195 0.15442821
-0.027655179 0.015033687 0.15547369
-0.022567254 0.032158516 0.14545274
-0.022950906 0.030310828 0.14695938
-0.022965293 0.028401103 0.14926185
-0.023136716 0.02623569 0.1502869
-0.023649383 0.023761885 0.15171443
-0.024548445 0.02097871 0.15234721
-0.025381468 0.017404953 0.15238068
-0.02618441 0.014343115 0.15360793
-0.026492348 0.01189493 0.15389001
-0.026783764 0.0094109746 0.15365988
-0.027477274 0.0065198531 0.15374467
-0.028518753 0.0038093487 0.1538619
-0.029810481 0.0013576536 0.1537068
-0.030295661 -0.0015897241 0.15246545
-0.031223234 -0.0047204723 0.15188904
-0.020084167 0.032516997 0.14569266
-0.020409903 0.030480409 0.14755729
-0.020515176 0.028438479 0.14911164
-0.020678798 0.026091682 0.15005828
-0.020912966 0.023519048 0.15091066
-0.022105167 0.021070082 0.1515412
-0.022745626 0.017602783 0.15175611
-0.023959715 0.013977652 0.15262629
-0.023897829 0.011049569 0.15345
-0.024567565 0.0084656104 0.15379418
-0.025226384 0.006110684 0.15387097
-0.026353175 0.0033772637 0.15438589
-0.02765139 0.00057157391 0.15457933
-0.02884518 -0.0025733828 0.15408939
-0.029276026 -0.0056034881 0.15363599
-0.030036509 -0.0082425084 0.15415023
-0.017212417 0.034592405 0.14536978
-0.017776772 0.030611679 0.14813043
-0.01779709 0.028573116 0.14865476
-0.017964197 0.025986435 0.14996713
-0.01826261 0.023446934 0.15067777
-0.019094776 0.021115903 0.15124652
-0.019615179 0.017599834 0.15236139
-0.020805797 0.013715594 0.15274645
-0.021363536 0.010300168 0.15282711
-0.022150408 0.0078078103 0.15355982
-0.022279087 0.0058753574 0.15439034
-0.024101369 0.0026282405 0.1551342
-0.025504811 -0.00041943285 0.15551907
-0.026988911 -0.0036184813 0.15583736
-0.027547982 -0.0065715481 0.15607794
-0.014509108 0.034472585 0.14517164
-0.01481014 0.030932896 0.14798144
-0.015243165 0.028502991 0.14853323
-0.015342108 0.025798978 0.15023632
-0.015847875 0.023558462 0.15047613
-0.016464109 0.020628501 0.15108386
-0.016901778 0.017544391 0.15277407
-0.017908243 0.013636255 0.15378994
-0.018494081 0.01028925 0.15393557
-0.018756622 0.0079728989 0.15457857
-0.019511687 0.0050995345 0.15542607
-0.020285662 0.0021570623 0.15540434
-0.020892829 -0.0010319534 0.15720943
-0.021248136 -0.0037462565 0.15917747
-0.023859251 -0.0065142419 0.15907572
-0.024778731 -0.0090845767 0.16091757
-0.012207478 0.034316979 0.14607479
-0.01263626 0.031244731 0.14778563
-0.01296681 0.028617134 0.14871106
-0.012941652 0.025199253 0.15051147
-0.013162105 0.022784229 0.150837
-0.013270989 0.020182768 0.15116957
-0.014357001 0.01719496 0.15363567
-0.015092645 0.013963817 0.15512674
-0.016051311 0.010491363 0.15559934
-0.016261792 0.0077916202 0.15697028
-0.016805848 0.0043329997 0.15704906
-0.01763542 0.0012713673 0.15765536
-0.017492093 -0.00080417522 0.15937775
-0.017764121 -0.0029130089 0.16142289
-0.017862223 -0.0051456336 0.16245908
-0.017913776 -0.007118999 0.16490112
-0.0098266862 0.033856891 0.14698274
-0.010243817 0.030970665 0.14832947
-0.010474226 0.028392708 0.14874746
-0.010199361 0.025446597 0.15018669
-0.010318059 0.02274901 0.15049657
-0.010193675 0.020439023 0.1506647
-0.011180913 0.017421041 0.15350117
-0.011232987 0.014471732 0.15546466
-0.012608786 0.01078815 0.15694322
-0.013358797 0.0078619402 0.1578135
-0.014813923 0.0034622389 0.15801983
-0.014762465 0.0011400607 0.15884681
-0.014544877 -0.00058850588 0.16121395
-0.014773767 -0.0026370203 0.16287233
-0.015050001 -0.0049938802 0.16362645
-0.014971648 -0.0070529017 0.16536352
-0.0074265995 0.033514511 0.1471844
-0.0076945205 0.030765209 0.14844507
-0.0079956735 0.02828007 0.14936616
-0.0076018218 0.025483642 0.15047102
-0.0074768863 0.022957888 0.15085383
-0.0073550367 0.020765092 0.15163955
-0.0066839685 0.017225021 0.15471597
-0.0068358402 0.014698842 0.15580016
-0.0074385512 0.011886195 0.15810969
-0.0094295507 0.0093420641 0.15856321
-0.011496285 0.0050387792 0.15891752
-0.010822766 0.0013498848 0.15976943
-0.011526141 -0.00074043544 0.16198194
-0.011518674 -0.0022528598 0.1641002
-0.011429337 -0.0047206427 0.16422659
-0.011887988 -0.0069044605 0.16500428
-0.004684458 0.033338796 0.14785431
-0.0051695826 0.030590171 0.14939333
-0.0053252648 0.028099414 0.1500397
-0.0049617719 0.025803663 0.15075055
-0.0044341846 0.023529978 0.15076095
-0.0041712802 0.021215372 0.15289667
-0.0039219288 0.017398719 0.15576309
-0.0034446865 0.015000274 0.15656616
-0.0035304632 0.012362448 0.15903017
-0.0050344234 0.010451913 0.15959248
-0.0070361029 0.0076981112 0.16064784
-0.0076961596 0.0039826976 0.16182089
-0.0069726198 1.9852892e-05 0.16399321
-0.0089008017 -0.0016064354 0.16493215
-0.0089402767 -0.0044086683 0.16535825
-0.002422478 0.032989752 0.14835729
-0.0026745177 0.0306908 0.14986899
-0.0028865612 0.028459635 0.15090026
-0.0023124227 0.026445044 0.1512266
-0.0020456461 0.024002276 0.15183882
-0.0020809104 0.021308534 0.15452194
-0.0015797126 0.017857024 0.15680175
-0.00087189017 0.015459108 0.15786709
-0.000145225 0.013267208 0.15934615
-0.002190504 0.011112656 0.16032735
-0.0042421524 0.0078250309 0.16219106
-0.0047063255 0.0041900449 0.16349462
-0.0048898128 -8.1236249e-05 0.16510037
-0.006051966 -0.0020136822 0.16520616
-0.0065360442 -0.0044055884 0.16663438
0.00016556573 0.032893814 0.14913446
-5.1181512e-05 0.030461123 0.15002139
-0.00059018104 0.02851077 0.15094534
-1.5412808e-05 0.026873739 0.15188585
0.00041653088 0.024594791 0.15203796
0.00033059483 0.021519057 0.15564975
0.00075153913 0.018224701 0.15773109
0.0016929817 0.016049597 0.15871023
0.0018761985 0.013682289 0.15984589
0.0014448067 0.01122258 0.1619053
-0.0014089083 0.0079607973 0.16358039
-0.0019513196 0.0039311936 0.16512908
-0.0026930252 -0.00044623646 0.16678716
-0.0035048842 -0.0022752329 0.16691335
-0.0039118174 -0.0045028371 0.16845503
0.0025704661 0.032776095 0.14945418
0.0026413864 0.030505734 0.15022001
0.0030960119 0.028668821 0.1513547
0.0031884024 0.026730891 0.15272085
0.003077209 0.024304735 0.15458372
0.0028637312 0.02203913 0.15598235
0.0032539475 0.01887238 0.15772773
0.0042245211 0.016287426 0.15939376
0.0044824025 0.013716847 0.16067885
0.0045231408 0.011280309 0.16253237
0.0027757993 0.00818252 0.16411699
0.000879361 0.0043720617 0.16594833
0.00014362231 -0.00070593506 0.16759029
-0.00092796207 -0.0022759924 0.16807163
-0.0014375724 -0.0049181138 0.17096193
0.0049017915 0.033071317 0.1493025
0.0058053639 0.031095114 0.15078725
0.0061190333 0.029173588 0.15160915
0.0060365801 0.027043724 0.15295559
0.0058998512 0.024524551 0.15500976
0.0056929775 0.022039877 0.15656283
0.0057118512 0.019296573 0.15807299
0.0070415963 0.016722096 0.15970418
0.0071805972 0.014173231 0.16197126
0.0072717387 0.011674857 0.16303502
0.0067981393 0.0089990394 0.16467448
0.0066835117 0.0067176251 0.16541889
0.0057413024 0.0031231113 0.1679325
0.0031787821 -0.0015332905 0.17127852
0.0022521741 -0.0041086646 0.17309934
0.0079506021 0.033777721 0.14917818
0.0080403248 0.031538442 0.15104239
0.0082309498 0.029490663 0.15182073
0.0084101399 0.027369348 0.15321869
0.0084230984 0.02507885 0.15438761
0.0083936006 0.022580983 0.15679625
0.010395523 0.019701831 0.15981892
0.0098852748 0.016743312 0.16085413
0.010005894 0.014573686 0.16196436
0.0097452551 0.012174642 0.16351233
0.0099049164 0.0097433459 0.16459262
0.0099324789 0.0070319432 0.16603716
0.010420943 0.0045360061 0.16915245
0.007205206 -0.00043896376 0.17326196
0.005973096 -0.0031667552 0.17496225
0.010201699 0.034274764 0.14885798
0.010202186 0.031933416 0.15056986
0.010499253 0.029759916 0.1509456
0.010893586 0.027805816 0.15289351
0.011090972 0.025703492 0.15574054
0.011714146 0.022907622 0.15850385
0.012847058 0.019841915 0.16043888
0.012538114 0.0174355 0.16198297
0.012675124 0.015005454 0.16321205
0.012262261 0.012490884 0.16431329
0.012536508 0.010124157 0.16463539
0.012717899 0.0076111783 0.16636325
0.01281684 0.0052437619 0.1693594
0.010675713 0.0008058942 0.17469917
0.0094472561 -0.0021267147 0.17662856
0.012102909 0.036274984 0.14818469
0.013366464 0.03393323 0.14995822
0.013505469 0.030499235 0.15203306
0.013128018 0.027745966 0.15487209
0.013434067 0.025091602 0.15706488
0.014528857 0.022163557 0.1595746
0.014738264 0.019895311 0.16097423
0.015082899 0.017828243 0.16216643
0.014908079 0.015244971 0.1636751
0.015017825 0.012641159 0.16454051
0.01495449 0.010258852 0.16485973
0.015472074 0.0081568565 0.16713449
0.015415561 0.0050593135 0.17112505
0.014300625 0.0018088011 0.17476851
0.013278219 -0.0011224725 0.17660999
0.015849682 0.036177918 0.14915696
0.016003074 0.031110233 0.15272667
0.015640002 0.026725372 0.15708046
0.016373822 0.024469957 0.15789267
0.016547663 0.022115456 0.15988794
0.017017446 0.020002712 0.16185497
0.018133001 0.018086772 0.16293667
0.017412513 0.015621609 0.16373557
0.017436786 0.012898006 0.16534053
0.017265461 0.010115001 0.16600205
0.018721918 0.0075406721 0.16945724
0.01874527 0.0053080251 0.17204843
0.017500605 0.0023389331 0.17385301
0.016291507 -0.00044828502 0.17548318
0 0 0 1 0 0 0 1 0 0 0 1 0 0 0 0 0 252 1 0 0
