ply
format ascii 1.0
comment PCL generated
element vertex 252
property float x
property float y
property float z
element camera 1
property float view_px
property float view_py
property float view_pz
property float x_axisx
property float x_axisy
property float x_axisz
property float y_axisx
property float y_axisy
property float y_axisz
property float z_axisx
property float z_axisy
property float z_axisz
property float focal
property float scalex
property float scaley
property float centerx
property float centery
property int viewportx
property int viewporty
property float k1
property float k2
end_header
-0.025391769 0.031913165 0.14621592
-0.025225867 0.03019933 0.14710812
-0.025344208 0.028082177 0.1490529
-0.025548898 0.026037823 0.15041399
-0.026196295 0.023511322 0.15295833
-0.026457211 0.020409184 0.15384378
-0.027259227 0.017559744 0.15469119
-0.027690057 0.015142438 0.15542345
-0.022611929 0.032180171 0.14481632
-0.023106951 0.030227933 0.14623706
-0.023227338 0.028248347 0.14846842
-0.023402389 0.026048541 0.14946954
-0.023788335 0.023623433 0.15124051
-0.024530467 0.021014903 0.15251026
-0.02531709 0.017687414 0.15276334
-0.026176054 0.014601509 0.15357362
-0.026499342 0.012155151 0.15347287
-0.026785297 0.0097183185 0.1528993
-0.027454957 0.0068255379 0.15294597
-0.028450362 0.0040867119 0.152981
-0.029627265 0.0015767923 0.15284553
-0.030022673 -0.0013971647 0.15185319
-0.031048894 -0.0045408257 0.15150006
-0.020192208 0.032505196 0.14520189
-0.020593019 0.030417038 0.14695548
-0.020764079 0.028340796 0.14844805
-0.020935921 0.025946289 0.14927964
-0.021114672 0.023337245 0.1501995
-0.022184579 0.020972652 0.15134715
-0.0227102 0.017782466 0.1521254
-0.023988171 0.014361336 0.1525756
-0.023957558 0.011433356 0.15293992
-0.024587609 0.0088014016 0.15306534
-0.025219586 0.0064359372 0.15325265
-0.026344985 0.0036817719 0.15365446
-0.027545566 0.00085734593 0.15394224
-0.028686661 -0.0023223923 0.15363437
-0.029170915 -0.0053606932 0.15337647
-0.029968992 -0.0079709459 0.15400514
-0.017385859 0.034509335 0.14523639
-0.017991072 0.030586153 0.14764184
-0.018045109 0.028572764 0.14818992
-0.018212043 0.025957402 0.1494758
-0.01847164 0.023369003 0.15011467
-0.019234361 0.021009337 0.15073243
-0.019514302 0.017598065 0.15195727
-0.020893546 0.014180309 0.15253107
-0.021440919 0.010791341 0.15220357
-0.022193285 0.0082117608 0.15289342
-0.022429544 0.0062689143 0.15407422
-0.024219457 0.0029717311 0.15470636
-0.025476646 -5.4871878e-05 0.15513594
-0.026945513 -0.0032895082 0.15556675
-0.027541293 -0.0062241158 0.15596423
-0.014679272 0.034314565 0.14503309
-0.014948617 0.030908985 0.14776579
-0.0154271 0.028544372 0.14831327
-0.015569251 0.025845524 0.1499308
-0.016009059 0.023548067 0.15011919
-0.016556557 0.020626608 0.15083824
-0.016812161 0.017585622 0.1522854
-0.017809331 0.013776998 0.15326919
-0.018604506 0.010640792 0.15329419
-0.01896463 0.0083394814 0.15397857
-0.019745763 0.005507553 0.15503991
-0.020616625 0.0026016587 0.15526615
-0.021082191 -0.00075705408 0.15734707
-0.02135182 -0.0037130513 0.15929914
-0.023917643 -0.0062439372 0.15907821
-0.024870988 -0.0087612504 0.16098662
-0.012350111 0.034091927 0.14583413
-0.012745081 0.031124068 0.14764614
-0.013099275 0.028590828 0.14869627
-0.013063258 0.025148191 0.15015097
-0.013278074 0.022786323 0.15067655
-0.013349008 0.020219497 0.15119927
-0.014352873 0.017347585 0.15339038
-0.015078803 0.014148578 0.15478632
-0.016103117 0.010773481 0.15500094
-0.016278569 0.0081290435 0.15615697
-0.016910335 0.0046798913 0.15641342
-0.017750347 0.0014692676 0.15754856
-0.017615847 -0.00073860283 0.15960778
-0.017944667 -0.0028792156 0.16171174
-0.018016851 -0.0051235529 0.16274364
-0.018097604 -0.007119745 0.16517165
-0.0099389656 0.033580706 0.14663945
-0.010335585 0.030827401 0.14816576
-0.01059725 0.028293062 0.14871641
-0.010313426 0.025340203 0.15005131
-0.010431524 0.022692122 0.1505439
-0.010300134 0.020419382 0.15090914
-0.011248467 0.017611844 0.15362106
-0.011334181 0.014788753 0.15562357
-0.012704429 0.011086273 0.15668452
-0.013353773 0.0081255501 0.15700404
-0.014866655 0.0035946902 0.15763304
-0.014847646 0.0011794014 0.1589525
-0.014704959 -0.00054086972 0.16157413
-0.014947274 -0.0025314903 0.16329071
-0.015223716 -0.0048912526 0.16405319
-0.015167077 -0.0069863549 0.16578004
-0.0075510419 0.033198241 0.14679374
-0.0077838469 0.030595593 0.14828447
-0.0081138825 0.028157162 0.14930607
-0.0077264369 0.025376491 0.15042922
-0.0076033869 0.022891132 0.15100248
-0.0074734255 0.020744462 0.15194784
-0.0068539544 0.017240634 0.15539241
-0.0070545273 0.014816421 0.15663616
-0.0075003905 0.011905029 0.15882352
-0.0095672617 0.009384633 0.15898938
-0.011559083 0.005005247 0.15880597
-0.010915641 0.001321834 0.16019517
-0.011692626 -0.00065762835 0.16246898
-0.011747948 -0.0021143337 0.16464275
-0.011618429 -0.0046027112 0.16477747
-0.012041744 -0.0068248152 0.16547875
-0.0047932738 0.033085912 0.14751717
-0.0052473512 0.030427774 0.14922976
-0.0053895712 0.027930012 0.14989759
-0.0050030462 0.025638148 0.15064223
-0.0045269704 0.023357432 0.15085022
-0.0042106416 0.021090206 0.15308672
-0.0040320111 0.017281555 0.15622953
-0.0036144103 0.014883869 0.15708622
-0.0035025477 0.012172733 0.15935531
-0.0050033689 0.010210985 0.15983352
-0.0071002524 0.0074911499 0.16094688
-0.007843527 0.003837425 0.16225128
-0.0074878992 0.00027243514 0.1649901
-0.0092069991 -0.0014427749 0.16565485
-0.0091943508 -0.0042624641 0.16598502
-0.0025085222 0.03272742 0.14792863
-0.0027238594 0.030505367 0.14959179
-0.0028997038 0.028279701 0.15061715
-0.0023251667 0.026250564 0.15099661
-0.0020949575 0.023841552 0.15180232
-0.0021049711 0.021208858 0.15466802
-0.001600529 0.017678065 0.15702628
-0.0008942642 0.015223613 0.15803678
-0.00011816734 0.013056922 0.15924568
-0.0020942388 0.010778059 0.16017845
-0.0041592126 0.0074820775 0.16206641
-0.0047730147 0.0039727972 0.16366716
-0.005351651 5.6513771e-05 0.16589746
-0.0064511327 -0.001794504 0.16609603
-0.0068916935 -0.0042000129 0.1673656
0.00012348263 0.032619108 0.14856187
-9.080099e-05 0.030218145 0.14959677
-0.00061916449 0.028294165 0.15062074
-1.3559853e-05 0.02668565 0.15159453
0.00037763777 0.02441135 0.15191269
0.00031850452 0.021434125 0.15575598
0.00079491397 0.017996289 0.15774274
0.0017004176 0.015894432 0.15858112
0.0018807149 0.013559749 0.15960091
0.0014611967 0.010982228 0.16150476
-0.0012631824 0.0074912063 0.16304368
-0.001983501 0.0036252157 0.16497661
-0.0030068501 -0.0004510757 0.16729803
-0.0038714544 -0.0021738133 0.1676518
-0.0042293649 -0.0044132676 0.16921566
0.0025417365 0.032486007 0.14883351
0.0025672901 0.030295737 0.1498428
0.0029205405 0.028645856 0.15145624
0.0030631253 0.026677558 0.15276948
0.003023433 0.024182545 0.15456562
0.0028613114 0.021893546 0.15593325
0.0032622658 0.018816018 0.15769978
0.0041622296 0.016304834 0.15929295
0.0044074678 0.013717897 0.16048729
0.0044685989 0.011201606 0.16230078
0.0028164673 0.0078653358 0.16364895
0.00092663697 0.0038944338 0.16534223
-9.7838631e-05 -0.00087766448 0.16782786
-0.0011939 -0.0023550622 0.16852851
-0.001623039 -0.0050027175 0.17148714
0.0048649847 0.03268683 0.14881687
0.0056988318 0.030942665 0.15073448
0.0059231692 0.029182075 0.15185125
0.0058334107 0.027073521 0.1531494
0.0058038137 0.024433704 0.15497771
0.0056776586 0.021843048 0.15636058
0.0057046451 0.019324433 0.15802421
0.0069288714 0.016835906 0.15975954
0.0070734606 0.01419967 0.16187084
0.0071648466 0.011684954 0.16292727
0.0066715274 0.0089237131 0.16456605
0.0066280598 0.0065403786 0.16517705
0.0057036187 0.0028208152 0.16763444
0.0032640661 -0.0018682261 0.17130718
0.0022675071 -0.0043674214 0.17334428
0.0079461457 0.033146407 0.14860187
0.0079746796 0.03126448 0.15084951
0.00806621 0.029368153 0.15188915
0.0082061943 0.027321042 0.15334171
0.0082184365 0.025043553 0.15446977
0.0083241202 0.022418696 0.15660334
0.010174914 0.01977003 0.15979171
0.0096113598 0.01691566 0.16113482
0.0098792464 0.014597209 0.16192904
0.0095399376 0.012191944 0.16355602
0.0096922498 0.0097653111 0.16468789
0.0097209858 0.0070644636 0.16615544
0.010128444 0.0045368806 0.16925898
0.0072877016 -0.0005774037 0.17340656
0.0060956627 -0.0033650093 0.17510909
0.010255639 0.033318616 0.14808404
0.010137239 0.03136865 0.15014262
0.010283308 0.029327786 0.15082109
0.010665947 0.027569756 0.15284552
0.010961193 0.025538195 0.15566711
0.011533459 0.0229144 0.15829831
0.012676895 0.01974434 0.16003679
0.01233173 0.017405117 0.16177048
0.012467809 0.015008132 0.16310039
0.011917333 0.012682863 0.16457018
0.012246722 0.010286456 0.16504891
0.012399974 0.0078253327 0.16678445
0.012418468 0.0054673497 0.16975559
0.0106559 0.00083692418 0.17491688
0.0095436042 -0.002181279 0.17681679
0.012299977 0.034552269 0.14648736
0.013563367 0.032383051 0.14835374
0.013511274 0.029659396 0.1512568
0.013113914 0.027438557 0.15443453
0.013295962 0.025045199 0.15683107
0.014391163 0.022008929 0.15899667
0.014637053 0.019659095 0.16025347
0.014953446 0.017523265 0.16136901
0.014738108 0.015136246 0.16333055
0.014659799 0.012827705 0.16484639
0.014567419 0.010549095 0.16552272
0.015008882 0.0085636955 0.16784921
0.014978289 0.0055443496 0.17174679
0.014068867 0.0021349033 0.17520338
0.013231926 -0.0009391263 0.17695004
0.01622311 0.033998556 0.14670657
0.016140638 0.03015407 0.15158813
0.015612109 0.026617495 0.15664728
0.016217224 0.024367705 0.15739983
0.016464112 0.021850444 0.15904301
0.017038662 0.019560475 0.16066411
0.018175103 0.01746936 0.16141275
0.0172875 0.015252974 0.16300935
0.017131768 0.012961932 0.16538022
0.016779939 0.010499248 0.16674764
0.018295616 0.008055863 0.17009844
0.018266344 0.0059925271 0.17280145
0.017121069 0.0029528714 0.17459062
0.016088538 -3.1249056e-05 0.1760636
0 0 0 1 0 0 0 1 0 0 0 1 0 0 0 0 0 252 1 0 0
