ply
format ascii 1.0
comment PCL generated
element vertex 252
property float x
property float y
property float z
element camera 1
property float view_px
property float view_py
property float view_pz
property float x_axisx
property float x_axisy
property float x_axisz
property float y_axisx
property float y_axisy
property float y_axisz
property float z_axisx
property float z_axisy
property float z_axisz
property float focal
property float scalex
property float scaley
property float centerx
property float centery
property int viewportx
property int viewporty
property float k1
property float k2
end_header
-0.024687646 0.031959806 0.14610775
-0.024563819 0.030132186 0.14666557
-0.024816973 0.027789114 0.14807761
-0.025169782 0.025541663 0.1487201
-0.026384173 0.022591637 0.15009207
-0.026619362 0.019654565 0.15186265
-0.027230352 0.017062139 0.15366998
-0.027660105 0.01471371 0.15460399
-0.021894753 0.032378707 0.14507699
-0.022452837 0.030261854 0.14615123
-0.022687303 0.028066244 0.14796619
-0.022951927 0.025784548 0.14854547
-0.023632161 0.022916036 0.14925709
-0.024580929 0.020167081 0.1505799
-0.02524309 0.016966106 0.15173708
-0.026160892 0.013994919 0.15286887
-0.026543463 0.011561651 0.15275764
-0.026897563 0.009143196 0.15239848
-0.02768131 0.0063171787 0.15270808
-0.028689602 0.0036548295 0.15257223
-0.02976393 0.0011661953 0.1521264
-0.029916253 -0.0019543469 0.15106679
-0.030791938 -0.0052945982 0.15064268
-0.01950174 0.032471076 0.14526416
-0.019978328 0.030297818 0.14689586
-0.020267941 0.028242785 0.14836177
-0.020564416 0.02596383 0.14928915
-0.02087703 0.023158828 0.14972624
-0.022034748 0.020277031 0.1501552
-0.022611238 0.01703939 0.1513281
-0.024039973 0.013702232 0.15205735
-0.02410117 0.010819137 0.15230155
-0.024801241 0.0081930021 0.15250318
-0.025494134 0.0059313485 0.15286404
-0.02664716 0.003309763 0.15321901
-0.027691433 0.00056586508 0.15311381
-0.028548628 -0.0029461177 0.1528236
-0.02888651 -0.0061110952 0.15253071
-0.029576555 -0.0087897843 0.15311739
-0.016960811 0.034105588 0.14450018
-0.017443042 0.030284626 0.14737031
-0.017569711 0.028425066 0.14824428
-0.017938023 0.026116623 0.15004244
-0.018326478 0.023509806 0.1507114
-0.01913652 0.020878796 0.150931
-0.019502232 0.017337419 0.15218432
-0.021032231 0.013640725 0.15228111
-0.021609947 0.010240237 0.15155581
-0.022458954 0.0076280753 0.15218081
-0.022684285 0.0057553072 0.15342259
-0.024546839 0.0026575145 0.15412791
-0.025547193 -0.00021532409 0.15415548
-0.026830722 -0.0039434121 0.15477832
-0.027337343 -0.0069667781 0.1551601
-0.014380079 0.033907123 0.14450365
-0.014679536 0.030400528 0.14757937
-0.015058619 0.028227944 0.14845005
-0.015378747 0.025969218 0.15058114
-0.015921339 0.023627106 0.15095046
-0.016586609 0.020604966 0.15173064
-0.016829235 0.017405605 0.15271555
-0.017882898 0.013388469 0.15312038
-0.018781949 0.0099416655 0.15298472
-0.019216372 0.0075744791 0.1537222
-0.020125581 0.0047735726 0.15461785
-0.021145206 0.0019554717 0.15477595
-0.021502057 -0.00160231 0.15670569
-0.021639343 -0.0049851099 0.15877187
-0.024159299 -0.0071436167 0.15867023
-0.025159683 -0.0096647376 0.1606281
-0.012158842 0.033774298 0.14560115
-0.012628403 0.030768024 0.14786766
-0.012978482 0.028289931 0.14919004
-0.013047023 0.025075138 0.15086076
-0.013269855 0.022723528 0.1514276
-0.013337033 0.020136584 0.15190636
-0.014332032 0.017088776 0.15370771
-0.015064076 0.013699674 0.15463369
-0.016324084 0.009976496 0.15492836
-0.016698355 0.0071613914 0.15622918
-0.01749347 0.0036971464 0.15636644
-0.01825707 0.00039410067 0.15705337
-0.017823139 -0.001897731 0.15881668
-0.018021839 -0.0040286765 0.16092744
-0.01802046 -0.0061805141 0.16196051
-0.018023418 -0.0081334878 0.16433464
-0.0098262513 0.033194773 0.14666499
-0.010255207 0.030535571 0.14871381
-0.010514748 0.028066093 0.14949274
-0.010304732 0.025264025 0.15067247
-0.0104074 0.022588387 0.15098327
-0.010263895 0.020335909 0.15129264
-0.011172504 0.01734283 0.15385996
-0.011237754 0.01432445 0.15550104
-0.012871946 0.010241056 0.15662725
-0.013797876 0.0071065547 0.15726468
-0.015539832 0.0025138354 0.15744704
-0.01521061 0.00019927352 0.15841883
-0.014944919 -0.0014772518 0.16083311
-0.015121307 -0.003512287 0.16248478
-0.015290204 -0.0058321361 0.16324332
-0.0151154 -0.0079141986 0.16491881
-0.0074910745 0.032754187 0.14705364
-0.0076827831 0.030337991 0.1491323
-0.0080828005 0.027997704 0.15024726
-0.0077154269 0.02528091 0.15100421
-0.0075715296 0.02278227 0.15122007
-0.0073689898 0.020592269 0.15203992
-0.0066978033 0.016950799 0.15517136
-0.0068976087 0.014412416 0.15623187
-0.0074106618 0.011571798 0.15858376
-0.0097019346 0.0091004493 0.15899645
-0.012166822 0.004449253 0.15897079
-0.011235963 0.0010096257 0.16002171
-0.012038741 -0.0012351633 0.16210896
-0.012145593 -0.0027865674 0.1642094
-0.011814792 -0.0051965085 0.1643108
-0.012093564 -0.0074750101 0.16485386
-0.0048730704 0.032897066 0.1482705
-0.0053157574 0.030296715 0.15011109
-0.0054492541 0.027892733 0.15074508
-0.0050045731 0.02567547 0.15111347
-0.0044909483 0.023410985 0.1510804
-0.0041233553 0.021024859 0.15320677
-0.0040258477 0.017110458 0.15611842
-0.0035436244 0.014695621 0.15689547
-0.0034639626 0.012051633 0.15938886
-0.0050515132 0.01020045 0.16004381
-0.0073670596 0.0075266385 0.16119169
-0.0082572876 0.0038588955 0.16256474
-0.0079904264 0.00010076167 0.16537806
-0.0097924862 -0.0018648589 0.16581644
-0.0096197221 -0.0046895398 0.16589394
-0.0026102522 0.03274351 0.14900231
-0.0028477374 0.030441651 0.15065888
-0.0029181468 0.028221501 0.15127993
-0.0023074902 0.026293684 0.15135503
-0.0020236655 0.023849869 0.151925
-0.0020230392 0.021076651 0.15477206
-0.0016545167 0.017565239 0.15702593
-0.00090737041 0.015141563 0.15800425
-5.7814603e-05 0.013053593 0.159417
-0.0021544695 0.010876675 0.16059047
-0.0044581527 0.0075678974 0.16248681
-0.0051642698 0.0039583584 0.1641091
-0.0058370433 -0.00022224999 0.16611031
-0.0069625289 -0.0020804573 0.16615508
-0.0072997767 -0.0045997989 0.16720115
-1.1563131e-05 0.032723539 0.14984015
-0.00021062746 0.030241203 0.15076208
-0.00067435339 0.02829181 0.15129945
3.1065862e-05 0.026702095 0.15189503
0.00045028792 0.024427749 0.15196677
0.00040513143 0.021250874 0.15578893
0.00071794668 0.01790229 0.15779392
0.0017436976 0.01572415 0.15851943
0.0019826165 0.013477251 0.15974316
0.001513796 0.01104804 0.16196926
-0.0014929319 0.0076241619 0.16352339
-0.0023380977 0.003506812 0.16548418
-0.0034107731 -0.0009173266 0.16731764
-0.0042819008 -0.0026338883 0.16742805
-0.0044792895 -0.0049693012 0.16869634
0.0024387515 0.032616589 0.15023348
0.0025177586 0.030330876 0.15101227
0.0030290273 0.028446864 0.15187582
0.003229832 0.026509594 0.15276031
0.0032757991 0.02379879 0.15419078
0.0031162412 0.021462997 0.15542623
0.0034883635 0.018315688 0.1570752
0.0044040736 0.015924476 0.15895249
0.0046057971 0.013487381 0.16037348
0.0046561458 0.011126602 0.16242619
0.0028678721 0.0078865737 0.16397177
0.00066309929 0.0037862291 0.16580738
-0.00053380034 -0.001459519 0.16755784
-0.0016046916 -0.002961956 0.16808859
-0.0018405569 -0.0057302006 0.17087992
0.0048897103 0.032805495 0.1501614
0.0059068673 0.030794816 0.15150927
0.006229281 0.028938675 0.15213107
0.0060639936 0.026860202 0.15314589
0.0060146372 0.024130624 0.15468565
0.0059712729 0.021377858 0.15569116
0.006074016 0.018560126 0.15687121
0.0072839572 0.016273757 0.1591143
0.0073389052 0.013865644 0.16150874
0.0074373544 0.011489124 0.16278881
0.006972386 0.0086866161 0.16457628
0.0068820291 0.0062903618 0.16515192
0.0058214329 0.0023911158 0.16747378
0.0031769157 -0.002680049 0.17065699
0.0022240591 -0.0052349893 0.17255035
0.0080315834 0.033402443 0.1499801
0.0081164809 0.031206328 0.15176888
0.0083081145 0.029284824 0.1524086
0.0084153432 0.027187511 0.15366021
0.0083821146 0.024913626 0.15461051
0.008485755 0.022157798 0.15636103
0.010863949 0.018973738 0.15908557
0.010165904 0.016217489 0.16022667
0.010227193 0.014204164 0.16147768
0.0098815439 0.011875023 0.16347034
0.010053224 0.0094203278 0.16460095
0.010134271 0.0066438741 0.16596161
0.010707753 0.003853068 0.16872884
0.0076462724 -0.0014761157 0.1726317
0.0063751475 -0.0043425467 0.17417489
0.010413958 0.033891484 0.1498106
0.010295501 0.031658009 0.15132239
0.010547359 0.029621325 0.15167405
0.010884644 0.027650869 0.15349615
0.010876157 0.025628347 0.15632616
0.01206231 0.022513395 0.15856223
0.013363526 0.018996196 0.15950848
0.012907113 0.016753202 0.16105852
0.01290222 0.014606782 0.16281511
0.012328463 0.012311001 0.16440193
0.012632184 0.0098722987 0.16483243
0.012861176 0.0072980691 0.16639791
0.013125117 0.0045802505 0.16896659
0.01127068 -0.00031233902 0.17396951
0.01008654 -0.0033887653 0.17575818
0.012672327 0.035967957 0.1496385
0.014031163 0.033553295 0.15077022
0.01382102 0.029998025 0.15252
0.013319822 0.027427316 0.15523541
0.013657403 0.024753325 0.15730937
0.015007574 0.021330887 0.15869962
0.015304387 0.018915795 0.1597977
0.01560468 0.016891655 0.16095796
0.015151531 0.014743603 0.16313365
0.015077989 0.012382355 0.16459508
0.014959729 0.010074153 0.16524062
0.01556422 0.0078562284 0.16722806
0.015876641 0.0042204675 0.17053415
0.014927258 0.00072565622 0.17394759
0.013962851 -0.0023456125 0.17565785
0.016731672 0.035851117 0.14993967
0.016491098 0.030294746 0.15279596
0.016046565 0.025978588 0.15686867
0.016713059 0.02370837 0.15727043
0.017114758 0.021134889 0.15870287
0.017685043 0.018882787 0.16030166
0.018790212 0.016989395 0.16139857
0.017738659 0.014955536 0.16304383
0.01754106 0.012550691 0.16523638
0.017143307 0.010002416 0.16645025
0.019129846 0.0067479922 0.16878776
0.019273346 0.0044299294 0.17126533
0.01808827 0.0013623296 0.17299378
0.016924864 -0.001557489 0.17448032
0 0 0 1 0 0 0 1 0 0 0 1 0 0 0 0 0 252 1 0 0
