ply
format ascii 1.0
comment PCL generated
element vertex 252
property float x
property float y
property float z
element camera 1
property float view_px
property float view_py
property float view_pz
property float x_axisx
property float x_axisy
property float x_axisz
property float y_axisx
property float y_axisy
property float y_axisz
property float z_axisx
property float z_axisy
property float z_axisz
property float focal
property float scalex
property float scaley
property float centerx
property float centery
property int viewportx
property int viewporty
property float k1
property float k2
end_header
-0.02497443 0.031272139 0.14446452
-0.024869481 0.029438905 0.14502594
-0.025177248 0.027079768 0.14645933
-0.025582785 0.024810627 0.14722821
-0.026886951 0.021648148 0.14873041
-0.027100012 0.018388743 0.15031411
-0.027682075 0.015447122 0.1518248
-0.027966678 0.012946986 0.15244654
-0.02214304 0.03176064 0.1435926
-0.022740539 0.029603645 0.1446158
-0.023030858 0.027383938 0.14640018
-0.023351651 0.025098149 0.14713392
-0.024103558 0.022173861 0.14807661
-0.025007883 0.019224282 0.14922075
-0.025529834 0.015757952 0.15010472
-0.026278887 0.012558101 0.15079255
-0.026457874 0.010101791 0.15021214
-0.02662891 0.0076264949 0.14949663
-0.027026111 0.0046958504 0.14963466
-0.027601205 0.0018189182 0.14957057
-0.028355265 -0.00087967556 0.14957033
-0.02866938 -0.0036824893 0.14734805
-0.028793534 -0.0068150847 0.14534245
-0.019797334 0.031961486 0.1440495
-0.020327164 0.029679894 0.14553896
-0.020660963 0.027595231 0.14697643
-0.020997114 0.025349362 0.14804648
-0.021373834 0.022578532 0.1488612
-0.022457408 0.019536329 0.1489687
-0.02290112 0.016097471 0.14991826
-0.024145029 0.012552995 0.15024151
-0.024039261 0.0096919527 0.14996429
-0.024472484 0.0069800499 0.14950626
-0.024826322 0.0046304967 0.14943196
-0.025570426 0.001808191 0.14944659
-0.026212748 -0.0011131937 0.14897156
-0.026748039 -0.004662985 0.14787243
-0.026608311 -0.0076830406 0.14665873
-0.026787978 -0.010486296 0.14651515
-0.017277796 0.03404462 0.14391167
-0.017916936 0.029847005 0.14652525
-0.018036924 0.027933348 0.14726458
-0.018401319 0.025579255 0.14894022
-0.018765919 0.023020595 0.14972094
-0.019585541 0.020323839 0.14995921
-0.01991315 0.016418399 0.15091716
-0.021322735 0.012678225 0.15118787
-0.021427039 0.0094578052 0.14967702
-0.022097131 0.0067404183 0.14942078
-0.022080315 0.0047007222 0.14998065
-0.023325443 0.0014280209 0.14949673
-0.023957167 -0.0015049462 0.14821036
-0.024614794 -0.0057104672 0.14889297
-0.02469312 -0.0088277813 0.14871635
-0.014688021 0.033969298 0.14403291
-0.015146103 0.030215271 0.14715105
-0.015516294 0.027892509 0.14769575
-0.015839197 0.025426641 0.14954896
-0.016303608 0.023055548 0.14973746
-0.01693202 0.019896088 0.15025856
-0.017243683 0.016489666 0.15138012
-0.018283181 0.012393525 0.15210441
-0.018942691 0.0091201039 0.15145633
-0.019058382 0.0066954577 0.15139221
-0.019493176 0.0037026703 0.15152611
-0.020023335 0.00082080212 0.15092584
-0.019281493 -0.0031149229 0.15144236
-0.019095657 -0.0066924351 0.15339303
-0.021320257 -0.0092155328 0.15231121
-0.022102425 -0.012125364 0.15376854
-0.012505822 0.033796523 0.14516635
-0.012982114 0.030483009 0.14712286
-0.01332121 0.027869528 0.14824006
-0.01336804 0.024405599 0.14941341
-0.013561903 0.022030497 0.1497692
-0.013625409 0.019424357 0.15012096
-0.014711136 0.016209746 0.1522457
-0.015444042 0.0127481 0.15347669
-0.016629465 0.009078607 0.15351349
-0.016558386 0.0061551235 0.15392871
-0.016717756 0.0026706532 0.1532045
-0.01666297 -0.00083539187 0.152937
-0.016000053 -0.0031660413 0.15448199
-0.016265001 -0.0052890903 0.15650325
-0.016331393 -0.0074045523 0.15770423
-0.016611744 -0.0092494469 0.16020682
-0.010208108 0.033213343 0.1463578
-0.010597111 0.030180467 0.14790389
-0.01082442 0.027630929 0.14847375
-0.010592342 0.024700463 0.14937833
-0.010623565 0.022001602 0.14931606
-0.010467844 0.019750308 0.14949565
-0.01150215 0.01656444 0.15223426
-0.011559306 0.013528998 0.15411212
-0.013138121 0.0094244387 0.15522975
-0.01362138 0.0063194865 0.15496826
-0.014306324 0.0014963046 0.15374744
-0.013686199 -0.00086234446 0.15446739
-0.013577505 -0.0024499199 0.15692471
-0.013857264 -0.0044386405 0.15869351
-0.014012082 -0.0067389458 0.15958671
-0.014051466 -0.0086525884 0.16158305
-0.0078905271 0.032926653 0.14703162
-0.0080191819 0.030015746 0.14841174
-0.0084133102 0.027541794 0.14928749
-0.0080331918 0.024746645 0.14989617
-0.0077878698 0.022231158 0.14975385
-0.007571232 0.019995553 0.150379
-0.0067004706 0.016483949 0.15313844
-0.0067698434 0.014015922 0.15410499
-0.0069188112 0.011095865 0.15571365
-0.0091547146 0.0084797293 0.15583563
-0.011237902 0.0036587503 0.15539786
-0.0099967606 0.0001753465 0.15634203
-0.010918009 -0.0020076314 0.15853085
-0.011248225 -0.0033828255 0.16086358
-0.011035183 -0.0057401257 0.16152065
-0.011460604 -0.0078997258 0.16252615
-0.0051439218 0.032864187 0.14814584
-0.0055596526 0.030007638 0.14960235
-0.0057831951 0.02747497 0.15030907
-0.0052902009 0.025188794 0.15042423
-0.0046816543 0.023000788 0.14995185
-0.004291283 0.020384075 0.15161182
-0.0039168154 0.016706573 0.15392049
-0.0032998649 0.014405658 0.15453441
-0.0028936989 0.011729521 0.15643233
-0.0043189242 0.0097826356 0.15651344
-0.0065566548 0.0069967662 0.15734488
-0.00740377 0.0032926209 0.15876015
-0.0072646299 -0.00048280886 0.16193333
-0.0091846809 -0.0022265478 0.16284205
-0.0090959724 -0.0050035249 0.16339108
-0.0028194692 0.032437012 0.14842765
-0.003066639 0.030064467 0.15003875
-0.0032560099 0.027801543 0.15092446
-0.0026123007 0.0258599 0.15075241
-0.0022527226 0.023378067 0.1508774
-0.0022033323 0.020272421 0.15316938
-0.0015500556 0.01709011 0.1548062
-0.00061362272 0.014897027 0.15559645
0.00057670724 0.012860567 0.15649381
-0.0014122489 0.010586498 0.15710022
-0.0036691807 0.007113188 0.15855892
-0.0043533263 0.0034271779 0.16027962
-0.0051103844 -0.00076109514 0.16264933
-0.0063143675 -0.0025274153 0.16311103
-0.0067709116 -0.004838015 0.1645876
-0.00015837175 0.032215383 0.14890532
-0.00043491882 0.029774152 0.1500112
-0.0010000957 0.027891506 0.15089209
-0.00028669101 0.026254483 0.15133072
0.00019896567 0.024006367 0.15105139
0.00021009444 0.020365225 0.15419219
0.00080430845 0.017397257 0.15558343
0.0021002081 0.01567254 0.1562679
0.0026089712 0.013386078 0.15698549
0.0022019534 0.010732933 0.15848519
-0.00077849248 0.0072624637 0.1595383
-0.001575396 0.0029995502 0.16158052
-0.0026937171 -0.0013392406 0.16391166
-0.003620168 -0.0030039574 0.1643502
-0.0039550536 -0.0051275659 0.16604811
0.0022990741 0.031982742 0.1490528
0.0023428048 0.029726159 0.14993092
0.0028611361 0.027896592 0.15091334
0.0030784057 0.025806462 0.15146936
0.0029505899 0.023180772 0.15299411
0.0026992278 0.02089775 0.1542709
0.0033165452 0.018197831 0.15574169
0.0046640523 0.016195728 0.15734108
0.0050710225 0.013538832 0.15813144
0.0051895166 0.01083889 0.15950224
0.003459862 0.0075592115 0.16032024
0.0013235931 0.0033318822 0.16182987
0.00013996586 -0.0018821434 0.16432221
-0.00098536815 -0.0032976791 0.16508444
-0.0014565386 -0.0057379291 0.16835098
0.0047217775 0.032215834 0.14897718
0.0057755359 0.03022735 0.15038387
0.0061113159 0.028391428 0.15104674
0.0059530721 0.026246855 0.15199548
0.0057434011 0.023516867 0.15360603
0.0054957331 0.020851357 0.15484068
0.0057735927 0.018878317 0.15643847
0.0073543461 0.016880827 0.15828662
0.0074642161 0.013927233 0.1598877
0.0077638594 0.011345383 0.16050917
0.0073449109 0.008385608 0.16164485
0.007263652 0.0060730055 0.16205208
0.006123703 0.0020558399 0.1643229
0.0035961624 -0.0029188937 0.16782507
0.0024960116 -0.0053093 0.17002879
0.007848775 0.032859836 0.14882885
0.0080041429 0.03063683 0.15055466
0.0082083195 0.028698303 0.15123588
0.0083375098 0.026640793 0.15253113
0.0082494142 0.024335533 0.15353416
0.00813316 0.021628456 0.1554772
0.010753725 0.01967244 0.15962709
0.010013855 0.016948959 0.1602311
0.010234606 0.014625215 0.16059916
0.010052265 0.011899361 0.16173683
0.01024059 0.00937148 0.16248289
0.010241226 0.0065077478 0.1635692
0.010487215 0.0035876273 0.16631781
0.0076643601 -0.0017815669 0.17022994
0.0064233746 -0.004607948 0.17165996
0.010217896 0.033111978 0.14830077
0.010166529 0.030974001 0.14992318
0.010405344 0.02891688 0.15031141
0.010814346 0.027076114 0.15227312
0.010874074 0.025149249 0.15515555
0.011989448 0.02289943 0.15855779
0.013298376 0.019695735 0.15996705
0.012805576 0.017338216 0.16138977
0.012920637 0.014834867 0.16230509
0.012350638 0.012298592 0.16317196
0.012729707 0.0098985722 0.16319741
0.012816363 0.0072229672 0.16452385
0.012761758 0.0043849424 0.16700594
0.011017271 -0.00063116418 0.17178364
0.0098791569 -0.0036987409 0.17347296
0.012447 0.034434386 0.1469136
0.013821356 0.032039594 0.14804475
0.013690386 0.029169623 0.15082502
0.013295976 0.027277967 0.15429243
0.013626436 0.02503565 0.15699103
0.014949773 0.021993825 0.15912199
0.015245881 0.019624352 0.16020404
0.015535524 0.017568886 0.16112182
0.015149497 0.014998487 0.16268224
0.015092266 0.012445851 0.16368805
0.015004564 0.010113514 0.163918
0.015360441 0.007831607 0.16580606
0.015348273 0.0039856913 0.16892731
0.014435258 0.0003427472 0.17198335
0.013566929 -0.0027003551 0.17357029
0.01653257 0.034193691 0.14686237
0.016362429 0.02955492 0.15106231
0.016019052 0.026343068 0.15644224
0.016699092 0.024290299 0.15749744
0.017066972 0.021876823 0.15921216
0.017617581 0.019583812 0.16068821
0.018734956 0.017615115 0.16159037
0.017694499 0.015382414 0.16285999
0.017486583 0.012627766 0.16459051
0.017126864 0.0099028237 0.16526002
0.018692892 0.0067581027 0.167812
0.018644942 0.0041935001 0.1700362
0.017489176 0.00099993777 0.17133127
0.016440131 -0.0019233819 0.17256163
0 0 0 1 0 0 0 1 0 0 0 1 0 0 0 0 0 252 1 0 0
