ply
format ascii 1.0
comment PCL generated
element vertex 252
property float x
property float y
property float z
element camera 1
property float view_px
property float view_py
property float view_pz
property float x_axisx
property float x_axisy
property float x_axisz
property float y_axisx
property float y_axisy
property float y_axisz
property float z_axisx
property float z_axisy
property float z_axisz
property float focal
property float scalex
property float scaley
property float centerx
property float centery
property int viewportx
property int viewporty
property float k1
property float k2
end_header
-0.024685103 0.031464037 0.1449891
-0.024655033 0.029609948 0.14546755
-0.025036359 0.027231187 0.14683357
-0.025533224 0.024993178 0.14765467
-0.026957886 0.021933753 0.14957783
-0.027172672 0.018679334 0.15105551
-0.027802005 0.015923265 0.15258011
-0.028247174 0.013486537 0.15332222
-0.021869941 0.031836677 0.14405718
-0.022540156 0.029678021 0.14501815
-0.022877943 0.027410798 0.14664888
-0.023277268 0.025132131 0.1473363
-0.024184618 0.022349749 0.14867097
-0.025159098 0.019421149 0.14989386
-0.02578854 0.016008282 0.15067397
-0.026698291 0.01292572 0.15156583
-0.02701176 0.010485048 0.15109642
-0.027311884 0.0080982605 0.15049838
-0.028016407 0.0052380348 0.15058258
-0.028853256 0.0025188385 0.1502949
-0.029957177 5.171074e-05 0.1504357
-0.030162781 -0.0029469421 0.14934237
-0.030679585 -0.0062140427 0.14825794
-0.019535223 0.031895503 0.1444284
-0.020106899 0.029554889 0.1456724
-0.020502867 0.027460435 0.14698167
-0.020904124 0.025272228 0.14801508
-0.021374123 0.022627471 0.14916262
-0.022622254 0.019655356 0.14950618
-0.023165904 0.01618696 0.15027452
-0.024599899 0.012748988 0.15091039
-0.024604557 0.0098713534 0.15088755
-0.02525357 0.0072016884 0.15063685
-0.025856767 0.0049379831 0.15056537
-0.026897945 0.0022911592 0.15046394
-0.027840242 -0.00046444155 0.15051635
-0.028471796 -0.003918801 0.15039699
-0.028591221 -0.0070280861 0.1497602
-0.029030433 -0.0097627956 0.15010297
-0.017296409 0.03372211 0.14430022
-0.017778106 0.029660702 0.14658201
-0.017942477 0.027785826 0.14729099
-0.018392261 0.025536567 0.14901605
-0.018759502 0.023024289 0.1499418
-0.019593909 0.020320524 0.15040044
-0.019892767 0.016531287 0.15126948
-0.021767916 0.012779438 0.1519182
-0.022010475 0.0094295284 0.15086105
-0.022925301 0.0067502558 0.15077962
-0.023278538 0.0047344775 0.15141538
-0.024805415 0.0016831508 0.15093365
-0.025595121 -0.0011877018 0.15067491
-0.026498182 -0.0049130837 0.15177371
-0.026746973 -0.0079594692 0.15200114
-0.014919358 0.033505369 0.14435852
-0.01518647 0.030052075 0.14748102
-0.015503456 0.027775733 0.14799401
-0.015881274 0.025417976 0.149777
-0.016269714 0.023052348 0.15018061
-0.016804837 0.019951485 0.15116231
-0.017060911 0.016628539 0.1519506
-0.01838949 0.012606278 0.15278403
-0.019675158 0.009138369 0.15215586
-0.020096501 0.0067109503 0.15210094
-0.02078178 0.0038498754 0.1525895
-0.021698706 0.0010153067 0.1526358
-0.021378901 -0.0023235576 0.15412383
-0.021094209 -0.0054583452 0.15603253
-0.023380637 -0.0079817874 0.1554947
-0.0241585 -0.010604057 0.15734927
-0.01269921 0.033372443 0.14537774
-0.013071843 0.030235868 0.14751454
-0.013339435 0.027666863 0.14869186
-0.013298852 0.024376852 0.15008038
-0.013459059 0.022106981 0.15075029
-0.013455869 0.019530755 0.15122904
-0.014474178 0.016353671 0.15284334
-0.015367085 0.012940869 0.15392072
-0.017074812 0.009233376 0.15381792
-0.017245492 0.0063441731 0.15396659
-0.017853079 0.002878055 0.15393279
-0.018302122 -0.00019429252 0.15461875
-0.017695118 -0.0021636153 0.15644354
-0.017821288 -0.0040803528 0.15861669
-0.017826427 -0.0061775963 0.15989015
-0.017805541 -0.007933965 0.1623691
-0.010337106 0.032767091 0.14635029
-0.010638207 0.02992443 0.14811556
-0.010825823 0.027392864 0.14875641
-0.010522429 0.024593078 0.14993076
-0.010532469 0.022011012 0.15029363
-0.010336951 0.019820839 0.15047494
-0.011214434 0.016640205 0.15286694
-0.0113429 0.013584679 0.15444681
-0.013221445 0.0095287086 0.15534195
-0.014053286 0.0064016259 0.1546856
-0.015637383 0.0019290377 0.15477583
-0.01528198 -0.0001533086 0.15580466
-0.014882889 -0.0015353803 0.15841435
-0.015012804 -0.0034582277 0.16025391
-0.015170086 -0.0057207984 0.16121995
-0.014960645 -0.0076930267 0.163074
-0.0079449471 0.032290477 0.14663368
-0.0080140429 0.029718116 0.14838175
-0.008365863 0.027327454 0.14940642
-0.0079339426 0.024697963 0.15025865
-0.0076749795 0.022262497 0.15045917
-0.0073930244 0.020072037 0.15104693
-0.0067097046 0.016646907 0.15379487
-0.0069397623 0.014164533 0.15471679
-0.0070874793 0.011352224 0.15624961
-0.0092044249 0.0087473812 0.15609711
-0.011892514 0.0040244726 0.15568787
-0.011132753 0.00065033295 0.15713482
-0.011929597 -0.0013644096 0.15952839
-0.01196362 -0.0027639819 0.16180328
-0.011717596 -0.0052647614 0.1623023
-0.012061032 -0.0075100623 0.16323556
-0.0052544833 0.032349084 0.14767922
-0.0056436602 0.029688727 0.1493144
-0.0056967069 0.027316049 0.14990574
-0.0052419598 0.025286831 0.15059476
-0.0046011969 0.023088686 0.15063293
-0.0043677404 0.020786431 0.15256456
-0.0042755618 0.017097468 0.15510933
-0.0036785379 0.01482156 0.15584017
-0.0032959133 0.01212692 0.15763143
-0.0045074923 0.010174152 0.15729003
-0.00664254 0.0073946882 0.15762846
-0.0074978708 0.0036486015 0.15887192
-0.0075292634 -0.00018202544 0.16235331
-0.0095769167 -0.0019196316 0.16339913
-0.0095444303 -0.0047027082 0.16394475
-0.0029908386 0.032276899 0.1485149
-0.0032613717 0.029931417 0.1500828
-0.0033105619 0.027839269 0.15093999
-0.0026420094 0.026070762 0.15126333
-0.0023020601 0.023655208 0.15182069
-0.0025050782 0.02073111 0.15448354
-0.0021057171 0.017618157 0.15635164
-0.0012546757 0.015451782 0.15734325
-5.8059064e-05 0.013341834 0.15855058
-0.0017424588 0.011015619 0.15835139
-0.0038201008 0.0075268163 0.15915109
-0.0044725477 0.0037754492 0.16071096
-0.0054383967 -0.00045654259 0.16326965
-0.0067050289 -0.0022365418 0.16357075
-0.0071712583 -0.0045454809 0.16505109
-0.00042754092 0.032373849 0.14947259
-0.00062504655 0.029860096 0.15045437
-0.0011052175 0.028035302 0.15129194
-0.00041501029 0.026599349 0.15213113
0.00011171051 0.024365205 0.15221487
-0.00022217871 0.020941775 0.15575971
7.9568184e-05 0.018043023 0.15749292
0.0013030937 0.016197246 0.15850718
0.0019084284 0.013742584 0.15917549
0.0016493681 0.0111147 0.16057543
-0.0010406057 0.0077005895 0.16066974
-0.0018346007 0.0034762355 0.16264668
-0.0031573856 -0.00092192198 0.16484384
-0.0040435963 -0.002690526 0.16493894
-0.00430944 -0.0048616175 0.16645083
0.0020751311 0.032324757 0.14986348
0.0021868236 0.030019553 0.15065248
0.0028433048 0.028094377 0.15163054
0.003027173 0.026127869 0.15262057
0.0028813253 0.023658557 0.15442091
0.0024860278 0.021561144 0.1559191
0.002821279 0.018820008 0.15773916
0.0040741311 0.016335892 0.15915161
0.0044200718 0.013750084 0.16010174
0.0045545022 0.011231855 0.16168417
0.0028555137 0.0081286067 0.16253223
0.00088990043 0.0039934185 0.16360809
-0.00041336473 -0.0013980129 0.16547844
-0.0015129548 -0.0028887414 0.16594785
-0.0019155309 -0.0053348797 0.16904424
0.0046995976 0.032441925 0.14963785
0.0058314749 0.030364649 0.15102726
0.0062035718 0.028569594 0.15180039
0.0060581341 0.026453784 0.15287675
0.0057378793 0.023924679 0.15483959
0.0054151663 0.021413246 0.15638973
0.0054266304 0.019130817 0.15804099
0.0069349706 0.016806766 0.15959911
0.0070162443 0.01408 0.1614721
0.007199653 0.011584928 0.16241878
0.0067662625 0.0087549323 0.16400033
0.0067343283 0.0064006713 0.16455132
0.0056501087 0.0026929714 0.16688864
0.0029146106 -0.0021457328 0.16957012
0.0019232056 -0.0045963954 0.17127821
0.007955635 0.03298568 0.14961144
0.0080556506 0.030808978 0.15133688
0.0082818614 0.028922459 0.15211472
0.0084163258 0.026924461 0.15348689
0.0082655493 0.024705919 0.15467863
0.0080782259 0.022170255 0.15685284
0.010414614 0.019444285 0.16026369
0.0097130826 0.016728364 0.16104878
0.0098907985 0.014561191 0.16179973
0.0095987003 0.012015541 0.16353036
0.0098058823 0.0095553519 0.16455744
0.0099090012 0.0067795049 0.16591315
0.010325927 0.0040916954 0.16879278
0.007004723 -0.00058382936 0.17282847
0.0056548808 -0.0033678839 0.17410745
0.010388263 0.033284195 0.14929049
0.010246731 0.031153031 0.15080824
0.010484877 0.029105706 0.15128298
0.010864128 0.027371958 0.15333223
0.010795088 0.025588017 0.15630004
0.011662556 0.022727158 0.15919246
0.012933959 0.01955976 0.16078629
0.012370872 0.017242042 0.16209181
0.012510836 0.014931422 0.16342339
0.011910022 0.012583765 0.1648272
0.012320928 0.010183569 0.16515125
0.012508446 0.0076291198 0.16665293
0.012562719 0.004924749 0.16934316
0.010261775 0.00084352418 0.17472178
0.0088881114 -0.0020052923 0.17657304
0.012768699 0.034918126 0.1484206
0.014145625 0.032665141 0.14969417
0.013867748 0.029630786 0.15225695
0.013303715 0.027570829 0.15540504
0.013379498 0.025222903 0.15810445
0.014556508 0.021960542 0.16018997
0.014851315 0.01956691 0.16113903
0.015105873 0.017504124 0.16194871
0.014716278 0.015081689 0.16369031
0.014654121 0.012715515 0.16513669
0.014554698 0.01045249 0.16574465
0.015074968 0.0083005736 0.16783056
0.015164205 0.0047020107 0.17120208
0.013938003 0.0017474488 0.17499714
0.012737498 -0.00093584537 0.1770279
0.016911669 0.034714494 0.14841568
0.016542794 0.030162618 0.15283284
0.015751734 0.026722113 0.15794007
0.016327748 0.024565516 0.1589736
0.016639885 0.021934276 0.16045402
0.017211711 0.019561868 0.16167137
0.018340604 0.017491437 0.1621353
0.017283991 0.01531797 0.16352506
0.017117258 0.012819069 0.16571337
0.016697641 0.010323024 0.16691832
0.018477157 0.0072161262 0.16951989
0.018532289 0.0049417326 0.17203014
0.017242281 0.0021063392 0.1740381
0.015928579 -0.0004253053 0.17594683
0 0 0 1 0 0 0 1 0 0 0 1 0 0 0 0 0 252 1 0 0
