ply
format ascii 1.0
comment PCL generated
element vertex 252
property float x
property float y
property float z
element camera 1
property float view_px
property float view_py
property float view_pz
property float x_axisx
property float x_axisy
property float x_axisz
property float y_axisx
property float y_axisy
property float y_axisz
property float z_axisx
property float z_axisy
property float z_axisz
property float focal
property float scalex
property float scaley
property float centerx
property float centery
property int viewportx
property int viewporty
property float k1
property float k2
end_header
-0.02449684 0.031786535 0.14517879
-0.024523318 0.029910412 0.14561227
-0.024966212 0.027501479 0.14692801
-0.025507029 0.025217894 0.14770028
-0.02687295 0.022034246 0.14960541
-0.026964592 0.018797452 0.15111624
-0.027489018 0.016203621 0.15284556
-0.02795111 0.0138587 0.1538111
-0.021673303 0.032103222 0.14424855
-0.022403821 0.029946025 0.14518026
-0.022802811 0.02765093 0.14675412
-0.02325331 0.025340419 0.14737342
-0.024151323 0.022468392 0.14866696
-0.025045797 0.019490171 0.14988779
-0.025598325 0.016100023 0.15079816
-0.026502881 0.013133529 0.15201822
-0.026896097 0.010713708 0.15185747
-0.027256802 0.0083310241 0.1514753
-0.028100878 0.0055304724 0.15163212
-0.029035937 0.0028473779 0.1513558
-0.030274857 0.00045719414 0.15158719
-0.030566113 -0.0025817466 0.15063784
-0.031188846 -0.0058460883 0.14961687
-0.019344745 0.032093257 0.14459389
-0.019982982 0.029759761 0.14581643
-0.02043831 0.027653808 0.14707975
-0.020892637 0.025449237 0.14805211
-0.021369871 0.02275932 0.14913301
-0.022547822 0.019738218 0.14946891
-0.023012426 0.016206535 0.15022731
-0.024409106 0.012807229 0.15121162
-0.024512595 0.0099234171 0.15158607
-0.025289482 0.007352374 0.15185942
-0.025950432 0.0051647411 0.15170586
-0.027083559 0.0025559647 0.15156144
-0.028191149 -0.00014327563 0.15179536
-0.028975813 -0.0035416505 0.15181153
-0.029219689 -0.0066520851 0.15126579
-0.029810105 -0.0093311155 0.15173921
-0.017061371 0.033712719 0.14409165
-0.017687885 0.029826909 0.14673805
-0.017897511 0.027951365 0.14741428
-0.018407054 0.025678944 0.14909258
-0.018792657 0.023123901 0.1499023
-0.019563232 0.020383308 0.1502412
-0.019680943 0.016543673 0.1508878
-0.021431735 0.012713943 0.15176
-0.021985799 0.0092727738 0.15133671
-0.023020526 0.0067641675 0.15188798
-0.02337167 0.0049128165 0.15256129
-0.025014689 0.0018938438 0.15208694
-0.026000204 -0.0009488237 0.15213281
-0.027122321 -0.0045188623 0.15332122
-0.02752299 -0.0075237015 0.15365781
-0.014683607 0.033346374 0.14400341
-0.015125134 0.030133026 0.14755589
-0.015483066 0.02789358 0.14813793
-0.015910788 0.025510557 0.14985485
-0.016293513 0.023090854 0.15010953
-0.016791645 0.01992275 0.15084283
-0.016913055 0.016709704 0.1516026
-0.018031266 0.012617603 0.1523456
-0.01952206 0.0090970229 0.15262893
-0.020065332 0.0067935297 0.15299325
-0.020820241 0.0040125092 0.15351403
-0.021809688 0.0012081242 0.15350276
-0.021872856 -0.0020542413 0.15528728
-0.021771489 -0.0051179552 0.15739195
-0.024235331 -0.0075206296 0.15715939
-0.025115917 -0.010027098 0.15912238
-0.01249764 0.03321832 0.14508869
-0.013005216 0.030219676 0.14752428
-0.013365661 0.027745418 0.14891843
-0.013349644 0.024434589 0.15029232
-0.013499726 0.022152437 0.15075335
-0.013509138 0.019665204 0.15127459
-0.014465054 0.016594794 0.15281874
-0.015176029 0.013169333 0.15377636
-0.01683457 0.0092818961 0.15415871
-0.017221566 0.0064012334 0.15490125
-0.017968861 0.0029810879 0.15492091
-0.018668903 -7.7951572e-06 0.15563998
-0.018143348 -0.0019639798 0.15747577
-0.018213289 -0.0038884317 0.1596612
-0.018203186 -0.0059993849 0.16093306
-0.018061209 -0.0077824765 0.16340633
-0.010185146 0.032624364 0.14621753
-0.010616658 0.029929975 0.14830473
-0.010872793 0.027474212 0.14919867
-0.010616401 0.024714731 0.15046206
-0.010598119 0.022124071 0.15058944
-0.010438293 0.019997979 0.15098025
-0.011374972 0.017092045 0.15341292
-0.011416664 0.01412577 0.15502559
-0.013069985 0.0097489953 0.1557124
-0.014022944 0.0064619579 0.15561892
-0.015944201 0.0020519115 0.15578777
-0.015682314 -8.9159021e-06 0.15673971
-0.015176217 -0.0014214416 0.15926906
-0.015250319 -0.0033818448 0.16109321
-0.015423023 -0.0056518908 0.16205762
-0.015148096 -0.0076538995 0.16388448
-0.0078110793 0.032103796 0.14661683
-0.0080171004 0.029721899 0.14875676
-0.0084616831 0.02744969 0.1500103
-0.0080414182 0.024817552 0.15088226
-0.007764875 0.02239253 0.15094088
-0.0075702467 0.020323511 0.15183753
-0.0071078418 0.017143365 0.15530285
-0.0073926789 0.01466872 0.15632752
-0.0074115586 0.011587308 0.15738539
-0.0093349153 0.0088305101 0.15676035
-0.012074592 0.0040131607 0.15648611
-0.011439297 0.00070770853 0.15778007
-0.012149082 -0.0013500354 0.16019142
-0.012080953 -0.0027986551 0.1624395
-0.011898598 -0.0053161844 0.16288337
-0.012236549 -0.0075734248 0.16379672
-0.0052155554 0.032193847 0.14784704
-0.005707236 0.029683525 0.14975899
-0.0058371699 0.027439831 0.15058757
-0.005344897 0.025379181 0.15105779
-0.0047310567 0.023167716 0.15107347
-0.0044960971 0.020961564 0.15320769
-0.0044750837 0.0173744 0.15626237
-0.0039596176 0.015030671 0.15699139
-0.0035605121 0.012224583 0.15862446
-0.0048080673 0.010241193 0.15819339
-0.0068147858 0.0073287892 0.1582403
-0.0075425156 0.0034758411 0.15922472
-0.0074501433 -0.00046702026 0.16228899
-0.0095719155 -0.0020701513 0.16371593
-0.0095869517 -0.0048490223 0.16427055
-0.0030223553 0.032193448 0.14881235
-0.0033520178 0.02998152 0.15062089
-0.0033811186 0.027920995 0.1513776
-0.0026889485 0.026123829 0.15149522
-0.0023601188 0.023712201 0.15208293
-0.0025782206 0.020995216 0.15511288
-0.0021553657 0.017797019 0.15723202
-0.0013240774 0.015482952 0.1581447
-0.00013149358 0.013212848 0.15910476
-0.0019883288 0.011015386 0.15912849
-0.0040279324 0.007480463 0.15981036
-0.0045536729 0.0036258609 0.16108485
-0.0053068292 -0.00077699986 0.16309734
-0.0066480306 -0.0025101539 0.16353212
-0.0071055177 -0.0047626835 0.1651226
-0.00045844447 0.032288302 0.14969561
-0.00071358337 0.029906046 0.15096503
-0.0011535151 0.028090512 0.15160127
-0.00039824611 0.026625311 0.15217736
9.176031e-05 0.024371076 0.15226041
-0.00024207168 0.021225542 0.15628035
0.00014615447 0.018128572 0.15812728
0.0013826041 0.015981095 0.15886177
0.0019298388 0.01353232 0.15947101
0.0016839691 0.010916981 0.16088465
-0.0011998262 0.0076127131 0.16123874
-0.0018272804 0.0032675609 0.16282845
-0.0030051074 -0.0012643101 0.16458656
-0.0038962772 -0.0030202847 0.16473296
-0.0041501001 -0.0051256772 0.16633523
0.0020503749 0.032182593 0.14987104
0.002134687 0.029956786 0.15079588
0.0027574413 0.028118135 0.15168707
0.0029008796 0.026277648 0.15276617
0.0027796731 0.023894314 0.15475555
0.0024329892 0.021828646 0.15631786
0.0028068528 0.018906517 0.15814611
0.0041528987 0.016088955 0.15924214
0.0045274263 0.013512244 0.16018316
0.0047202753 0.010993545 0.16176322
0.0029820825 0.0078676911 0.16264799
0.0009627525 0.0037391339 0.16371003
-0.00023132532 -0.001734056 0.1651697
-0.0013340814 -0.0032077034 0.16567747
-0.0016191005 -0.0055551357 0.16887592
0.0046649314 0.032326199 0.14940014
0.0056960522 0.030450745 0.15097108
0.0059475503 0.028708061 0.15182598
0.0057634758 0.02662014 0.15300143
0.0055739875 0.02420624 0.15514897
0.0053315205 0.021761011 0.15677761
0.0054059685 0.019151071 0.15824817
0.0070591238 0.016546063 0.15948845
0.007230971 0.013822272 0.16136244
0.0074548777 0.01133918 0.16233796
0.0070757526 0.008551308 0.16405046
0.0070640212 0.0061937124 0.16464774
0.0060160733 0.00249922 0.16693158
0.0032210015 -0.0023114292 0.16944906
0.0023027095 -0.0047742412 0.17108783
0.0078604678 0.032999832 0.14946122
0.0078862477 0.030894509 0.15122645
0.0079993717 0.029013375 0.152004
0.0081230504 0.027028963 0.15336758
0.0080097159 0.024918286 0.15477011
0.0079598259 0.022511484 0.1571431
0.0106311 0.019416289 0.1604097
0.01001095 0.016479412 0.16080205
0.010171705 0.014283978 0.16151382
0.0099497344 0.011782845 0.16334492
0.010162736 0.0093969321 0.16453515
0.010297015 0.0066948622 0.16603221
0.010754269 0.0041269194 0.16900451
0.0074675395 -0.00071035867 0.17290816
0.0061513199 -0.003533853 0.17409869
0.010218291 0.03324122 0.14904916
0.010017047 0.031141879 0.15059336
0.01006992 0.029040476 0.15099172
0.010522617 0.027320659 0.15297782
0.010690007 0.025753405 0.15602699
0.011822332 0.022592166 0.1589727
0.013111756 0.019398063 0.16075122
0.012699799 0.017081322 0.1620248
0.012870994 0.014755902 0.16320746
0.012303495 0.012439508 0.16461259
0.012686157 0.010077985 0.16507913
0.012894486 0.0076017478 0.16670391
0.012957603 0.0050459034 0.16954565
0.01070077 0.00084952632 0.17487128
0.009374178 -0.0020662351 0.17667311
0.01249027 0.034220252 0.14729272
0.01373512 0.031894837 0.14842625
0.013530334 0.029186934 0.15130635
0.013120534 0.027173679 0.15436779
0.013389841 0.024479313 0.15683633
0.014692304 0.021451728 0.15950054
0.014996558 0.019260246 0.16086093
0.015373975 0.017338429 0.16189364
0.015029196 0.014994034 0.16359337
0.014995464 0.012673856 0.16503717
0.014917606 0.010420047 0.16569795
0.015440994 0.0083683468 0.1678513
0.015500764 0.0049951258 0.171498
0.014338546 0.0019717673 0.17526105
0.01318922 -0.00080820761 0.1772595
0.01646903 0.032885291 0.14594999
0.016230684 0.029162811 0.15109085
0.015809016 0.025341945 0.15578705
0.016264483 0.023175042 0.15698308
0.016719745 0.021170171 0.15938841
0.017367899 0.01913188 0.16109625
0.01853206 0.017157463 0.16169506
0.017556407 0.015269496 0.16345432
0.017412815 0.012900541 0.16574752
0.017033914 0.010419007 0.16697754
0.018773276 0.0074812858 0.16970813
0.018845826 0.0053347806 0.17232375
0.01760453 0.002497022 0.17439745
0.01635197 -0.00013362733 0.17629905
0 0 0 1 0 0 0 1 0 0 0 1 0 0 0 0 0 252 1 0 0
