ply
format ascii 1.0
comment Automatically gnerated by model-converter
element vertex 764
property float x
property float y
property float z
element face 0
property list uchar int vertex_indices
end_header
-0.02930213 0.017933004 0.088003725
-0.029843832 0.016659831 0.089566738
-0.030027742 0.015205155 0.090231044
-0.030245286 0.013684124 0.090813465
-0.030682833 0.012262628 0.091873619
-0.031230171 0.011012438 0.093106993
-0.031588588 0.0097215371 0.094113956
-0.031954923 0.0084958275 0.095008689
-0.032714731 0.0074484207 0.096739533
-0.033529945 0.0064592441 0.099163604
-0.034609545 0.0049073948 0.10180617
-0.03511388 0.0031390557 0.10282825
-0.035359125 0.001364047 0.10304275
-0.035626643 -0.00039601271 0.1035223
-0.036037333 -0.0022775506 0.10441472
-0.036622806 -0.0042773009 0.10603529
-0.037360247 -0.0064369206 0.10890858
-0.028382307 0.018204848 0.089287524
-0.028697603 0.016918833 0.090495971
-0.028822937 0.015381952 0.09094248
-0.029034999 0.013843703 0.091483367
-0.029534477 0.012448722 0.092623018
-0.029996054 0.011109979 0.093704092
-0.030426629 0.0099098713 0.095031386
-0.030949981 0.0087179759 0.0961919
-0.031535261 0.0075994412 0.097844347
-0.032362291 0.0064589052 0.10008535
-0.033227383 0.0047565506 0.10240822
-0.033675265 0.0029716143 0.10353332
-0.03391869 0.0011996329 0.1037842
-0.034228397 -0.00067456926 0.10445527
-0.034681939 -0.0026099638 0.10554863
-0.035229357 -0.0046700683 0.10703802
-0.035817146 -0.0067913068 0.10879347
-0.026624007 0.018181422 0.088353167
-0.027141053 0.017014019 0.090209075
-0.027562923 0.015417969 0.091494841
-0.027790926 0.013943315 0.092228775
-0.028214268 0.012619568 0.093275929
-0.028555164 0.01120022 0.094198927
-0.028943697 0.0098632641 0.095393109
-0.02944787 0.0087274633 0.096599946
-0.03015082 0.0076424806 0.098782626
-0.030926202 0.0063753378 0.10094835
-0.0316243 0.004669101 0.10288613
-0.032145622 0.0027129161 0.10424025
-0.032362008 0.00087787295 0.10491893
-0.032655085 -0.0010528472 0.10547402
-0.033085762 -0.0029267035 0.10647937
-0.033690427 -0.0050121367 0.1081291
-0.034073974 -0.0070533916 0.10926121
-0.024984844 0.018247343 0.087900596
-0.025578179 0.0171077 0.089926267
-0.026287754 0.015635425 0.092111344
-0.026539942 0.014086756 0.093033731
-0.02706148 0.012873491 0.094571205
-0.027328509 0.011373463 0.095266538
-0.027616806 0.0099335377 0.096107073
-0.027971386 0.0087026357 0.097258118
-0.028616677 0.0075578826 0.099215177
-0.029343265 0.0063260791 0.10187132
-0.030001106 0.0046090886 0.10335855
-0.030430925 0.0026587704 0.10448548
-0.030770069 0.00052356387 0.10568346
-0.031084629 -0.0013625228 0.106606
-0.031427314 -0.0031253714 0.10735845
-0.03195649 -0.0049437053 0.1085592
-0.032357645 -0.0070545475 0.10988644
-0.023474405 0.018322128 0.087897142
-0.024123088 0.017244824 0.090155373
-0.024876038 0.015832364 0.092309996
-0.025005178 0.014289893 0.093237698
-0.025475482 0.012784382 0.094563049
-0.025730265 0.011308685 0.095411303
-0.026208886 0.0099367338 0.096857255
-0.026562999 0.0087862887 0.098259238
-0.027049366 0.0074012028 0.099493784
-0.027614689 0.0061061971 0.10190917
-0.028198065 0.0045081196 0.10308184
-0.028489426 0.0024899459 0.10417526
-0.029193328 0.00047294635 0.10605196
-0.02946698 -0.0015022083 0.10730209
-0.029817767 -0.0033243654 0.10823201
-0.030165665 -0.0050738839 0.10920802
-0.03045569 -0.0069193877 0.11025435
-0.021875826 0.018321009 0.087572763
-0.022731814 0.017197241 0.090329844
-0.023234481 0.015889575 0.092326693
-0.023401019 0.014482897 0.093113757
-0.023745301 0.012774154 0.094279272
-0.024084344 0.01116752 0.095427652
-0.024657921 0.0099479237 0.097301411
-0.025066804 0.0085885233 0.098426881
-0.025382125 0.0071856413 0.099667695
-0.025828102 0.0058038407 0.10125067
-0.026158598 0.0041330662 0.10240576
-0.026770067 0.0022861893 0.10396551
-0.027325509 0.00028149979 0.1059891
-0.027719207 -0.0015815268 0.10752134
-0.028008946 -0.0034911416 0.10847141
-0.0282204 -0.0052827988 0.10944617
-0.028489041 -0.0070651963 0.11043274
-0.020197917 0.018232512 0.087133328
-0.021121878 0.017215264 0.090120105
-0.02154579 0.015945723 0.092088935
-0.021835616 0.014526201 0.093300084
-0.022127434 0.013038944 0.094411463
-0.02252655 0.011264101 0.095673707
-0.023105535 0.0099853886 0.097528609
-0.023378806 0.0085837674 0.098662441
-0.023611447 0.0071357613 0.099619856
-0.02391256 0.0056450856 0.10082095
-0.024170408 0.0040389678 0.1018887
-0.024674163 0.0022556794 0.10378527
-0.02538663 0.00027137997 0.105833
-0.025900985 -0.0016603136 0.10747977
-0.026178661 -0.0034910439 0.10864372
-0.026328054 -0.0052706061 0.10974354
-0.026794982 -0.0069250558 0.11029618
-0.018790621 0.018027898 0.087235063
-0.019496989 0.017193596 0.089850922
-0.019931854 0.015920094 0.091953775
-0.020187725 0.014507944 0.093144693
-0.02055567 0.013085912 0.094682237
-0.020858312 0.011438431 0.095687148
-0.021352677 0.0099649575 0.097333983
-0.021644827 0.0085161151 0.098623581
-0.021856559 0.0069453631 0.099485998
-0.022161151 0.0055211523 0.10066216
-0.022351688 0.003907345 0.10150459
-0.022692861 0.002314414 0.10324945
-0.023256413 0.00043456704 0.10530697
-0.023926233 -0.0015515747 0.10703798
-0.024232405 -0.0034419006 0.10816587
-0.024426808 -0.0053400409 0.10926197
-0.024504807 -0.0070991504 0.11023262
-0.017222102 0.018023176 0.086956096
-0.017701693 0.017003777 0.08923323
-0.018193885 0.015868573 0.091457186
-0.018524361 0.014504979 0.093142671
-0.018901745 0.013061738 0.094728053
-0.019130413 0.011383085 0.095522871
-0.019510935 0.0098800395 0.096917838
-0.019919959 0.0085411832 0.09872435
-0.020136013 0.0070111672 0.099648108
-0.020336502 0.0054233507 0.10039403
-0.020526359 0.0038883358 0.10126225
-0.020760355 0.0022792404 0.10280296
-0.021043649 0.00057363014 0.10423092
-0.021539435 -0.0014424969 0.10566021
-0.022031499 -0.0034475473 0.10717139
-0.022440529 -0.0052953004 0.10821949
-0.022480785 -0.0071618492 0.10918221
-0.022447675 -0.0090370092 0.11008531
-0.015666346 0.017902602 0.086169261
-0.016073819 0.01690654 0.088559904
-0.016387746 0.015743281 0.090521981
-0.01678912 0.014423361 0.092589105
-0.017167435 0.012950077 0.09446647
-0.017334662 0.011351548 0.095572489
-0.01777037 0.0098184592 0.096757697
-0.01819074 0.0085727783 0.098615165
-0.018386421 0.0070287016 0.099498115
-0.018506594 0.0053904489 0.10012558
-0.01871533 0.0038701048 0.101054
-0.018822675 0.0023066365 0.10208554
-0.019093133 0.00053012996 0.10347911
-0.019421889 -0.0013616283 0.10439907
-0.019682834 -0.0033076346 0.10537074
-0.020029012 -0.0052559157 0.10621546
-0.020158917 -0.00711489 0.10723471
-0.020386297 -0.0089711575 0.10848765
-0.020705077 -0.010908535 0.11031782
-0.014070163 0.017889091 0.085473371
-0.01448283 0.016811644 0.087789451
-0.014717654 0.015541185 0.089712038
-0.015030733 0.014324707 0.092187899
-0.015275325 0.012836761 0.09403572
-0.015378973 0.011283769 0.09548528
-0.01591372 0.0098184114 0.096777638
-0.016401063 0.0084840016 0.098458764
-0.016558042 0.0070146183 0.099410688
-0.016682276 0.005462619 0.1000426
-0.016803525 0.0038948124 0.10069483
-0.016933478 0.0022326188 0.10145045
-0.01717661 0.00051499517 0.10257729
-0.017289784 -0.0013062047 0.10302429
-0.017406309 -0.0031796707 0.10352473
-0.017514512 -0.0049816375 0.10433109
-0.017857903 -0.0070247443 0.10572494
-0.018030495 -0.0089421381 0.10701648
-0.018365917 -0.010924935 0.10902246
-0.018489278 -0.012474973 0.11075308
-0.012548784 0.017922602 0.085060698
-0.012969502 0.016729421 0.087500967
-0.013092553 0.015461866 0.08909631
-0.013246907 0.014313244 0.09172265
-0.013417653 0.012887478 0.093503214
-0.013353627 0.01144733 0.095058652
-0.013107334 0.010044286 0.096642084
-0.013580119 0.0085889226 0.098137848
-0.014642062 0.0070558957 0.099095496
-0.014606225 0.0056083438 0.099838513
-0.014875467 0.0039207203 0.10044183
-0.014985339 0.0021607848 0.10069179
-0.015139426 0.00044838782 0.10132091
-0.015235924 -0.0012645481 0.10202249
-0.015267429 -0.0030804452 0.10228325
-0.015378549 -0.0048871592 0.10308388
-0.015671062 -0.0068646963 0.10435506
-0.0158585 -0.0087528452 0.10567792
-0.016178364 -0.010697994 0.10767965
-0.016582907 -0.012732832 0.11045695
-0.011105243 0.017870778 0.084719127
-0.011332578 0.016711065 0.086665077
-0.011518444 0.015328901 0.088547463
-0.011500599 0.014122124 0.090591533
-0.011505519 0.013019589 0.092864938
-0.011298199 0.011562394 0.093814991
-0.010966014 0.01021135 0.095014872
-0.010529248 0.0088903628 0.096458597
-0.010071605 0.0075703507 0.09788317
-0.012553777 0.0055585549 0.098865022
-0.01301589 0.0038035237 0.099768166
-0.013173655 0.0021034459 0.10032675
-0.01323883 0.00035795643 0.10063395
-0.013289222 -0.0013941995 0.1010119
-0.013434588 -0.0031465216 0.1015771
-0.013518205 -0.0048925663 0.10249393
-0.013628219 -0.0067644236 0.10328901
-0.013820094 -0.0085804255 0.10458466
-0.014138243 -0.010565357 0.10663892
-0.014498673 -0.012567603 0.10928488
-0.0096816957 0.017729193 0.084128946
-0.0098325579 0.016709745 0.086352594
-0.010056811 0.015245536 0.087993053
-0.010024438 0.013907657 0.089670144
-0.009741139 0.012912829 0.091392092
-0.0095255378 0.011631173 0.092691732
-0.0091167232 0.010273242 0.093582049
-0.0086743571 0.0088883287 0.094470774
-0.0081441766 0.0075767112 0.09555875
-0.0081385386 0.0060017836 0.096825172
-0.0096328373 0.004066966 0.098854197
-0.011124566 0.0021006189 0.099440855
-0.011399339 0.0003460174 0.10003967
-0.011532629 -0.0014105558 0.10031042
-0.011596035 -0.0031738081 0.10097601
-0.011715883 -0.0049378256 0.10217679
-0.011798237 -0.0066811548 0.10303869
-0.011833821 -0.0084982182 0.1038342
-0.01205484 -0.01040084 0.10584727
-0.01240112 -0.012489172 0.10831333
-0.0082369946 0.017677904 0.083947075
-0.0083654641 0.016623265 0.085847909
-0.0085810808 0.015253086 0.087248794
-0.0085918553 0.013831503 0.088857251
-0.0082730846 0.012741794 0.090339834
-0.0079611931 0.011393997 0.090874255
-0.0075684688 0.010140415 0.09159216
-0.007324579 0.0087068469 0.092254981
-0.0070948529 0.0072238231 0.093278837
-0.0071381588 0.0056833392 0.094302607
-0.007527795 0.0039752122 0.095821475
-0.0082619948 0.0021206409 0.097487087
-0.0090888397 0.00027224005 0.098942384
-0.0095796269 -0.001552837 0.099478362
-0.00982706 -0.0032508987 0.10053527
-0.0098510593 -0.0048651961 0.10176837
-0.009883984 -0.0065860354 0.10247848
-0.0099751101 -0.0083735526 0.10365529
-0.010234702 -0.010339208 0.10549312
-0.010386664 -0.012363226 0.10756797
-0.010661036 -0.01433739 0.11057805
-0.00684943 0.017640704 0.083552557
-0.0068767912 0.016573339 0.085096938
-0.0070519449 0.01525644 0.086600974
-0.0071402813 0.013773463 0.087724562
-0.0070385741 0.012441386 0.088854226
-0.006568153 0.011340117 0.089814864
-0.0063275385 0.0097130391 0.089679696
-0.006173874 0.0081957824 0.090298551
-0.0061111418 0.0067783827 0.0914671
-0.0061528929 0.0052653826 0.092442458
-0.0063014501 0.0035955522 0.093620958
-0.0066776098 0.0018552091 0.09519918
-0.0073638863 4.6571021e-05 0.097118308
-0.0077045434 -0.001760729 0.0988009
-0.0079581638 -0.0033771018 0.100275
-0.0079886622 -0.0048974903 0.10143052
-0.0080600841 -0.0066245999 0.10215565
-0.0081527357 -0.008364231 0.10337541
-0.0083315947 -0.010362455 0.10522153
-0.0085020537 -0.0123728 0.10722077
-0.0087484789 -0.014548478 0.11053252
-0.0054019474 0.017644367 0.082866731
-0.0054194125 0.016521471 0.084329538
-0.0055365999 0.01522841 0.085722347
-0.0056462509 0.013762145 0.086692494
-0.0057613198 0.012268796 0.087568864
-0.0058152213 0.010770024 0.087739311
-0.0055615136 0.0093997797 0.088100326
-0.0055270749 0.0078143648 0.088417925
-0.0055524645 0.0062603607 0.089107866
-0.0054156583 0.0047795535 0.090409517
-0.0052167481 0.0029189154 0.091679375
-0.0054482006 0.0013232567 0.093085686
-0.0056617853 -0.00030011568 0.095179853
-0.0058846303 -0.0018354124 0.09824988
-0.0061903351 -0.0034633644 0.10005419
-0.0062542357 -0.0049644879 0.10127362
-0.0062811403 -0.0066767342 0.10195046
-0.0063195867 -0.0084035884 0.10333395
-0.006461644 -0.010366761 0.10505329
-0.006625327 -0.012360709 0.10730813
-0.0068230941 -0.014586483 0.11049975
-0.0039488614 0.016447712 0.083488114
-0.0040934316 0.015243136 0.085297826
-0.0041987191 0.013823453 0.086353051
-0.0042973865 0.01230397 0.087255038
-0.0043031901 0.010779931 0.087405517
-0.0043395798 0.0092124209 0.087336431
-0.004645587 0.0075945502 0.087073239
-0.0046739363 0.0059768897 0.087251628
-0.004564912 0.0043421513 0.088174564
-0.0038302384 0.0025050036 0.090408328
-0.0038991437 0.00071112563 0.091531674
-0.004146282 -0.00092457774 0.093472543
-0.0041806491 -0.0019765927 0.097757049
-0.0044144316 -0.0035476138 0.09956752
-0.0044786497 -0.0050241809 0.1006177
-0.0045347997 -0.0066408203 0.10178886
-0.00455933 -0.0084245786 0.10318824
-0.004618699 -0.010343634 0.10508648
-0.0047509227 -0.012369033 0.10752212
-0.0048651855 -0.01461315 0.11056929
-0.0021194739 0.016583874 0.083296793
-0.0024364286 0.015376202 0.085341792
-0.0027074959 0.013880583 0.086501534
-0.0027657903 0.012368993 0.087111376
-0.0027791613 0.010832611 0.087465453
-0.0028403834 0.0091702255 0.087192486
-0.0030314968 0.0073468937 0.086780486
-0.003103396 0.0057261917 0.086652113
-0.0029036063 0.0041812952 0.087636923
-0.0013698827 0.0014954311 0.089688182
-0.0015712228 3.0535939e-05 0.091000008
-0.0018316333 -0.0014854223 0.0926132
-0.0024713364 -0.0021138562 0.097148136
-0.0026503135 -0.0035379622 0.099489132
-0.0026883641 -0.0050515563 0.10069404
-0.0027341168 -0.0066390779 0.10175756
-0.0027972559 -0.008329679 0.10334042
-0.002824102 -0.010244212 0.10500717
-0.0028370132 -0.012392975 0.10747275
-0.0030039298 -0.014729636 0.11022212
-0.00071805009 0.016598556 0.083524848
-0.00097689252 0.015347785 0.085378453
-0.0011442901 0.01391338 0.086841333
-0.0012501908 0.012422548 0.087342931
-0.0012700247 0.010877006 0.087733202
-0.0012682061 0.0092899324 0.087814192
-0.0011750798 0.0072373147 0.087222325
-0.0013072632 0.0056985714 0.086941555
0.00022629653 0.0032828423 0.088022158
0.00070548734 0.0013831321 0.089751842
0.00042222691 4.0736701e-05 0.091418443
0.00017261579 -0.0013333499 0.093302489
-0.0006500442 -0.002275442 0.096892888
-0.00089609332 -0.0035079575 0.099422954
-0.00094091382 -0.0050142997 0.1008601
-0.00095081337 -0.0066238989 0.1021641
-0.0010339131 -0.0083664954 0.10340534
-0.0010565373 -0.010273461 0.10561836
-0.0010550285 -0.012587549 0.10786887
-0.00096336989 -0.015012265 0.11050087
0.00070000009 0.016607546 0.083624164
0.00047635985 0.015326981 0.0855757
0.00037827081 0.013986929 0.086965372
0.00026252588 0.012422309 0.087864605
0.00024490548 0.010800765 0.088214618
0.00047297848 0.008963724 0.088589008
0.0008396769 0.0071924699 0.088814643
0.0014826431 0.0051643001 0.088867359
0.0019718112 0.0033418833 0.090083937
0.0019455801 0.0018051439 0.091275866
0.001992259 0.00033256845 0.092411598
0.0016099805 -0.0010747537 0.094291285
0.0011002561 -0.0021618715 0.097255675
0.00087187098 -0.003579787 0.099273416
0.00079195919 -0.0050417084 0.10090155
0.00076483149 -0.0066774329 0.10217596
0.00075281728 -0.0084834639 0.10326278
0.00076689715 -0.010360809 0.10560027
0.00083512599 -0.012590976 0.10782511
0.00092837934 -0.015032504 0.11033472
0.0020951559 0.016620735 0.083826902
0.0019270547 0.01532137 0.085751983
0.0018413128 0.013971686 0.087292701
0.0017600149 0.012448568 0.088434883
0.0017480252 0.010708867 0.088810382
0.0021660456 0.0087793075 0.089307703
0.0024093044 0.0070362617 0.090401215
0.0028524568 0.0053288942 0.090805387
0.0030628592 0.0038431754 0.091793105
0.0031881077 0.0023393889 0.092775467
0.0031842874 0.00090479209 0.09384942
0.0029465422 -0.00068003 0.095423679
0.0027362259 -0.0019716946 0.098033895
0.0026880524 -0.0035412266 0.099501151
0.0026197079 -0.0051381126 0.10067872
0.0024930032 -0.0067115917 0.10221814
0.0025493808 -0.0085432927 0.10322105
0.0026491421 -0.010425674 0.10541037
0.002748143 -0.012637242 0.10770249
0.002833118 -0.015043949 0.11007367
0.0035070565 0.016602193 0.083875196
0.0033782699 0.015264052 0.085709604
0.0032929383 0.013892071 0.087617705
0.0032315447 0.012379664 0.088474557
0.0033575196 0.010779718 0.08890896
0.0037001509 0.0089580519 0.089564676
0.0038499813 0.0072719558 0.090894297
0.0041236969 0.0058258101 0.09191337
0.0042810715 0.0043789077 0.092853337
0.0042724519 0.0029211908 0.0938596
0.0043418189 0.0013991591 0.095045579
0.0042113202 -0.00019280397 0.096887069
0.0043288977 -0.0018391052 0.098836315
0.0043687517 -0.0033873436 0.10013082
0.0043361975 -0.0050379472 0.10113155
0.0043189273 -0.0067121928 0.10234027
0.0043364798 -0.0085677933 0.10343795
0.0044077596 -0.010557153 0.10555674
0.0046297941 -0.012788019 0.10779684
0.0048305783 -0.015037593 0.11036279
0.0048939202 0.016559202 0.084216284
0.0047854524 0.015316412 0.085832718
0.0047068513 0.013956363 0.087545243
0.0047321546 0.012501634 0.088305657
0.0048121437 0.010983445 0.089220496
0.0051611603 0.0092802883 0.090056926
0.0053449303 0.0077447663 0.091074938
0.0053262061 0.0063407129 0.092684075
0.0055509055 0.0048803676 0.09373115
0.0055720955 0.0034176502 0.094969146
0.0054233624 0.0019191597 0.096720738
0.0055675127 0.00021157958 0.098351031
0.0060060874 -0.0016154653 0.099731614
0.0060507845 -0.0032147936 0.10084096
0.0061118524 -0.0049773717 0.1015908
0.0061058598 -0.0066910065 0.10269698
0.0061004947 -0.008533046 0.10396454
0.0062159052 -0.010804269 0.10550751
0.0065501561 -0.013125864 0.10785514
0.006208756 0.016459116 0.084774323
0.0062301106 0.015348587 0.085964548
0.0062045588 0.01398057 0.087311246
0.0062223494 0.012528593 0.087990535
0.0062628894 0.011106924 0.089267142
0.0066389404 0.0096594604 0.090120219
0.0068571847 0.0081522443 0.091407766
0.0068311258 0.0067777536 0.093043315
0.0068966653 0.0053659489 0.094515287
0.0070445885 0.0035841038 0.096193654
0.0070423513 0.0021690695 0.098081256
0.0074564239 0.00032379437 0.099623633
0.0077138177 -0.0014732401 0.10041878
0.0077919254 -0.0031884416 0.10144482
0.0078595187 -0.0049008923 0.10239942
0.0079050188 -0.0067081639 0.10343559
0.0079501846 -0.0088015112 0.10434879
0.0081846208 -0.011181582 0.10597513
0.0084827933 -0.013620385 0.10783056
0.0087558317 -0.015710373 0.10943607
0.0075452666 0.017483178 0.083766622
0.0076229582 0.01647928 0.085142434
0.0076594456 0.015369286 0.086265526
0.0076801675 0.014041298 0.08749003
0.0076849923 0.01258057 0.087984299
0.0077122878 0.011089123 0.089357801
0.0079099325 0.0097391935 0.090330221
0.0082825534 0.00846766 0.091463126
0.0081489418 0.0072351368 0.09394341
0.0085160366 0.0054728581 0.095040123
0.0086631266 0.0037357729 0.096710456
0.008813872 0.0021649623 0.098918699
0.0090805031 0.00044609682 0.10018483
0.0093457553 -0.0013607299 0.10112655
0.0095024925 -0.0030537561 0.10226262
0.0096083842 -0.0049048685 0.1029083
0.0098010442 -0.0069006689 0.10372885
0.009959952 -0.0090659627 0.10484893
0.010164513 -0.011514538 0.10621171
0.010364968 -0.014102619 0.10747367
0.0089343827 0.017519754 0.083886653
0.0090426123 0.016474814 0.085245182
0.0090834244 0.015316808 0.086355219
0.0090921881 0.014070462 0.087630433
0.009169215 0.012581478 0.088415029
0.0092360141 0.011152386 0.089573346
0.0093142378 0.0097542489 0.090454571
0.0094627164 0.0082581947 0.091497762
0.009847578 0.0073221947 0.09433644
0.010220072 0.0054099097 0.095160358
0.010407655 0.0038740787 0.097650349
0.01051578 0.002281764 0.099332494
0.01070735 0.00057007659 0.10033724
0.010904049 -0.0010897528 0.10163792
0.011198301 -0.002915767 0.10279849
0.011365295 -0.0048410006 0.10334009
0.011619242 -0.006883313 0.10446377
0.011853642 -0.0090945723 0.10553845
0.012076699 -0.0118115 0.10675324
0.012233007 -0.014402202 0.10783132
0.010302249 0.017569513 0.083982939
0.010399558 0.016515511 0.085012183
0.01039287 0.01533666 0.086087913
0.010535586 0.014085425 0.087349365
0.010642799 0.012693424 0.088199628
0.010756798 0.011272962 0.089452093
0.01080418 0.0099042495 0.090514372
0.010894161 0.0085155737 0.091571517
0.01150302 0.0071103141 0.094016788
0.011803808 0.0054021535 0.095643493
0.012007881 0.0039669485 0.097950759
0.012255501 0.0023398893 0.099566994
0.012485382 0.00068733389 0.10063817
0.012636834 -0.0010353489 0.10173924
0.01291834 -0.0028325063 0.10288626
0.013165161 -0.004705439 0.10386934
0.013421854 -0.0067733129 0.10520842
0.01367668 -0.0094345677 0.10656379
0.013987184 -0.01216311 0.10762591
0.014159447 -0.01437972 0.10841548
0.011747973 0.017791051 0.084678756
0.011828608 0.016614634 0.085229327
0.011790967 0.015398208 0.08612415
0.012014019 0.014090178 0.087439746
0.012132438 0.012707101 0.088160021
0.012210497 0.011323686 0.089320615
0.012280584 0.0099507415 0.090331865
0.01235005 0.0085372285 0.091325859
0.012630068 0.0072405179 0.093908576
0.013350772 0.0053289902 0.095816076
0.013688774 0.0038464017 0.0978722
0.013998821 0.0023649715 0.099769396
0.014227829 0.00080594835 0.10094563
0.01446217 -0.00091518873 0.10163006
0.014718347 -0.0027404242 0.10310749
0.014917875 -0.0046333143 0.1041359
0.015228059 -0.006838164 0.10627076
0.015639094 -0.0099690361 0.10777295
0.016023467 -0.012391558 0.10902999
0.013143337 0.017812007 0.084677277
0.013216495 0.016693834 0.085479615
0.013248542 0.015429914 0.086112603
0.013517855 0.01409735 0.087785776
0.01364629 0.012722021 0.088487103
0.013665155 0.011370743 0.089445586
0.013761599 0.010006565 0.09037069
0.013873068 0.0085685433 0.091432303
0.01409695 0.0071751932 0.093257643
0.014884821 0.0052028188 0.095729575
0.015528443 0.0038513981 0.098386106
0.015848388 0.0023520217 0.099907185
0.016126996 0.00069811719 0.10119391
0.016213852 -0.0010089242 0.10184931
0.016485831 -0.0027142828 0.10343138
0.016867802 -0.0047140034 0.10528971
0.017293643 -0.0071465745 0.10754273
0.017741597 -0.0099395383 0.10930623
0.014658587 0.017934542 0.085062064
0.014770042 0.016821954 0.085888142
0.014860494 0.015570313 0.086726069
0.015023544 0.014179888 0.087631211
0.015133011 0.0128313 0.088607272
0.015268932 0.011427632 0.08972422
0.0153353 0.010008149 0.090666145
0.015508385 0.0085900616 0.092196047
0.01594336 0.0071514168 0.093817957
0.016407846 0.0053395668 0.095583665
0.017197659 0.0037859888 0.098422654
0.017573683 0.0022730093 0.09988033
0.017889007 0.00063354935 0.10118335
0.018103312 -0.001018354 0.10224707
0.018392807 -0.0028560637 0.10386195
0.018947812 -0.0049098055 0.10635631
0.019753279 -0.0075571843 0.10962006
0.01623395 0.018181257 0.085838514
0.016336276 0.016999429 0.086566602
0.016407613 0.015665216 0.087259266
0.016610845 0.014322669 0.088066427
0.016712925 0.012901599 0.088818436
0.016900092 0.011509844 0.090221708
0.016890329 0.010046562 0.09106087
0.017213697 0.008547203 0.092350761
0.017777619 0.0070534406 0.094457477
0.018029835 0.005421142 0.095615265
0.018825203 0.0038039992 0.098200212
0.019272066 0.0022372138 0.099623807
0.019683 0.00068863381 0.10119524
0.020152365 -0.0011722976 0.10281279
0.020575345 -0.0031439828 0.1047881
0.021238109 -0.0052707461 0.10762645
0.022062701 -0.0074861581 0.11063708
0.017813179 0.018336817 0.086525348
0.01792182 0.017102302 0.087166463
0.017969041 0.015739296 0.087646916
0.018198675 0.014416086 0.088623864
0.018364812 0.012968782 0.089406354
0.018701491 0.011495804 0.090406981
0.01857309 0.0099631097 0.091088747
0.018736264 0.0084564174 0.092189525
0.019513821 0.0069829978 0.094907298
0.019843606 0.0054312013 0.096162103
0.020791399 0.0038284307 0.098705784
0.021195728 0.002236547 0.10015898
0.021674928 0.00052803107 0.10163693
0.022223436 -0.0015502316 0.10343476
0.02315856 -0.0036519312 0.10605177
0.023561558 -0.0054649065 0.10894524
0.019245338 0.018365126 0.086495802
0.019515181 0.017122211 0.087456951
0.01966024 0.015784421 0.088121769
0.019871968 0.014428741 0.088885561
0.020056003 0.012892211 0.089430988
0.020316091 0.011349905 0.090275116
0.020249148 0.0098461177 0.091119657
0.020390588 0.0083972501 0.092259546
0.021187467 0.006914967 0.095051592
0.021580374 0.00545018 0.09636906
0.022622528 0.0037948721 0.098915537
0.023044073 0.0021847527 0.10044908
0.023663406 0.00032022483 0.1021758
0.024469329 -0.0017682509 0.10422097
0.025265519 -0.0036180698 0.10698745
0.025998399 -0.0056459186 0.11031356
0.020683294 0.01829388 0.086338274
0.021070025 0.017082179 0.087491264
0.021404654 0.015696685 0.088237641
0.021552124 0.014326302 0.089014878
0.021620913 0.012851868 0.089342403
0.021831101 0.011324942 0.090017398
0.021823002 0.0097520026 0.090866861
0.022163063 0.0083137009 0.092637174
0.022705305 0.0068108407 0.094574794
0.023283942 0.0052615949 0.095911726
0.0243368 0.0037462093 0.09872508
0.025282539 0.0020613097 0.10165741
0.025739255 0.00013367157 0.10283705
0.026559494 -0.001757604 0.1049226
0.027492407 -0.0036234545 0.10855491
0.022328208 0.018254108 0.086632878
0.022604034 0.016982636 0.087388684
0.022949613 0.015651319 0.088220452
0.023109643 0.014257005 0.088827955
0.023164018 0.012798626 0.089175254
0.023432268 0.011343319 0.090062181
0.024219702 0.0099360461 0.091927362
0.024350865 0.0084172993 0.093338907
0.024672054 0.0067036886 0.094555885
0.025780951 0.0052279176 0.097142339
0.026643764 0.0037712779 0.099668453
0.027766185 0.0018551189 0.10279658
0.028252394 0.00013665516 0.10434912
0.028756542 -0.0016367223 0.1063169
0.029744196 -0.0037068586 0.10995788
0.023895344 0.018187611 0.086680169
0.02423225 0.016962536 0.087592403
0.024503761 0.015596371 0.088326643
0.02463679 0.014200799 0.088735484
0.024749201 0.012776189 0.089231051
0.025147349 0.011410079 0.090212191
0.025794092 0.010108101 0.091575063
0.026043713 0.008661733 0.092531063
0.026480672 0.0070383688 0.094253813
0.027684254 0.0053469179 0.097372184
0.028851611 0.0037066079 0.1008577
0.030248627 0.0019238857 0.10402033
0.030644054 0.00021920702 0.10600526
0.031051822 -0.0015127903 0.10790671
0.03189543 -0.0035454968 0.11056057
0.025361309 0.018170845 0.086458946
0.025766429 0.016913302 0.087562613
0.026043588 0.015530108 0.088344467
0.026178771 0.014172981 0.088730171
0.026301851 0.01272676 0.089190451
0.026717655 0.011398951 0.08973217
0.027034864 0.010076822 0.090575204
0.027385614 0.0086439522 0.091689654
0.027789246 0.007088288 0.093041589
0.029224427 0.0054500811 0.096763762
0.031235648 0.0037625091 0.10222347
0.032265923 0.0020688492 0.10521228
0.032631784 0.0003186072 0.10669826
0.033244064 -0.0013243047 0.10893166
0.026903427 0.018112187 0.086658423
0.027257251 0.016889783 0.087585507
0.027575038 0.015516149 0.088161419
0.027846134 0.01418108 0.088866492
0.028086412 0.012753881 0.089056062
0.028255727 0.011368283 0.089520164
0.028445337 0.010014557 0.090209978
0.028875809 0.0086261468 0.091541745
0.0300556 0.0072198614 0.094701064
0.03091369 0.0055397791 0.096972254
0.03363388 0.00375569 0.10369254
0.034377483 0.0022395938 0.10653415
0.034897477 0.00053131317 0.10831803
0.03558495 -0.0012926681 0.11044331
0.028049771 0.018005879 0.085762342
0.028735137 0.016897168 0.08752579
0.029101524 0.015568397 0.088212522
0.029343993 0.014176012 0.088510245
0.029513946 0.012728231 0.088768529
0.029673691 0.011323719 0.089292762
0.029805526 0.0099528918 0.089876632
0.030407991 0.0086174359 0.091646038
0.031588995 0.0072532194 0.094559016
0.032260989 0.005676288 0.096189663
0.036278785 0.0039631346 0.10654478
0.036934185 0.0021449794 0.1083245
0.037322242 0.00025616604 0.109487
0.038307039 -0.0019409809 0.11063774
0.028955378 0.017819814 0.084232166
0.029881159 0.016837684 0.086546801
0.030376278 0.015490976 0.087576588
0.030747923 0.014182867 0.088291265
0.03093806 0.01272699 0.088583115
0.031128458 0.011337148 0.08919997
0.031506701 0.0099715545 0.090359944
0.031825511 0.0086064097 0.091256415
0.032760621 0.0071637451 0.093466461
0.034884418 0.0054908014 0.09836441
0.038848835 0.0039321284 0.10770143
0.039349852 0.0020536696 0.10916683
0.040014416 -8.9263023e-05 0.11010162
0.040450958 -0.0018607207 0.11089114
0.0307765 0.016633191 0.08499935
0.03149576 0.015372369 0.086442803
0.032041095 0.014067648 0.087403064
0.032302305 0.012646722 0.088181309
0.032529665 0.011220236 0.088915711
0.032964076 0.0098025287 0.090160042
0.033426134 0.0084176539 0.091395917
0.03433688 0.0070343966 0.093632879
0.039017464 0.0053643041 0.10320117
0.040763813 0.0039023104 0.10782093
0.041517478 0.0019393581 0.10949417
0.042047749 -0.00016079866 0.11016936
0.042841736 -0.0019063484 0.11094441
0.032479863 0.015344129 0.084690998
0.033071146 0.013980568 0.085867971
0.033714326 0.012604558 0.087801111
0.034070196 0.011059315 0.088734856
0.034408769 0.0096386916 0.089790374
0.034925782 0.0083333161 0.091117057
0.036916732 0.0068416515 0.095755401
0.041104923 0.0053721244 0.10409062
0.04248273 0.0040120681 0.10762466
0.043249911 0.0021149174 0.10891002
0.043897309 -2.1444633e-05 0.10975958
0.044285783 -0.0019520414 0.11007442
