ply
format ascii 1.0
comment Automatically gnerated by model-converter
element vertex 764
property float x
property float y
property float z
element face 0
property list uchar int vertex_indices
end_header
-0.029394085 0.018411856 0.08864784
-0.029896169 0.017037037 0.090182928
-0.03003526 0.015480235 0.09067109
-0.030204333 0.013866982 0.091047597
-0.030537948 0.012285473 0.091870206
-0.031049973 0.01095152 0.092989996
-0.031424238 0.0096433392 0.093979975
-0.031801183 0.008402857 0.094845673
-0.032616333 0.0073297761 0.096556517
-0.033626866 0.006509307 0.09929401
-0.034858939 0.0050383148 0.10232046
-0.035347207 0.0032335269 0.10332483
-0.035539637 0.0014301747 0.10345048
-0.035654677 -0.00041520029 0.10370761
-0.035905165 -0.0024538247 0.10432688
-0.036401024 -0.0046764489 0.10569856
-0.037129376 -0.0071242276 0.10833092
-0.02840685 0.018562316 0.089866879
-0.028693306 0.017202989 0.091050141
-0.02880679 0.015605089 0.091354482
-0.028971926 0.013976523 0.091685683
-0.029371644 0.012434873 0.092585914
-0.029820666 0.011054305 0.093603365
-0.030284004 0.0098321385 0.094915228
-0.03084586 0.0086319959 0.096060107
-0.031497857 0.0075343894 0.097758807
-0.032440047 0.0065543068 0.10022934
-0.033455837 0.0048686794 0.10285533
-0.033912532 0.0030652786 0.10401908
-0.034115595 0.0012886375 0.10422724
-0.034301396 -0.00065442784 0.10471369
-0.034621263 -0.0027606816 0.10554719
-0.035059737 -0.0050341386 0.10677469
-0.035592187 -0.0073347547 0.10837667
-0.026667177 0.018546534 0.08879289
-0.027142103 0.017295789 0.090643237
-0.027525705 0.015601685 0.09185914
-0.027689578 0.014004474 0.092362501
-0.028056543 0.012604859 0.093264197
-0.0283898 0.011160368 0.094133921
-0.028800689 0.0097980006 0.095302664
-0.029365406 0.0086685661 0.096520851
-0.030154981 0.0076419778 0.098790993
-0.030981179 0.0064963854 0.10109083
-0.031820017 0.0047764373 0.10322077
-0.032389584 0.0028341527 0.10470839
-0.032602435 0.0010043804 0.10545031
-0.032802852 -0.00096787168 0.10585454
-0.033152371 -0.002946912 0.10668079
-0.033574247 -0.0053013147 0.10795928
-0.033867547 -0.0074448911 0.10896444
-0.025025412 0.01856769 0.088231487
-0.025580924 0.017370212 0.090268495
-0.026224672 0.015773175 0.092407016
-0.026408012 0.014114575 0.093136196
-0.026927877 0.012843688 0.094582257
-0.027183119 0.011322486 0.095218766
-0.02747967 0.0098574314 0.096025035
-0.027907081 0.0086466822 0.097214833
-0.028631767 0.0075831042 0.099273269
-0.029404928 0.0064509333 0.10197277
-0.030155155 0.0047525327 0.10361849
-0.030664482 0.0028296248 0.1049526
-0.031033034 0.00072661632 0.10628153
-0.031282021 -0.0012384883 0.10706942
-0.031540354 -0.0030720613 0.10766137
-0.031973808 -0.0050301151 0.10865376
-0.032237287 -0.0072693159 0.1097628
-0.023501721 0.018564815 0.088139799
-0.02410996 0.017428465 0.090402471
-0.024813221 0.01596862 0.09252536
-0.024896917 0.014436687 0.093488333
-0.025350213 0.012816115 0.094674113
-0.025586233 0.011290002 0.095429845
-0.026076903 0.0098260132 0.096782528
-0.02651508 0.0087374554 0.098237325
-0.027061957 0.0074303684 0.099553351
-0.027645996 0.0061954482 0.10201972
-0.028289214 0.0046583844 0.10329815
-0.028677929 0.0027230585 0.10467133
-0.029424456 0.00068848099 0.10659473
-0.029649441 -0.0013420539 0.10776102
-0.029946717 -0.003241114 0.10857466
-0.030251314 -0.0050694283 0.10943073
-0.030439723 -0.0069788226 0.11031928
-0.021903987 0.018504457 0.087746598
-0.022707765 0.017339228 0.090521817
-0.023166012 0.016026629 0.092518255
-0.023315512 0.014644634 0.093362938
-0.023627616 0.012909416 0.094515465
-0.023940166 0.011208273 0.095537719
-0.024560946 0.0098369687 0.097250665
-0.025014767 0.0084946708 0.098386057
-0.025374789 0.0072102597 0.099720319
-0.025831409 0.0058806678 0.10137721
-0.026182613 0.0042791938 0.10266254
-0.026828594 0.0025568135 0.10438281
-0.027469169 0.00047827311 0.10640371
-0.027859627 -0.0013879694 0.10793826
-0.02809998 -0.0033583813 0.10879203
-0.028262846 -0.005205635 0.10963831
-0.028481586 -0.0070560887 0.11050552
-0.020234478 0.018307834 0.087240977
-0.021101895 0.017328615 0.090276579
-0.021482525 0.016088624 0.092277413
-0.021744168 0.014692707 0.093529788
-0.022020757 0.013201786 0.094654053
-0.022390571 0.011338979 0.095833088
-0.023030016 0.0098679296 0.097528644
-0.023325657 0.0084885113 0.098587712
-0.023591521 0.0070959572 0.099663779
-0.023906326 0.0056926398 0.10097091
-0.024206166 0.0041204376 0.10208945
-0.024710532 0.0023896714 0.10402949
-0.025494034 0.00044406125 0.10616425
-0.026016096 -0.0014711361 0.10784783
-0.026265639 -0.0033307764 0.10892016
-0.026334924 -0.0051913585 0.1098686
-0.026767524 -0.0068807034 0.11035966
-0.018855751 0.018034914 0.08731885
-0.019475558 0.017291631 0.089959535
-0.019868059 0.016080013 0.092153182
-0.020099149 0.014684217 0.093376994
-0.020440087 0.013251195 0.094897459
-0.020719884 0.011526291 0.095873756
-0.021265985 0.0099104119 0.097435211
-0.021584248 0.0084270596 0.09861502
-0.021844232 0.0068703464 0.099530369
-0.022146293 0.0055346306 0.10076592
-0.022369971 0.0039156489 0.101634
-0.022765957 0.0023211902 0.10340856
-0.023334075 0.00047918269 0.10548136
-0.024019886 -0.0014292281 0.10733894
-0.024326957 -0.0032460336 0.10847253
-0.024460162 -0.0051788537 0.10944223
-0.02444077 -0.0069997041 0.11026607
-0.017297638 0.018039218 0.087027681
-0.017708899 0.017098591 0.089338327
-0.01811572 0.016056455 0.091642288
-0.018420271 0.014693816 0.093354913
-0.018774753 0.013228673 0.094920069
-0.018981363 0.011483557 0.095748541
-0.019403658 0.0098554576 0.097084691
-0.019861948 0.0084698203 0.098792026
-0.020112999 0.0069540325 0.099733974
-0.020319712 0.0054077574 0.10050245
-0.020542327 0.0038574472 0.10138352
-0.020790968 0.0022692084 0.10289371
-0.021087874 0.00056795619 0.10432381
-0.021593038 -0.0013874853 0.10586072
-0.022098089 -0.0033084723 0.10739918
-0.022497719 -0.0051029427 0.10835604
-0.022474303 -0.0069786928 0.10922585
-0.022356723 -0.0089530355 0.10998733
-0.015749345 0.017927811 0.086200364
-0.016098112 0.016993552 0.088636177
-0.016318788 0.015961909 0.090703011
-0.016681694 0.014615739 0.092784558
-0.017015833 0.013104088 0.094622451
-0.017166848 0.011464611 0.095761684
-0.017626286 0.0098093764 0.096952781
-0.018126555 0.0085170679 0.098759445
-0.01835274 0.0069747404 0.099658626
-0.018470452 0.0053689644 0.10027064
-0.018722311 0.0038444244 0.10115127
-0.018851428 0.0022796168 0.10217451
-0.019107274 0.00053843676 0.10357208
-0.019415618 -0.0013170542 0.10460098
-0.019656327 -0.0032220622 0.10564888
-0.019985509 -0.0051291195 0.10657285
-0.020160772 -0.0070943564 0.10735661
-0.020373089 -0.0089707524 0.10858746
-0.02066704 -0.010923718 0.11037847
-0.014172463 0.017935997 0.085508133
-0.014522121 0.016896158 0.087844493
-0.01468853 0.015699361 0.089837395
-0.014919623 0.014479023 0.092329224
-0.015122571 0.012931556 0.094142519
-0.015191088 0.011326765 0.09555166
-0.015769775 0.009797575 0.096974984
-0.016332276 0.008432117 0.098664756
-0.016522471 0.0069657058 0.099613761
-0.016660686 0.0054235059 0.10019245
-0.016799629 0.0038691528 0.10074822
-0.016950874 0.0022107448 0.10150473
-0.017198161 0.00051838064 0.10265844
-0.017274296 -0.0012840376 0.10315375
-0.017378048 -0.0031355325 0.10377152
-0.017450988 -0.0048904003 0.10460871
-0.017820019 -0.0069668563 0.10588795
-0.017989163 -0.0089058861 0.10715029
-0.018324194 -0.010920764 0.10913419
-0.018451239 -0.012495268 0.11083609
-0.012655562 0.017986179 0.085076545
-0.013010184 0.016810588 0.087516911
-0.013083647 0.015587902 0.089166701
-0.01314369 0.014401523 0.091768642
-0.01327014 0.012939242 0.093544464
-0.0131602 0.011448018 0.095080348
-0.012822533 0.010022105 0.096623555
-0.013316644 0.0085536158 0.098270257
-0.014609502 0.007037619 0.099320747
-0.014549946 0.0056191151 0.099966069
-0.014836099 0.003927769 0.10052095
-0.014956771 0.002167539 0.10078832
-0.015125393 0.00045568973 0.10141998
-0.015196644 -0.0012363442 0.10210702
-0.015216738 -0.0030532846 0.10242014
-0.015337349 -0.0048293318 0.10324463
-0.01561443 -0.006772213 0.10452664
-0.01581287 -0.0086872007 0.1058486
-0.016131133 -0.010667961 0.10780359
-0.016537074 -0.012734723 0.1105255
-0.011216288 0.017932283 0.084704071
-0.011403551 0.016751853 0.086633344
-0.011527788 0.015423847 0.088566445
-0.011430452 0.014207653 0.090589556
-0.011368091 0.013051299 0.092852838
-0.011120111 0.011583541 0.093789123
-0.01068441 0.010233887 0.09499828
-0.010104612 0.0089659619 0.096406964
-0.0095246645 0.0076878671 0.097867491
-0.012467154 0.005597683 0.099068368
-0.012967158 0.0038191454 0.099897087
-0.013137089 0.0021152774 0.10043009
-0.0132133 0.00036836302 0.10071645
-0.013274177 -0.0013792913 0.10107377
-0.013441053 -0.0031346264 0.10165943
-0.01348695 -0.0048564269 0.10258223
-0.01359452 -0.0066915968 0.10346102
-0.013772975 -0.0084946084 0.10478423
-0.014094609 -0.01051108 0.10678721
-0.014450999 -0.012538462 0.10941283
-0.0098037003 0.017817218 0.084117485
-0.0099192463 0.016731089 0.086273042
-0.010099092 0.015307676 0.087929396
-0.010014232 0.013996806 0.089644544
-0.0096432042 0.012974675 0.091376848
-0.0093598701 0.011683173 0.092632309
-0.0088684258 0.010339012 0.093516431
-0.0083314786 0.0089712581 0.094384025
-0.0076542712 0.0076862721 0.095421995
-0.0075244008 0.0061505802 0.096766298
-0.009094698 0.0042523447 0.098991342
-0.011019249 0.0021535982 0.099616456
-0.011370224 0.00035286693 0.10011309
-0.011529781 -0.0014156988 0.10032742
-0.011601457 -0.0031851821 0.10098949
-0.011698353 -0.0049231678 0.10222372
-0.011766904 -0.0066115443 0.10317443
-0.011786415 -0.0084020194 0.10404503
-0.012005685 -0.010307718 0.10602202
-0.012353297 -0.012436068 0.10846245
-0.0083571197 0.017783484 0.083920831
-0.0084775854 0.016662974 0.085736406
-0.0087123318 0.015295916 0.087106978
-0.0086090894 0.013928248 0.088740036
-0.008204462 0.012839079 0.090247847
-0.0078704261 0.011500995 0.090763472
-0.0074499206 0.010206675 0.09139095
-0.0071947579 0.00877907 0.092038085
-0.006837452 0.0072779132 0.093072953
-0.0067613134 0.0057746619 0.094117885
-0.0070855138 0.0040829343 0.095810036
-0.0078024885 0.0022702677 0.097604124
-0.0086915058 0.00047931374 0.099073119
-0.0093403517 -0.0013430935 0.099594399
-0.0098037922 -0.0032212786 0.10050102
-0.0098418401 -0.0048256547 0.10177385
-0.00985915 -0.0065030797 0.10260917
-0.0099333876 -0.0082598223 0.10386153
-0.010185171 -0.010240921 0.10566572
-0.010348952 -0.012320249 0.10769543
-0.010600379 -0.01429147 0.11068997
-0.0069776676 0.017753095 0.083491665
-0.007000424 0.01663451 0.084961789
-0.007181397 0.015278558 0.08639424
-0.0072464476 0.013819207 0.087548338
-0.007097252 0.012543346 0.088649218
-0.0065274685 0.011464389 0.089649863
-0.006453821 0.009762085 0.089212515
-0.0062346513 0.0082107568 0.08987206
-0.006051763 0.0068118169 0.091095483
-0.0059633519 0.0052791416 0.092190755
-0.0060206989 0.0036258016 0.093513521
-0.0063843338 0.0019164204 0.095157216
-0.0071020712 0.00012938922 0.097165075
-0.007505628 -0.001666628 0.098801044
-0.0078548882 -0.0032939622 0.10027763
-0.0079576249 -0.004858386 0.10143885
-0.008052928 -0.0065351796 0.10228228
-0.008128956 -0.0082109403 0.10360581
-0.0083068336 -0.010324275 0.10534026
-0.0084869908 -0.012359733 0.10731123
-0.0086981933 -0.014527204 0.11062303
-0.0055367225 0.017781597 0.082793015
-0.0055546219 0.016605999 0.084198006
-0.0056869571 0.015248157 0.085493195
-0.0058094139 0.013825551 0.086425324
-0.0059421553 0.012354897 0.087227752
-0.0060448111 0.01089764 0.087232841
-0.0058502591 0.009512987 0.087457212
-0.0057846606 0.0078856393 0.087767392
-0.0056988844 0.0062756352 0.088565047
-0.0054256174 0.0047837185 0.08999672
-0.005055578 0.0029140696 0.091436128
-0.0052779919 0.0013375834 0.092999774
-0.0054673332 -0.00029171052 0.095082343
-0.0057376041 -0.0018676546 0.098134781
-0.0061111048 -0.0035002501 0.099916848
-0.0062363901 -0.0049851381 0.1011794
-0.006285219 -0.0066508238 0.10199694
-0.0063057579 -0.008306896 0.10344858
-0.0064424469 -0.010337159 0.10513302
-0.006579439 -0.012330119 0.10732709
-0.0067739391 -0.014571798 0.11056465
-0.0040698222 0.016595858 0.083400222
-0.0042784142 0.015258874 0.084995973
-0.004373908 0.013986964 0.086120265
-0.0044940071 0.01247011 0.086921712
-0.0045057248 0.010956398 0.086922342
-0.0045890474 0.0093671376 0.086663939
-0.005007857 0.0076975461 0.086276015
-0.0049469786 0.0060372309 0.086537937
-0.004734328 0.0043906023 0.08748698
-0.0037587145 0.002448469 0.090155296
-0.0037981117 0.00068129593 0.09135101
-0.0039770623 -0.00090703174 0.093345843
-0.0040785503 -0.0021067293 0.097612753
-0.0043692715 -0.0036716578 0.099404526
-0.0044654738 -0.0051122345 0.10050672
-0.0045318694 -0.0066634019 0.10177116
-0.0045619446 -0.0083862605 0.10324691
-0.0046028748 -0.01032027 0.10513647
-0.0047179508 -0.012359565 0.10756061
-0.0048123572 -0.014606739 0.11060711
-0.0021294528 0.016763145 0.083113476
-0.0025203201 0.015574963 0.085182605
-0.0028821164 0.014108867 0.086372962
-0.0029604296 0.012584075 0.086899432
-0.0029784493 0.011030624 0.087127934
-0.0030467849 0.0093652665 0.086635049
-0.003287781 0.0074884206 0.085998513
-0.003321781 0.0058450504 0.085851873
-0.003071313 0.0042714931 0.086842694
-0.0013340426 0.0014505645 0.089512291
-0.0015292668 -9.1726833e-07 0.090831258
-0.0017787998 -0.0015071283 0.092453706
-0.0023889161 -0.0022499035 0.097010453
-0.00261718 -0.0036722584 0.099348903
-0.0026703469 -0.0051581062 0.10058843
-0.002732038 -0.0067111769 0.10169787
-0.0028065591 -0.0083582938 0.10332592
-0.0028152643 -0.010245266 0.10502615
-0.0028107137 -0.012390879 0.10749599
-0.0029615148 -0.014729884 0.11024721
-0.00073358806 0.016738655 0.08335521
-0.0010530731 0.015508408 0.085242984
-0.0013056501 0.014108516 0.086765202
-0.0014479115 0.01262673 0.087213675
-0.0014792358 0.011072011 0.087501712
-0.001459808 0.0094828224 0.087474214
-0.0013447038 0.0073701973 0.086600135
-0.0014705123 0.0058361419 0.086239693
0.00030594429 0.0032573867 0.08770786
0.00076451983 0.0013328174 0.089539029
0.00046317594 2.5750549e-06 0.09126697
0.00023075406 -0.0013586964 0.093119651
-0.00063950516 -0.0023544727 0.09678069
-0.00087790736 -0.0036504079 0.099290028
-0.00092882442 -0.0051405354 0.10074215
-0.00094549785 -0.0067261721 0.10207736
-0.0010370012 -0.0084258606 0.1033646
-0.0010506532 -0.010296525 0.10560746
-0.0010392347 -0.012604388 0.1078682
-0.00093657341 -0.015020708 0.11050779
0.00068743696 0.016717503 0.083491249
0.00039461797 0.015464907 0.085472872
0.00024415259 0.014135947 0.086900411
6.2706244e-05 0.012593222 0.087788053
3.7637433e-05 0.010960814 0.088064969
0.0004060904 0.009025538 0.088352762
0.00085051309 0.0072187386 0.088570188
0.0015693328 0.0051580525 0.088668811
0.0020802941 0.0033005706 0.089914702
0.002021559 0.0017383435 0.09109619
0.0020642801 0.000283666 0.09224197
0.0016500908 -0.0011242637 0.094125003
0.0010931346 -0.00223883 0.097153686
0.00085931298 -0.0037100139 0.099163907
0.00079519959 -0.0051665663 0.10078535
0.00076201861 -0.0067690439 0.10209784
0.00074766776 -0.0085576695 0.10320974
0.00077032042 -0.010401436 0.10557181
0.00084832315 -0.012621309 0.10780586
0.00094907356 -0.015054313 0.11032343
0.0020715841 0.016696195 0.083717615
0.0018445975 0.015442951 0.085685291
0.001696828 0.014115101 0.087262837
0.0015751384 0.01258762 0.088400501
0.0015890508 0.010802971 0.088784695
0.0020623713 0.0088315218 0.089265761
0.0023325156 0.0070660872 0.090248297
0.0028595535 0.0053196306 0.090654177
0.0030791659 0.0038393454 0.091638235
0.0032430226 0.0023071101 0.092613655
0.0032320472 0.00085437331 0.093719185
0.0029660981 -0.00074936517 0.095321392
0.0027262928 -0.0020615142 0.098001924
0.0026467604 -0.0036301092 0.099444205
0.0026018149 -0.0052413551 0.10060058
0.0024896573 -0.0068086758 0.10213968
0.0025421047 -0.0086298315 0.10315928
0.0026497428 -0.010483749 0.10536615
0.0027591224 -0.0126841 0.10766219
0.0028485996 -0.015081937 0.11004236
0.0034864652 0.016653923 0.083796439
0.0032850367 0.01536783 0.085669642
0.0031376984 0.014025506 0.087640151
0.0030446079 0.012508201 0.088513658
0.0031547469 0.010878565 0.08903266
0.0035382918 0.0090542641 0.089667067
0.0036988408 0.0073527115 0.090941355
0.0040131205 0.0058472077 0.091925929
0.0041800444 0.0044108914 0.092810271
0.0042442229 0.0028963482 0.093801983
0.0043391856 0.0013995425 0.094967241
0.0041710699 -0.00024098071 0.096811575
0.0042792519 -0.0018835511 0.098835829
0.0043119583 -0.0034756323 0.10010011
0.0042862524 -0.0051455782 0.10111245
0.004297949 -0.006809539 0.10228685
0.0043292791 -0.0086605825 0.10337107
0.0043975202 -0.01063609 0.10549602
0.0046297376 -0.012856865 0.10773565
0.0048425696 -0.015094397 0.11030903
0.004862621 0.01659532 0.084173384
0.0046759353 0.015426943 0.085895878
0.0045518309 0.014074729 0.087604495
0.0045502858 0.012619399 0.088380227
0.0046057906 0.011091222 0.089357371
0.004953392 0.0094033694 0.090242818
0.0051417382 0.0078642719 0.091269344
0.0051596069 0.0064224939 0.092784824
0.0054224936 0.0049089932 0.093814547
0.0054671659 0.0034582227 0.094957428
0.0053247032 0.001925266 0.096644493
0.0054993573 0.00017463833 0.098383881
0.0059515129 -0.0016993108 0.099736616
0.0060015291 -0.0033039449 0.10079039
0.0060854824 -0.0050867588 0.10158807
0.0060628921 -0.0068001618 0.10267707
0.0060932832 -0.0086247077 0.10390437
0.0061992953 -0.010898706 0.10544146
0.0065366305 -0.013217685 0.10778063
0.0061370682 0.016457661 0.084730675
0.006123211 0.015452945 0.086064731
0.0060551393 0.014087057 0.087406789
0.0060495604 0.012634678 0.088103252
0.006057812 0.011208486 0.08938354
0.0064390266 0.009792281 0.09030246
0.0066452615 0.0083162307 0.091637751
0.0066245752 0.0068975338 0.093209103
0.0067274345 0.0054309835 0.094620755
0.0069278395 0.003583831 0.096262393
0.0069343898 0.002139462 0.098116179
0.0074021581 0.00023916905 0.099640079
0.0076842794 -0.0015650009 0.10041153
0.0077629754 -0.0032918686 0.10140228
0.0078453881 -0.0050192368 0.10239762
0.0078530019 -0.0068198995 0.10343882
0.0079412541 -0.0089025684 0.10429572
0.0081654272 -0.011291466 0.10590359
0.0084467925 -0.013741192 0.107732
0.0087055316 -0.015830708 0.10932348
0.007511161 0.017312424 0.083545416
0.0075692426 0.016480919 0.085031102
0.0075520356 0.015461854 0.086355773
0.0075290267 0.014133462 0.087612668
0.0074849846 0.012660781 0.088120734
0.0075295296 0.011139008 0.089448087
0.0077266705 0.009799966 0.090431375
0.0080718159 0.0086157983 0.091616285
0.0079333397 0.0073367095 0.094141218
0.0083803103 0.0054946547 0.095138073
0.0085622382 0.0036939429 0.096763633
0.0087196209 0.0021011062 0.098973048
0.0090156629 0.00035450739 0.10020219
0.009308196 -0.001474939 0.1011182
0.0094689919 -0.0031820961 0.10221666
0.0095501853 -0.0050222441 0.10292974
0.0097348811 -0.0070029453 0.10390408
0.0099099108 -0.0091503179 0.1048995
0.010121506 -0.011634662 0.10615472
0.010301728 -0.014248987 0.10736166
0.0088991358 0.017341012 0.083659704
0.0089796859 0.016422586 0.085144999
0.0089827211 0.015382238 0.086417429
0.0089552561 0.014111489 0.087711493
0.0090160919 0.012611798 0.08849976
0.0090792552 0.011139706 0.089605185
0.0091494033 0.009714613 0.090434889
0.0092893171 0.0082385298 0.091490795
0.0096780027 0.0073708369 0.094415019
0.010104793 0.0053984703 0.095231344
0.010308084 0.0038112732 0.097701274
0.010428467 0.0022048925 0.099400781
0.010618416 0.00047183122 0.10034877
0.010855776 -0.0012119874 0.10164085
0.011161498 -0.0030468441 0.10278741
0.011327194 -0.0049720839 0.10337338
0.011575574 -0.0069950864 0.10457215
0.011784276 -0.0091828719 0.10559183
0.012006883 -0.011939871 0.10671671
0.012143745 -0.014541436 0.10777449
0.010263506 0.0174023 0.083771718
0.010338786 0.01647758 0.084932648
0.010281251 0.015392461 0.086172554
0.010410933 0.014101477 0.087394136
0.010504858 0.01269885 0.08823667
0.010601092 0.011246463 0.089457443
0.010647211 0.0098442848 0.090467115
0.010729119 0.0084441844 0.091490741
0.01136015 0.0070561226 0.093985612
0.011682176 0.0053282808 0.095712572
0.011900231 0.0039092611 0.097978855
0.012173885 0.0022571681 0.099626638
0.012429011 0.00057516129 0.10063254
0.012604714 -0.0011530782 0.10176235
0.012880965 -0.002940793 0.10290912
0.013144571 -0.0048206607 0.10388727
0.013393799 -0.0068932944 0.10524827
0.01359212 -0.0095497839 0.10658042
0.013874214 -0.012293132 0.1076311
0.014038432 -0.014506136 0.10842874
0.011692553 0.017704841 0.084463984
0.011755363 0.016602099 0.085166285
0.011676021 0.015450045 0.086233283
0.011890569 0.014096371 0.08748212
0.012016418 0.012691208 0.088193573
0.012054552 0.011299638 0.089282157
0.012122267 0.009901234 0.090272717
0.012196676 0.0084685211 0.091276785
0.012428951 0.0072050107 0.093798076
0.013207146 0.0052488606 0.095868327
0.013588495 0.0037611568 0.097887884
0.013911657 0.0022578848 0.099788477
0.014170703 0.00070569166 0.10093992
0.014416777 -0.0010030287 0.10167441
0.014679573 -0.0028215346 0.10315698
0.014898871 -0.0047485082 0.10415747
0.015215348 -0.0069714418 0.10624666
0.015511663 -0.010085873 0.10785092
0.015858338 -0.012494703 0.10912099
0.01307814 0.017753596 0.084521758
0.013127272 0.016719624 0.085476014
0.013140333 0.015472643 0.086222393
0.013390454 0.014083146 0.087801253
0.013512185 0.01269826 0.088467769
0.013519598 0.011337553 0.089412461
0.013604234 0.0099622253 0.090323113
0.013714414 0.0085274261 0.091395634
0.013895514 0.007138699 0.093239113
0.014744921 0.0051173591 0.095794514
0.015412617 0.0037426505 0.09836778
0.015760764 0.0022243754 0.099855746
0.016059458 0.00060468425 0.10124089
0.016148324 -0.0010472889 0.10191154
0.016446134 -0.0027816306 0.10348143
0.016848896 -0.0048189483 0.10527535
0.017231434 -0.0072362383 0.1076051
0.01758976 -0.010008746 0.10943964
0.014586688 0.017908902 0.084955441
0.014679423 0.016852934 0.085880464
0.014743253 0.015620061 0.086770274
0.014896553 0.014207139 0.087661072
0.015001896 0.012838381 0.08865041
0.015114781 0.011411207 0.089717244
0.015172568 0.0099730734 0.090646319
0.015295388 0.0085738314 0.092169205
0.015714184 0.0071719301 0.093867659
0.016211695 0.005324891 0.09567404
0.017067434 0.00370544 0.09843756
0.017481452 0.0021619119 0.099853163
0.017816624 0.00056843197 0.10121987
0.018044724 -0.0010393026 0.10234752
0.018341103 -0.0028606907 0.10396299
0.018909076 -0.0049989702 0.10639251
0.019646498 -0.0075901891 0.1097358
0.016159724 0.018203396 0.085780541
0.016244876 0.017052048 0.086583696
0.016295444 0.015722647 0.08732979
0.016479275 0.014383152 0.088169381
0.016575693 0.012957697 0.088923337
0.016735524 0.011518823 0.090266404
0.016717168 0.010005754 0.091081485
0.017005352 0.0085652322 0.092410768
0.017540264 0.0070874706 0.094546517
0.01781873 0.0054421968 0.095727992
0.018682389 0.0037773627 0.098270853
0.019185549 0.0021681311 0.099648088
0.019621213 0.00064649906 0.10126245
0.020076502 -0.0011205737 0.10296921
0.020495208 -0.0030569067 0.10495956
0.021152542 -0.0053261624 0.10772425
0.021958223 -0.0074901709 0.11076393
0.017742841 0.018386863 0.086522323
0.017836412 0.017168438 0.087229461
0.017862591 0.015807686 0.087745522
0.018057724 0.014494376 0.088749133
0.018213085 0.013048534 0.089543906
0.018529455 0.011546846 0.090476814
0.018370685 0.010000153 0.091158921
0.018520734 0.0084899487 0.092269259
0.01927385 0.0070166299 0.095004919
0.019638789 0.0054608107 0.096270636
0.020689466 0.0037967943 0.09878016
0.021116304 0.0021920221 0.10019429
0.021600455 0.00049663558 0.10168498
0.022138933 -0.0015100279 0.10357259
0.023050118 -0.0035738316 0.1062195
0.023474505 -0.0054732881 0.10904537
0.019191934 0.018417168 0.08654995
0.019446183 0.017183647 0.087536563
0.01956695 0.015850595 0.088218585
0.019758753 0.014492089 0.089000374
0.019919777 0.012934817 0.089516883
0.020146347 0.011381069 0.090355021
0.020043789 0.0098802569 0.091199813
0.020174034 0.0084335518 0.092361197
0.020950057 0.0069509848 0.095119223
0.021381452 0.0054787177 0.096432802
0.022520004 0.0037408514 0.098922985
0.022971436 0.0020988104 0.10045629
0.023595682 0.00025088592 0.10217529
0.024372266 -0.001729816 0.1043481
0.025169623 -0.0035882434 0.10710749
0.025925297 -0.0056204843 0.11040507
0.020640342 0.018335142 0.086432723
0.021011017 0.017117982 0.0875658
0.021342776 0.015729069 0.08832971
0.021459917 0.014369469 0.089158547
0.021495667 0.012891346 0.089488576
0.021673757 0.011356233 0.090156359
0.021627714 0.0097863988 0.090990482
0.021943859 0.0083476836 0.092762441
0.02246465 0.00684491 0.094687675
0.023103189 0.005278018 0.095971098
0.024243582 0.0036717032 0.098730532
0.025232123 0.0019335356 0.10159233
0.025667088 8.1902682e-05 0.10286139
0.026449029 -0.0017113602 0.10502299
0.027412915 -0.0036197215 0.10864683
0.022284506 0.018249713 0.086672636
0.022550958 0.016972995 0.087432861
0.022885251 0.0156494 0.088285039
0.023025339 0.01427389 0.088950676
0.023050449 0.012824676 0.089353393
0.023283262 0.011372067 0.090241378
0.024026473 0.0098865579 0.092017276
0.024137973 0.0083892978 0.093415631
0.024452306 0.0066695972 0.094629697
0.025698256 0.0051816542 0.097175988
0.026584063 0.0036787848 0.099642935
0.027718568 0.001754203 0.10276042
0.028158685 0.00015243607 0.10442379
0.028672269 -0.0016301417 0.10641072
0.029659563 -0.0036750555 0.11004366
0.023849196 0.018121359 0.086647155
0.024181528 0.016903759 0.087570434
0.02443716 0.015558174 0.088333259
0.024546792 0.014172482 0.088803987
0.024637515 0.01276449 0.089368145
0.025015198 0.011411498 0.090353879
0.025614999 0.010055504 0.091627585
0.025859027 0.0086083384 0.092587021
0.0262853 0.0069882716 0.094287664
0.027615221 0.0053372386 0.097398408
0.02880928 0.0036434547 0.10089496
0.030200221 0.0018640919 0.10397564
0.030577802 0.00017841071 0.10599419
0.030973929 -0.0015097382 0.10797246
0.031809058 -0.0034910433 0.11065735
0.025300966 0.01803048 0.086341769
0.025710701 0.016802062 0.087478988
0.0259818 0.015454748 0.08831808
0.026092206 0.01410728 0.088758466
0.026186268 0.012667 0.089265262
0.026569161 0.011328208 0.089780942
0.026878172 0.010025955 0.090639104
0.027234831 0.008622981 0.091787234
0.027627426 0.0070630925 0.093142025
0.029176954 0.0054858409 0.096879815
0.031200247 0.0036988966 0.10223896
0.032233218 0.0019906818 0.1051813
0.032573018 0.00027135458 0.10670353
0.033158646 -0.0013228678 0.10896239
0.026834393 0.017919736 0.086439374
0.027198872 0.016743339 0.08741908
0.027525598 0.015419054 0.088090144
0.027798996 0.014127376 0.08888265
0.028006774 0.012706131 0.089148492
0.028128492 0.011308533 0.089575338
0.028312381 0.0099752446 0.090292642
0.028726451 0.008616074 0.091647178
0.030050932 0.0073323227 0.094881187
0.030869507 0.005597 0.097085349
0.03361911 0.0036417205 0.1036362
0.034340534 0.0021538886 0.10647413
0.0348622 0.000469819 0.108307
0.035489594 -0.0012878969 0.11047865
0.027943421 0.017747737 0.085502768
0.028672878 0.016722963 0.087288792
0.029062272 0.015454941 0.088075742
0.029316387 0.014097967 0.088518083
0.02944466 0.012647789 0.088820378
0.029572358 0.011254597 0.089354972
0.029691199 0.0099036467 0.089967979
0.030297784 0.0086330122 0.091798721
0.031577343 0.0073709159 0.094722767
0.032244764 0.0057218472 0.096348936
0.036312218 0.0038031535 0.10645584
0.036905842 0.0020149559 0.10821644
0.03722544 0.00018087482 0.10948116
0.038135814 -0.001977102 0.11077874
0.028796314 0.017468103 0.083969874
0.029788617 0.016592495 0.086287004
0.030313259 0.0153068 0.087403163
0.030704928 0.014034221 0.088214452
0.030863518 0.012586446 0.08855615
0.031041439 0.01121966 0.089210185
0.031432359 0.0099182334 0.090407208
0.031766926 0.0086190588 0.091399908
0.032732665 0.0072332288 0.093628037
0.034926135 0.005400363 0.098488808
0.038864946 0.0037180522 0.10751823
0.039308053 0.0018922214 0.10911031
0.039900064 -0.00021525879 0.11019682
0.040278541 -0.0019607944 0.11105981
0.030618974 0.016275513 0.084717169
0.031365816 0.015070465 0.086196954
0.031916828 0.013794867 0.087183815
0.032188239 0.012419154 0.088034637
0.032427479 0.011034307 0.088846147
0.032881669 0.0096956175 0.090152266
0.033359862 0.008384563 0.091477628
0.034306432 0.0070517175 0.093750241
0.039112839 0.0050202641 0.10312225
0.040789607 0.003626607 0.10771881
0.041465226 0.0017325962 0.10952402
0.041933162 -0.00034631631 0.11031371
0.042665427 -0.0020814925 0.11114967
0.032230064 0.014877586 0.084313703
0.032860142 0.013564366 0.085557751
0.033576821 0.012309596 0.087569485
0.033970146 0.01084485 0.088624038
0.034327968 0.0095058406 0.089781356
0.034847933 0.0082597469 0.091155437
0.036940845 0.006770509 0.095802024
0.041193907 0.0049741267 0.10399377
0.042501006 0.003681544 0.10754675
0.043208017 0.0018336863 0.10897708
0.043782965 -0.00027779063 0.10991138
0.04410591 -0.0022067268 0.11028451
