ply
format ascii 1.0
comment Automatically gnerated by model-converter
element vertex 764
property float x
property float y
property float z
element face 0
property list uchar int vertex_indices
end_header
-0.02939833 0.018380656 0.088380026
-0.029904395 0.017024318 0.089964738
-0.030022719 0.015458647 0.090486154
-0.030162273 0.013823105 0.090855248
-0.030443359 0.012205445 0.091623242
-0.030934333 0.010860862 0.092707592
-0.031311081 0.0095720303 0.093728011
-0.031681889 0.0083287759 0.094594707
-0.032542796 0.0071933209 0.096226327
-0.033643456 0.0063174621 0.098976714
-0.034862306 0.0047809426 0.10196914
-0.035331831 0.002996144 0.10300094
-0.035478739 0.0012097854 0.1031664
-0.035574888 -0.00060475003 0.10347978
-0.035851295 -0.0025975599 0.10417719
-0.036379555 -0.004760073 0.10561979
-0.037143544 -0.0071082813 0.10833846
-0.028422687 0.01857624 0.089586
-0.028696083 0.017226527 0.090808166
-0.028797021 0.015613238 0.091162252
-0.028931589 0.013956001 0.091490631
-0.029289762 0.012384613 0.092350545
-0.029735146 0.011010553 0.093378703
-0.030233181 0.0098267042 0.094735757
-0.030816554 0.0086051542 0.095858216
-0.03151789 0.0074734624 0.097538305
-0.032499928 0.0064167775 0.10000596
-0.033479609 0.0046431619 0.10254261
-0.033923713 0.0028530511 0.1037621
-0.034107172 0.0011268063 0.10397604
-0.034254404 -0.00080176084 0.10455387
-0.034595822 -0.0028602797 0.10543695
-0.035024752 -0.0050960292 0.1067281
-0.035619023 -0.0073145328 0.10840492
-0.026665831 0.018556383 0.088520057
-0.02715945 0.017353631 0.090422583
-0.027515989 0.015638125 0.091668658
-0.027655076 0.014010132 0.092188269
-0.028004336 0.012612064 0.093102038
-0.02833515 0.01118248 0.093996043
-0.02877704 0.009864701 0.095226991
-0.029381768 0.0087248853 0.0964264
-0.030219505 0.0076368288 0.098679105
-0.031075057 0.0063917294 0.10096033
-0.031848002 0.004576743 0.10290627
-0.032413039 0.0026651029 0.1044722
-0.032584065 0.00085169023 0.1052587
-0.032782032 -0.0010764862 0.10571255
-0.033158568 -0.003013879 0.10660661
-0.033570318 -0.0053144315 0.10790777
-0.033905121 -0.0074067106 0.10903713
-0.025007211 0.01856949 0.087952005
-0.025599984 0.017457354 0.090077559
-0.026233766 0.01587349 0.092215896
-0.026378963 0.014171631 0.093003285
-0.026927122 0.012942587 0.094472393
-0.027181359 0.011448825 0.09516158
-0.02749777 0.010014205 0.096042752
-0.027971678 0.0087995688 0.097259365
-0.028704374 0.0076279275 0.099240988
-0.029523835 0.0063405821 0.10189606
-0.030208758 0.0045689882 0.10333848
-0.030675321 0.0026749253 0.1047221
-0.031011298 0.00062159185 0.10609226
-0.031255181 -0.001323843 0.1069194
-0.03155105 -0.0031177523 0.10761101
-0.031992608 -0.0050266862 0.1086469
-0.032284221 -0.0072155031 0.10982856
-0.023492574 0.018580719 0.08790423
-0.024141333 0.017535799 0.090228541
-0.024856922 0.01613577 0.092366395
-0.024900662 0.014587635 0.093456315
-0.025366032 0.013000291 0.09471411
-0.025598395 0.011503349 0.095504403
-0.026135758 0.010116704 0.096929098
-0.026569279 0.0089204386 0.098356433
-0.027128816 0.007518391 0.099638962
-0.02775841 0.0061737161 0.10198686
-0.028371127 0.0045592782 0.10314431
-0.02868866 0.0025878007 0.10451278
-0.029403959 0.00061422519 0.1064041
-0.029631645 -0.0014568998 0.10759693
-0.029951352 -0.0032712793 0.10848197
-0.030278629 -0.0050673789 0.10938263
-0.030474659 -0.006933928 0.11029407
-0.021894447 0.018512689 0.087540207
-0.022753199 0.017463576 0.09040573
-0.023213853 0.016203454 0.092420779
-0.023352537 0.014825627 0.093351215
-0.023642509 0.013127735 0.094613483
-0.023962543 0.011510269 0.095754703
-0.02462507 0.010184038 0.097546587
-0.025014291 0.0087634117 0.098617586
-0.025425234 0.0073909806 0.099900859
-0.025926193 0.0059553317 0.10146602
-0.026226638 0.0042373632 0.10268638
-0.02683819 0.0024517608 0.10434015
-0.027428646 0.00038002922 0.10620909
-0.027851635 -0.0014639903 0.10778996
-0.028095512 -0.0033820413 0.10871307
-0.02825326 -0.0051960028 0.1095954
-0.028467836 -0.007027278 0.11049071
-0.02023319 0.018306787 0.087094625
-0.021146051 0.017452423 0.090185088
-0.02153217 0.016275585 0.092229123
-0.021781641 0.014899918 0.09353589
-0.022049648 0.013424454 0.094706637
-0.022414414 0.011675929 0.096086818
-0.023067003 0.010205502 0.097902792
-0.023342751 0.0087666179 0.098868186
-0.023613556 0.0073016592 0.099907053
-0.023933785 0.0058301923 0.10112097
-0.024213647 0.0041314793 0.1021378
-0.024704979 0.0023125177 0.1039681
-0.025491354 0.0003744201 0.10608092
-0.026016741 -0.0014902491 0.1077991
-0.026261388 -0.0033191619 0.10887564
-0.026313415 -0.005169318 0.10982685
-0.026746129 -0.0068493925 0.1103651
-0.018884195 0.018079865 0.087262894
-0.01950821 0.017403766 0.089860725
-0.019917945 0.016286677 0.092157901
-0.02014373 0.014927192 0.093452916
-0.020471798 0.013502718 0.094965622
-0.020731117 0.011883876 0.096130918
-0.021280284 0.010262082 0.097818141
-0.021579507 0.0087075497 0.098916039
-0.021835632 0.0071382496 0.099768114
-0.022159631 0.0056866314 0.10093644
-0.022361765 0.0039640764 0.10169949
-0.022761812 0.0022931933 0.10338895
-0.023313561 0.00043860642 0.10547842
-0.024008601 -0.0013830995 0.10740948
-0.024333827 -0.0032177276 0.10852192
-0.024432633 -0.0051336998 0.10946409
-0.024427794 -0.0069528652 0.11027979
-0.017322264 0.018094402 0.086990046
-0.01774924 0.017217586 0.089322579
-0.018146887 0.016263521 0.091665203
-0.01845662 0.014947951 0.09345337
-0.018802448 0.013502985 0.095026242
-0.018997868 0.011841967 0.096044541
-0.019407623 0.010209642 0.097475064
-0.019851547 0.008735223 0.099083111
-0.02011915 0.0071370611 0.099966252
-0.020301102 0.0055346671 0.10066523
-0.020533332 0.003908029 0.10149514
-0.020762956 0.0023066685 0.10293584
-0.021026295 0.00063826058 0.10446392
-0.021531302 -0.0013039666 0.10604005
-0.022039151 -0.0031925105 0.10757012
-0.022457515 -0.0050218069 0.10844172
-0.022416844 -0.0068900851 0.10929261
-0.022313031 -0.0089065628 0.11006698
-0.015763581 0.017981614 0.086186196
-0.016135636 0.017096021 0.08863508
-0.01634017 0.01618953 0.090780807
-0.016697269 0.014896824 0.092926043
-0.017018791 0.013399794 0.094749967
-0.017166484 0.011805965 0.095970308
-0.017621796 0.010160489 0.09730945
-0.01810447 0.008776069 0.099048309
-0.018348304 0.0071658897 0.099907696
-0.018439529 0.0054989033 0.10046146
-0.018680646 0.0039185221 0.10128338
-0.018808751 0.0023436878 0.10231313
-0.019042759 0.00062200052 0.10372889
-0.019334766 -0.001213609 0.104816
-0.019557621 -0.0030987633 0.10587783
-0.019867591 -0.0049823998 0.10686128
-0.020133077 -0.007041809 0.10757053
-0.020351276 -0.0089414467 0.10877603
-0.020639216 -0.010926543 0.11053194
-0.014188448 0.018004415 0.085560774
-0.014551486 0.01698804 0.087871899
-0.014717883 0.015875795 0.089942403
-0.014915803 0.014764038 0.092493122
-0.015111807 0.013214946 0.0943101
-0.015174573 0.011612499 0.095711157
-0.015780489 0.010121414 0.097316509
-0.016312647 0.0086849543 0.098963516
-0.016499122 0.007142982 0.0998928
-0.0166205 0.0055650412 0.10041618
-0.016740793 0.0039871514 0.10092868
-0.016893581 0.0023370359 0.10169673
-0.017124652 0.00062372834 0.10284526
-0.017181595 -0.0011799278 0.1033341
-0.017260086 -0.003032302 0.10399918
-0.017329417 -0.0047319153 0.10489767
-0.017770704 -0.006860042 0.106111
-0.017941094 -0.0088237654 0.10733591
-0.01827807 -0.010874795 0.10929414
-0.018406105 -0.012479342 0.11097604
-0.012660645 0.018048899 0.085128471
-0.013034778 0.016898945 0.087549393
-0.013100841 0.015753609 0.089285758
-0.013127108 0.01461304 0.091871594
-0.01326087 0.01314952 0.093656398
-0.013128423 0.011661897 0.095199761
-0.01276097 0.010255527 0.096757027
-0.01322636 0.0088008698 0.098535573
-0.014560552 0.0072125687 0.099637349
-0.014466017 0.0057557177 0.10023807
-0.014748932 0.0040528605 0.10074588
-0.014873774 0.0022796817 0.10102993
-0.015032773 0.00057619939 0.10164286
-0.015117123 -0.0011156538 0.10231044
-0.015140746 -0.0029072407 0.10268221
-0.015248215 -0.0046560947 0.10351757
-0.015558841 -0.0066322478 0.10477933
-0.015755312 -0.008566758 0.10607806
-0.016092879 -0.010587843 0.10799465
-0.016481248 -0.012696691 0.11063511
-0.011215879 0.017974784 0.084750198
-0.011423583 0.016810108 0.086688571
-0.011538297 0.015619301 0.088706884
-0.011459459 0.014353683 0.090647449
-0.0113578 0.013163281 0.092882516
-0.011102302 0.011723194 0.093871182
-0.010599991 0.010400091 0.095122564
-0.0099813204 0.0091456526 0.096538755
-0.0093431547 0.0078982778 0.09798178
-0.012377501 0.0057415105 0.099388838
-0.012877451 0.0039588049 0.10014133
-0.013064966 0.0022439545 0.10063658
-0.013143728 0.00048782455 0.10089614
-0.013216346 -0.0012671026 0.10124278
-0.013388699 -0.0030218521 0.10187402
-0.01340783 -0.0047150366 0.10281141
-0.013525142 -0.0065391045 0.10372002
-0.013709211 -0.008349731 0.10504034
-0.0140431 -0.010406249 0.10701436
-0.014389306 -0.012471469 0.10962449
-0.0097938013 0.017879964 0.084225538
-0.0099383751 0.016755817 0.086315103
-0.010119124 0.015432779 0.088058402
-0.010062391 0.014085251 0.089733362
-0.0096598283 0.013005568 0.091472176
-0.0093342951 0.011746717 0.092666313
-0.0087872024 0.010442064 0.093590404
-0.0082600716 0.0090816763 0.094502486
-0.0074930335 0.0077922847 0.095510567
-0.0073051494 0.0062473778 0.096857133
-0.0089209735 0.0043453943 0.099125008
-0.01092967 0.0022808162 0.099842295
-0.011304337 0.00045692506 0.10026965
-0.011495166 -0.0013055148 0.10046321
-0.011561054 -0.0030760643 0.10116181
-0.011622396 -0.0047947735 0.10243269
-0.011695987 -0.0064597797 0.10340639
-0.01171472 -0.0082528694 0.1043294
-0.011949674 -0.010159857 0.10627633
-0.012297584 -0.012331987 0.10869239
-0.0083362333 0.01786194 0.084055414
-0.0084892669 0.016713555 0.085807805
-0.0087612271 0.015367796 0.087241809
-0.0086455125 0.014020271 0.088811715
-0.0082393329 0.012893423 0.090314401
-0.0078786062 0.011556828 0.09079663
-0.0074555228 0.010225999 0.091448955
-0.0071961796 0.0088078147 0.092074628
-0.0067782167 0.0072995367 0.093125942
-0.0066291164 0.0058338568 0.094208342
-0.0069294216 0.0041197509 0.09595748
-0.0076361525 0.0023535626 0.097805622
-0.0085215171 0.00060665373 0.099240109
-0.0092119572 -0.0011944414 0.099767528
-0.009757732 -0.0030922418 0.10065064
-0.0097525483 -0.004632111 0.10202416
-0.0097802002 -0.0063123641 0.10290092
-0.0098525578 -0.0081037388 0.10416396
-0.010117862 -0.010079857 0.10591857
-0.010292621 -0.012222131 0.1079095
-0.010526764 -0.014234314 0.11084162
-0.0069464883 0.017840669 0.083637305
-0.0069885606 0.016707833 0.08507316
-0.0072043803 0.015358078 0.086505555
-0.0072781195 0.013903269 0.087654916
-0.0071656791 0.012606621 0.088750616
-0.0065912516 0.01152302 0.089689466
-0.0065025874 0.009783024 0.08918152
-0.0062953481 0.0082126232 0.089856053
-0.0060926485 0.006817255 0.09109096
-0.0059579985 0.005315073 0.092241108
-0.0059148349 0.0036656253 0.093648866
-0.0062463033 0.0019487589 0.095350144
-0.0069455064 0.00019559995 0.097308651
-0.0073669232 -0.001560929 0.098934946
-0.0077630375 -0.0031422567 0.10052815
-0.0078447278 -0.0046298769 0.10179722
-0.007976659 -0.0063039705 0.10269203
-0.0080433547 -0.007971886 0.10398589
-0.0082599378 -0.010203983 0.10555168
-0.0084365644 -0.012277584 0.10746464
-0.008632347 -0.01449631 0.11071503
-0.0054893494 0.017887487 0.082973202
-0.0055217744 0.016705001 0.084359569
-0.0056901295 0.015347364 0.08566315
-0.0058475916 0.013922969 0.086580162
-0.0060047734 0.012421107 0.087324212
-0.0061152245 0.010977373 0.087263693
-0.0059122963 0.0095785456 0.087406526
-0.0058261246 0.007925493 0.087680407
-0.0057432372 0.006285872 0.088512875
-0.0054798893 0.0047797193 0.090001169
-0.0050570386 0.0029392161 0.091493746
-0.0052163461 0.0013848374 0.093041462
-0.0053768268 -0.000272315 0.095222883
-0.0056599992 -0.0017958493 0.098212381
-0.0060354569 -0.0034066574 0.10005727
-0.0061147607 -0.0048349369 0.10140052
-0.006234893 -0.0064977013 0.10232371
-0.0062340819 -0.0081048713 0.10376552
-0.0064047775 -0.010233978 0.10530099
-0.0065265652 -0.012262926 0.10739481
-0.0067117542 -0.014553374 0.11062863
-0.0040317989 0.016718132 0.083633485
-0.0042782321 0.015374833 0.085201244
-0.0044232616 0.014096957 0.0863721
-0.0045670285 0.01256838 0.087087318
-0.0045681712 0.011048886 0.086986596
-0.0046330925 0.0094507501 0.086608003
-0.0050530989 0.0077525219 0.086136659
-0.0049731403 0.0060770077 0.086445441
-0.0047530589 0.0044167917 0.087404326
-0.003762753 0.0024656437 0.090204167
-0.0038173778 0.00070776926 0.091418145
-0.0039653122 -0.00087551563 0.093418513
-0.0040165398 -0.0020903748 0.097713485
-0.004323326 -0.0036266393 0.099522183
-0.0044263851 -0.0050201672 0.10067337
-0.0044871849 -0.0065228598 0.10199551
-0.0045102503 -0.0082101664 0.10350905
-0.004567194 -0.010235383 0.10526982
-0.0046676588 -0.012326329 0.10764941
-0.0047473453 -0.014615227 0.11066485
-0.0022503069 0.016804424 0.08322496
-0.0026143328 0.0156988 0.085412577
-0.0029543903 0.014238134 0.086713061
-0.0030468999 0.012700964 0.087203736
-0.0030742673 0.011140772 0.087360392
-0.0030890518 0.0094774496 0.086732743
-0.0033071897 0.0075496822 0.085916993
-0.0033192277 0.0058929342 0.08574484
-0.0030703275 0.0043139644 0.086727734
-0.0014297544 0.0015199113 0.089615799
-0.0016253293 6.1023028e-05 0.090932871
-0.0018698601 -0.001455994 0.092546274
-0.0023586371 -0.0022507152 0.097092606
-0.002585696 -0.0036416681 0.099441829
-0.0026427938 -0.0051154131 0.10069214
-0.002706762 -0.0066362042 0.10184275
-0.0027681113 -0.0082306927 0.1035176
-0.0027898837 -0.010186447 0.10512377
-0.0027686698 -0.012378747 0.10755383
-0.0029081548 -0.014743857 0.1102792
-0.00085149678 0.016770446 0.083449361
-0.0011629094 0.015608403 0.08543805
-0.0014017291 0.014219429 0.087105796
-0.0015514516 0.01273931 0.087573374
-0.0015953539 0.011175555 0.087823525
-0.0015499615 0.0095896634 0.08774214
-0.0013808116 0.0074475355 0.086708551
-0.0014740005 0.0059109872 0.086303403
0.00024475593 0.0033142104 0.087767301
0.00063579927 0.0014047718 0.089593679
0.00032601571 7.4866257e-05 0.091357171
9.0079713e-05 -0.0012982571 0.093253493
-0.00071805137 -0.0023062093 0.096892427
-0.0008639103 -0.0036407934 0.099351764
-0.00090544454 -0.0051310925 0.10080111
-0.00091351891 -0.0067021653 0.10215054
-0.0010240439 -0.0083879487 0.10343876
-0.0010333187 -0.010274775 0.10566298
-0.0010138383 -0.012605642 0.10790173
-0.00090046239 -0.01504399 0.1105181
0.00057297182 0.016742278 0.083574022
0.00028407779 0.015551313 0.085654569
0.00015362504 0.014226142 0.087158392
-4.787786e-05 0.012697408 0.088102013
-7.74784e-05 0.011051539 0.088386262
0.0003484717 0.0090684074 0.088475913
0.00080577721 0.0072231159 0.088635671
0.0014836514 0.0051937286 0.088791969
0.0019542037 0.0033073828 0.089998881
0.0019025644 0.001837452 0.09114589
0.0019292497 0.00036650147 0.092347465
0.0015104373 -0.0010530102 0.094186957
0.00099158376 -0.0021861 0.097255476
0.00081579213 -0.0036943558 0.099235373
0.00080846466 -0.005166636 0.10082446
0.00077011886 -0.0067570906 0.10214395
0.00075010664 -0.008545743 0.10325099
0.00078403627 -0.010400154 0.10560256
0.00086979659 -0.012638061 0.10781573
0.0009776608 -0.015090382 0.11031186
0.0019686063 0.016713156 0.083772016
0.0017370774 0.015538114 0.085841288
0.0016077181 0.014209234 0.087493544
0.0014952839 0.012680788 0.088618701
0.0015019679 0.010878194 0.088973485
0.0019318739 0.0088846991 0.089424578
0.0022059789 0.0071000151 0.090337502
0.0026993872 0.0053775635 0.090780961
0.0029177309 0.0038929249 0.091763057
0.0030930175 0.0023557349 0.092718055
0.003097065 0.00092149854 0.093833382
0.0028331594 -0.00069411838 0.095417984
0.0026497883 -0.002038412 0.098139725
0.0025664288 -0.0035809257 0.099525466
0.0025602745 -0.0052384821 0.10067743
0.0024925947 -0.0068146141 0.10216409
0.0025398404 -0.0086385456 0.10317702
0.0026589754 -0.010501945 0.10537234
0.0027766676 -0.012718395 0.10764602
0.0028700179 -0.015133792 0.11000651
0.0033731292 0.016662156 0.083842494
0.0031740267 0.015468537 0.085806544
0.0030246912 0.014096944 0.087835058
0.0029384694 0.012580106 0.088692491
0.0030080009 0.010936139 0.089241075
0.0033354887 0.0091235315 0.089873294
0.0034761678 0.007413756 0.09112603
0.0037915966 0.0059163139 0.092151664
0.0039665541 0.0044842546 0.092983137
0.0040635139 0.0029475932 0.093967676
0.0041668738 0.0014617432 0.095141321
0.0040120327 -0.00018024755 0.096955113
0.0042023117 -0.001851207 0.098931655
0.0042488985 -0.0034708082 0.10015367
0.0042155056 -0.0051723729 0.10116495
0.0042739546 -0.0068311064 0.10230403
0.0043265493 -0.0086900648 0.10336642
0.0043817095 -0.01067533 0.10548146
0.0046298061 -0.012908512 0.10769983
0.0048581658 -0.015165954 0.11025165
0.0047519109 0.01661608 0.084230823
0.0045412195 0.015515596 0.086100096
0.004434024 0.014133242 0.087743429
0.0044282454 0.01266382 0.088505206
0.0044437499 0.011104298 0.089511536
0.0047523404 0.0094590609 0.090470923
0.0048853457 0.0079142551 0.09155038
0.0049599864 0.0064962019 0.093008031
0.0052283541 0.0049655394 0.094011538
0.0052580593 0.0035346472 0.095196113
0.0050946604 0.0020125311 0.096848853
0.0053390955 0.00020524003 0.098561059
0.0058970429 -0.0017124947 0.099803616
0.0059492328 -0.0033370589 0.10079128
0.0060488613 -0.0051136124 0.10162667
0.0060146003 -0.0068469575 0.10269211
0.0060817306 -0.0086680266 0.10389475
0.0061724627 -0.010945071 0.10542939
0.00651717 -0.013280238 0.1077409
0.0059871203 0.016502572 0.084850989
0.0059943274 0.015535614 0.086225157
0.0059321107 0.014126568 0.087540031
0.0059202515 0.01266074 0.088224413
0.0059142915 0.011197128 0.089460107
0.0062457708 0.0098052531 0.09044335
0.0064218782 0.0083479608 0.091864166
0.0063906071 0.0069501829 0.093399015
0.0065351905 0.005477735 0.094811484
0.0067422197 0.0036633026 0.096503156
0.0067636646 0.0022119586 0.098326678
0.0073467497 0.00023277187 0.099743967
0.0076295391 -0.0016253191 0.10044812
0.0077197341 -0.0033529549 0.10137154
0.0077949006 -0.0050907646 0.10239065
0.0077815964 -0.0068675088 0.10342417
0.0079181192 -0.0089470884 0.10430381
0.0081336632 -0.011345788 0.10589605
0.0083929406 -0.013802484 0.10770751
0.0088269798 -0.015924332 0.1091435
0.007362729 0.017356492 0.08359508
0.0074446285 0.016525484 0.085119612
0.0074248401 0.015501447 0.086476363
0.0074127104 0.014131972 0.087731526
0.0073590497 0.012656543 0.088222273
0.0074061767 0.011059324 0.089473709
0.0075800618 0.0097200284 0.090471312
0.0078769807 0.0085862189 0.091730788
0.0077422802 0.0073772025 0.09427134
0.0082191083 0.0055219057 0.09531256
0.0084307089 0.0037086212 0.096920627
0.0086286779 0.0020937139 0.099113432
0.0089679028 0.00029013124 0.10025631
0.0092702527 -0.0015436459 0.10111698
0.009437986 -0.0032736818 0.10213974
0.0095216353 -0.0051209627 0.10292449
0.0096550938 -0.0070522974 0.10404269
0.0098393507 -0.0091725203 0.10498783
0.010041808 -0.011675877 0.1061984
0.010191978 -0.01430273 0.10738614
0.0087527474 0.017388664 0.083689253
0.0088453014 0.016478413 0.085184194
0.0088621173 0.015403024 0.086502195
0.0088328201 0.014055739 0.087750842
0.0088891073 0.012510322 0.088505891
0.0089686867 0.011000991 0.089569971
0.0090371125 0.0095695729 0.090377639
0.009181379 0.0081005466 0.09144033
0.0095095606 0.0073625681 0.094451311
0.0099741046 0.005369678 0.095356944
0.010210265 0.0037655444 0.097763933
0.010361038 0.002143511 0.099484002
0.010587338 0.00038367704 0.10031667
0.010816129 -0.0013511327 0.10155761
0.011129943 -0.0031792484 0.10265827
0.011281102 -0.00506003 0.10335646
0.011494043 -0.0070369659 0.10466526
0.011686984 -0.0092207054 0.10571497
0.011884098 -0.01198449 0.10679711
0.011992336 -0.01458789 0.10786001
0.010117581 0.017460296 0.083792008
0.010197928 0.01657123 0.085009592
0.010154508 0.015452127 0.086321096
0.010288127 0.014055774 0.087450718
0.010406537 0.012606715 0.088217249
0.010490362 0.01110341 0.089383915
0.010568087 0.009710663 0.090384849
0.010649282 0.008277545 0.091396017
0.011236633 0.0069624405 0.093944592
0.011563658 0.0052540488 0.095740194
0.011835043 0.0037951897 0.098020583
0.012117952 0.002172884 0.099652392
0.012392217 0.0004917163 0.10053585
0.012574339 -0.0012749964 0.1016824
0.012846213 -0.0030498985 0.1028415
0.013102737 -0.0049096082 0.10390548
0.013353381 -0.006942114 0.10531537
0.013466968 -0.0095919908 0.10667187
0.013711092 -0.012349193 0.10773409
0.013861621 -0.014555376 0.10855013
0.011549711 0.017795713 0.084458843
0.011619648 0.016741656 0.085267773
0.01154328 0.015548758 0.086453274
0.011770894 0.014099106 0.087556412
0.011927562 0.012646812 0.088200626
0.011959 0.011184767 0.089214446
0.012052758 0.0098057815 0.090189979
0.012126965 0.0083522697 0.091192618
0.012318061 0.0070989624 0.093679917
0.013122079 0.005132204 0.095838728
0.013518914 0.0036522316 0.097908079
0.013859189 0.0021603527 0.099771927
0.014127048 0.00060220092 0.10086347
0.014385532 -0.0010938201 0.10164457
0.014638809 -0.002896815 0.1031463
0.014877699 -0.0048260031 0.10419296
0.015159857 -0.0070146369 0.10625815
0.015341476 -0.01018823 0.10794352
0.015688209 -0.012551377 0.1092268
0.012939167 0.017839592 0.084528965
0.012981042 0.016901363 0.085649048
0.013008678 0.015644687 0.086520036
0.013262732 0.01410383 0.087889229
0.013413349 0.01267855 0.088471266
0.013436208 0.011283805 0.089396347
0.013526031 0.0098946365 0.090279043
0.013650865 0.0084648921 0.091358783
0.01382144 0.0070783873 0.093194599
0.01465506 0.0049992334 0.095738928
0.015330556 0.0036292956 0.098322503
0.015698629 0.0021330949 0.09981668
0.016012389 0.00053534442 0.10125034
0.016106164 -0.0010957352 0.10193413
0.016414715 -0.0028543929 0.1034979
0.016807543 -0.0048564404 0.10529042
0.017205756 -0.007302507 0.10761321
0.017503401 -0.010095158 0.10947417
0.014465678 0.017972134 0.084944742
0.014550781 0.01702094 0.086030329
0.014596248 0.015815583 0.086986564
0.014788496 0.014261317 0.087771557
0.014904627 0.012883183 0.088741154
0.015014033 0.011411038 0.089742368
0.015079842 0.0099300727 0.090660428
0.015210039 0.0085394596 0.092196511
0.015622214 0.0071626709 0.093902956
0.016149161 0.0052339013 0.095727992
0.016987152 0.0036416255 0.098450492
0.017421169 0.0021245231 0.099914417
0.017740082 0.00056061236 0.1013125
0.017986309 -0.0010468875 0.10242487
0.018286701 -0.0028892865 0.10397948
0.018861125 -0.005009059 0.10645211
0.019611245 -0.0076739055 0.10971408
0.016085369 0.01822641 0.085690846
0.016156649 0.017140557 0.086633553
0.01619492 0.015823581 0.087485475
0.016354987 0.014493139 0.088336704
0.016478641 0.013049128 0.08909864
0.016618593 0.011555287 0.090351309
0.016626949 0.010003383 0.091146556
0.016923298 0.0085769721 0.092508654
0.017447424 0.0070825992 0.094643359
0.017742937 0.0054255654 0.095840278
0.018598604 0.0037983652 0.098409161
0.019130325 0.0022139824 0.099795245
0.01954227 0.00069588749 0.10140469
0.020008069 -0.0011145037 0.10305177
0.020425997 -0.0030989577 0.10496089
0.021116122 -0.0053604849 0.10778527
0.021920211 -0.007571223 0.11074416
0.017698858 0.018357053 0.086335602
0.017777561 0.017222091 0.087224118
0.017777961 0.015902788 0.087877825
0.017945913 0.014622223 0.088943531
0.018104496 0.013199116 0.089811958
0.018419267 0.011689099 0.090697323
0.018288701 0.010042319 0.091290894
0.01844036 0.0085192202 0.092383152
0.019157586 0.0070388494 0.095113349
0.019547884 0.0055012196 0.096436063
0.020608569 0.0038836651 0.098998609
0.021036008 0.0022957114 0.10039352
0.021526716 0.00057276393 0.10188961
0.02206387 -0.0015247607 0.10365743
0.022960816 -0.0036217417 0.10628576
0.02342665 -0.0054986083 0.1090948
0.019175927 0.018352633 0.086364853
0.019409135 0.017235655 0.08751329
0.019503445 0.015966698 0.08833201
0.019699097 0.01463476 0.089225417
0.019853652 0.013068517 0.089783914
0.020050091 0.011529963 0.090636544
0.01995344 0.0099601153 0.091383075
0.02009463 0.0084796188 0.092508008
0.020838238 0.0069827299 0.095228411
0.021306293 0.00555289 0.096624518
0.022436003 0.0038243605 0.099100026
0.022887771 0.0022048422 0.10072071
0.023506161 0.00030948883 0.10234189
0.024275866 -0.0017237047 0.104478
0.025121576 -0.0036009483 0.10727171
0.025865403 -0.0056202992 0.1104681
0.020641965 0.01826079 0.086317676
0.020994983 0.017158559 0.087572307
0.021334966 0.015825838 0.088468015
0.021444946 0.014492998 0.089389756
0.021450485 0.012994469 0.089746113
0.021601138 0.011463203 0.090439983
0.021545154 0.0098807259 0.091217111
0.021861469 0.0084029188 0.092928122
0.022372735 0.0068893117 0.094841595
0.023052024 0.0053140987 0.096141552
0.024182157 0.0037627299 0.09898751
0.025108578 0.0020439129 0.10184188
0.025577488 0.00014152383 0.10308903
0.026310262 -0.0016366544 0.10516814
0.027306163 -0.003578908 0.10870919
0.022287645 0.018179454 0.086543143
0.022553229 0.016982235 0.08744406
0.022880494 0.015724096 0.088418633
0.02302233 0.014355132 0.089148735
0.02303638 0.012908508 0.089605488
0.023238574 0.011461198 0.090496217
0.024068851 0.0099729952 0.092317075
0.024121773 0.0084125667 0.093578865
0.024428369 0.0066655063 0.094758501
0.025679685 0.0052925182 0.097431498
0.026530664 0.0037951172 0.099910101
0.027619887 0.001848613 0.10303008
0.028004384 0.00028303199 0.1047183
0.028582622 -0.0015339993 0.10668414
0.029569909 -0.0036356211 0.1102005
0.023859544 0.018041816 0.086544615
0.024189571 0.016913279 0.08760834
0.024431475 0.015625949 0.088474885
0.024548332 0.014253845 0.089011567
0.024649 0.012860444 0.089638538
0.025021084 0.011546127 0.090648214
0.025668079 0.010130522 0.091871691
0.025912418 0.0086278745 0.092765431
0.026313361 0.0069633032 0.094372752
0.027617288 0.005433705 0.097606306
0.028767322 0.0036991634 0.10115559
0.030085121 0.0019290332 0.10415317
0.030506959 0.00028082217 0.10625526
0.030879761 -0.0013888814 0.1082757
0.031712548 -0.003414024 0.11085142
0.025326965 0.017930398 0.086289363
0.025725517 0.016811547 0.087558751
0.025982653 0.015537826 0.088504913
0.026097382 0.014215386 0.089018747
0.026208161 0.012786456 0.089573823
0.026651386 0.011475843 0.090130334
0.026962691 0.01013514 0.090923545
0.027304595 0.0086948918 0.092004639
0.0276839 0.0070629876 0.093282317
0.029204622 0.0055242819 0.0971716
0.031189751 0.0036371762 0.10242707
0.032198544 0.0019712539 0.10535208
0.032551872 0.00031522516 0.10696382
0.033080979 -0.0012844282 0.10925031
0.026875365 0.017890295 0.08647076
0.027223109 0.016772805 0.087520145
0.027559715 0.015529744 0.088324169
0.027842977 0.014308668 0.089239722
0.02814702 0.012888568 0.089689697
0.028242435 0.011487319 0.09000548
0.028409447 0.010128795 0.090637659
0.028790496 0.0086907509 0.091891495
0.030197012 0.0073746224 0.095162233
0.030918286 0.005574382 0.097339041
0.033614954 0.0034595675 0.10367656
0.034366815 0.0020839804 0.10661734
0.034822918 0.00047004381 0.10843676
0.035461687 -0.0011355115 0.11072547
0.028022156 0.017723402 0.085593663
0.028701624 0.016779282 0.087423928
0.02911409 0.015595626 0.088343675
0.029459176 0.014270522 0.089001303
0.029612185 0.012815323 0.089362964
0.029710805 0.011434905 0.089833679
0.029801033 0.010074909 0.090366656
0.030395145 0.0087257416 0.092132503
0.031725167 0.0073478161 0.095001901
0.032315956 0.0055754924 0.096589486
0.036440786 0.0035301175 0.10632197
0.036989406 0.0018740994 0.10814101
0.037222148 0.00027888059 0.10962872
0.038097761 -0.0015272819 0.11136711
0.028937771 0.017416422 0.084136372
0.029862699 0.016637234 0.086487559
0.03039726 0.015409482 0.087716641
0.03085679 0.014136141 0.088641241
0.031009596 0.012684262 0.089003764
0.03118449 0.011334971 0.089640088
0.031558812 0.010013285 0.090756903
0.031868412 0.0086928572 0.091727167
0.032837836 0.0071713373 0.093869182
0.034993032 0.0049623954 0.098578617
0.039070716 0.0033311354 0.10715519
0.039449196 0.0017980213 0.10902216
0.039959422 -2.8221533e-05 0.11049756
0.040255828 -0.0015726182 0.11165568
0.0307493 0.016289392 0.084957485
0.031463796 0.015118836 0.086492345
0.032016683 0.013829076 0.087482525
0.032299291 0.01245461 0.088355718
0.032543017 0.011059593 0.089161193
0.032968456 0.0096599469 0.090376926
0.033414635 0.0082994427 0.091678274
0.034375572 0.0068379516 0.09389666
0.039432375 0.00418413 0.10319408
0.041011608 0.0031699637 0.10735297
0.041651373 0.0016273004 0.10945843
0.04200873 -0.00024809059 0.1106435
0.042630034 -0.0018375078 0.11175074
0.032360394 0.014897718 0.08458892
0.032982321 0.01358582 0.085821169
0.033693616 0.012307821 0.087838458
0.034084651 0.010759596 0.088822951
0.034381067 0.0093652249 0.089928451
0.034851069 0.0080538345 0.091251391
0.037066231 0.0062079045 0.095849248
0.041350992 0.004016923 0.10352392
0.042709143 0.0030683097 0.10713304
0.04336043 0.0015004813 0.10885561
0.043837485 -0.00039429647 0.11021026
0.044033263 -0.0022212287 0.11092175
