-3.691620799999999897e-02 1.214502699999999921e-02 1.999463300000000054e-01
-3.691620799999999897e-02 1.214502699999999921e-02 1.999463300000000054e-01
-3.691620799999999897e-02 1.214502699999999921e-02 1.999463300000000054e-01
-3.691620799999999897e-02 1.214502699999999921e-02 1.999463300000000054e-01
-3.698652200000000084e-02 1.155583699999999936e-02 1.998601000000000127e-01
-3.707150399999999818e-02 1.086687899999999943e-02 1.994738699999999976e-01
-3.729227599999999920e-02 1.029715399999999934e-02 1.991967099999999991e-01
-3.726167200000000262e-02 9.664921099999999529e-03 1.983852100000000063e-01
-3.729416800000000254e-02 8.957030300000000042e-03 1.975241899999999884e-01
-3.718044200000000105e-02 8.185799199999999748e-03 1.964114899999999941e-01
-3.737090199999999751e-02 7.501225499999999990e-03 1.957769099999999984e-01
-3.746617599999999687e-02 6.914142100000000325e-03 1.947028799999999948e-01
-3.759760399999999975e-02 6.353381600000000164e-03 1.938037999999999983e-01
-3.769369799999999771e-02 5.762680400000000196e-03 1.928467299999999940e-01
-3.783070300000000025e-02 5.153666299999999992e-03 1.917744000000000115e-01
-3.797803400000000079e-02 4.448039899999999859e-03 1.908996400000000093e-01
-3.813022700000000265e-02 3.924229599999999769e-03 1.902729700000000135e-01
-3.818093999999999655e-02 3.424689199999999926e-03 1.895861500000000088e-01
-3.825788900000000325e-02 2.879438900000000096e-03 1.893095099999999864e-01
-3.832374100000000144e-02 2.401456900000000037e-03 1.891526000000000041e-01
-3.835389799999999738e-02 1.968714199999999949e-03 1.893740899999999949e-01
-3.835172199999999781e-02 1.426848000000000092e-03 1.896481499999999876e-01
-3.828224200000000105e-02 1.079905199999999996e-03 1.902381499999999948e-01
-3.821858799999999778e-02 7.258554700000000416e-04 1.908790800000000065e-01
-3.822083400000000214e-02 3.972362900000000097e-04 1.912957899999999933e-01
-3.811880899999999656e-02 1.014148700000000050e-05 1.916686300000000065e-01
-3.803100799999999809e-02 -3.889424000000000050e-04 1.920470099999999902e-01
-3.793641200000000269e-02 -7.412793300000000522e-04 1.925550699999999948e-01
-3.784375999999999712e-02 -1.009093499999999923e-03 1.932051499999999922e-01
-3.781673700000000304e-02 -1.375803099999999913e-03 1.934836699999999965e-01
-3.774455599999999855e-02 -1.778109599999999927e-03 1.938518700000000095e-01
-3.761983700000000319e-02 -2.057604499999999940e-03 1.946923999999999877e-01
-3.752392200000000122e-02 -2.407657000000000113e-03 1.950305300000000075e-01
-3.763822099999999948e-02 -2.221132599999999999e-03 1.965638799999999964e-01
-3.762508600000000203e-02 -2.636499699999999852e-03 1.966321600000000003e-01
-3.760027099999999761e-02 -3.100057399999999949e-03 1.966889800000000132e-01
-3.763177999999999662e-02 -3.458657799999999803e-03 1.967462299999999942e-01
-3.771879200000000099e-02 -3.802479899999999975e-03 1.968923099999999871e-01
-3.780940499999999732e-02 -4.398497799999999749e-03 1.966900500000000052e-01
-3.795871099999999915e-02 -4.912225999999999572e-03 1.965902099999999875e-01
-3.789093000000000322e-02 -5.968996300000000386e-03 1.953138600000000058e-01
-3.790528700000000278e-02 -6.398384000000000016e-03 1.952778000000000014e-01
-3.804941800000000152e-02 -6.918995199999999901e-03 1.950203000000000075e-01
-3.813083099999999698e-02 -7.374071999999999745e-03 1.949007199999999995e-01
-3.825991200000000009e-02 -8.034615800000000432e-03 1.943142700000000112e-01
-3.845393999999999896e-02 -8.492384999999999864e-03 1.939015099999999991e-01
-3.857750399999999857e-02 -8.893776699999999744e-03 1.936583500000000069e-01
-3.874229299999999709e-02 -9.221986899999999598e-03 1.934846600000000028e-01
-3.897839799999999744e-02 -9.641165800000000424e-03 1.930365599999999959e-01
-3.911889300000000180e-02 -9.881642600000000581e-03 1.928549999999999986e-01
-3.930665900000000074e-02 -1.017067900000000018e-02 1.925489200000000123e-01
-3.940840400000000104e-02 -1.030794500000000065e-02 1.924114100000000049e-01
-3.945976100000000292e-02 -1.040007199999999979e-02 1.922812499999999869e-01
-3.957169099999999912e-02 -1.051980100000000050e-02 1.920287300000000086e-01
-3.968089799999999917e-02 -1.060028300000000027e-02 1.918281599999999976e-01
-3.980711499999999708e-02 -1.062462500000000039e-02 1.915516100000000110e-01
-3.991045399999999799e-02 -1.064449999999999945e-02 1.912719499999999961e-01
-4.000781800000000055e-02 -1.069088800000000082e-02 1.909359700000000104e-01
-4.011428400000000005e-02 -1.075381000000000080e-02 1.906527699999999992e-01
-4.019334499999999838e-02 -1.081373300000000072e-02 1.904248900000000133e-01
-4.024896800000000302e-02 -1.085671600000000063e-02 1.901523300000000083e-01
-4.031341499999999828e-02 -1.091137300000000025e-02 1.898401100000000064e-01
-4.034981099999999932e-02 -1.094347900000000075e-02 1.896246500000000057e-01
-4.039260000000000073e-02 -1.095417100000000039e-02 1.895061600000000068e-01
-4.042162700000000164e-02 -1.094382799999999920e-02 1.894521299999999964e-01
-4.044360999999999789e-02 -1.086506700000000082e-02 1.894439199999999879e-01
-4.049890500000000171e-02 -1.081830899999999991e-02 1.894663699999999951e-01
-4.048774799999999702e-02 -1.061913599999999951e-02 1.896760899999999916e-01
-4.048824300000000015e-02 -1.049511000000000020e-02 1.898189000000000126e-01
-4.049176399999999953e-02 -1.026372000000000048e-02 1.900425900000000112e-01
-4.053764399999999768e-02 -1.008559200000000086e-02 1.900566099999999869e-01
-4.061100299999999969e-02 -9.816916700000000856e-03 1.902633800000000097e-01
-4.075018700000000021e-02 -9.564920299999999861e-03 1.903569800000000090e-01
-4.089880700000000230e-02 -9.216194000000000469e-03 1.905238900000000013e-01
-4.114130500000000301e-02 -9.003914000000000015e-03 1.905008599999999941e-01
-4.135768900000000303e-02 -8.715019600000000269e-03 1.906416700000000131e-01
-4.158559099999999814e-02 -8.602894800000000092e-03 1.906366600000000133e-01
-4.178541899999999726e-02 -8.433841200000000149e-03 1.908031400000000100e-01
-4.197736800000000101e-02 -8.340448099999999906e-03 1.907286499999999996e-01
-4.215511300000000100e-02 -8.272426200000000326e-03 1.906241899999999989e-01
-4.232619299999999807e-02 -8.278414600000000637e-03 1.904087499999999877e-01
-4.245823199999999853e-02 -8.321897099999999575e-03 1.902305800000000102e-01
-4.261365899999999818e-02 -8.358497200000000391e-03 1.899626000000000092e-01
-4.275366700000000214e-02 -8.356988399999999359e-03 1.897532799999999964e-01
-4.288962100000000277e-02 -8.394907199999999264e-03 1.895047900000000063e-01
-4.295847199999999755e-02 -8.437072900000000195e-03 1.894075400000000131e-01
-4.301386000000000098e-02 -8.417970500000000050e-03 1.893399500000000069e-01
-4.305415600000000315e-02 -8.478764399999999882e-03 1.892636600000000002e-01
-4.307718900000000184e-02 -8.498787900000000575e-03 1.891944899999999929e-01
-4.307856000000000185e-02 -8.511267600000000516e-03 1.891274599999999972e-01
-4.308839500000000156e-02 -8.519643000000000355e-03 1.889893699999999899e-01
-4.309924300000000236e-02 -8.475477800000000630e-03 1.889115100000000047e-01
-4.312681000000000153e-02 -8.463615600000000058e-03 1.888360099999999986e-01
-4.314584700000000106e-02 -8.478099500000000829e-03 1.887963900000000084e-01
-4.317246699999999909e-02 -8.392369400000000354e-03 1.887336099999999961e-01
-4.324506599999999867e-02 -8.315444899999999834e-03 1.886348899999999995e-01
-4.325165200000000154e-02 -8.266153700000000715e-03 1.886908900000000000e-01
-4.321276000000000284e-02 -8.218328500000000175e-03 1.888741399999999959e-01
-4.316467000000000220e-02 -8.164370400000000791e-03 1.889926000000000106e-01
-4.310641400000000262e-02 -8.092078399999999214e-03 1.891345100000000057e-01
-4.303875599999999746e-02 -8.033615500000000631e-03 1.892764899999999917e-01
-4.296971100000000071e-02 -7.984224700000000507e-03 1.895841699999999963e-01
-4.288532600000000139e-02 -7.945653100000000038e-03 1.899237199999999903e-01
-4.283917699999999912e-02 -7.902898800000000487e-03 1.901974800000000021e-01
-4.282201100000000010e-02 -7.845250899999999666e-03 1.904606500000000091e-01
-4.282027900000000276e-02 -7.809107200000000096e-03 1.907563700000000084e-01
-4.285848899999999961e-02 -7.780914199999999954e-03 1.908532099999999954e-01
-4.282119499999999940e-02 -7.786358699999999973e-03 1.911209799999999959e-01
-4.277731099999999842e-02 -7.794525000000000065e-03 1.913312400000000135e-01
-4.271008400000000232e-02 -7.781252699999999592e-03 1.915715600000000018e-01
-4.262924600000000258e-02 -7.775735599999999970e-03 1.918565000000000131e-01
-4.257556800000000113e-02 -7.792047199999999930e-03 1.921122100000000055e-01
-4.251558300000000262e-02 -7.803487599999999781e-03 1.923437100000000011e-01
-4.240196200000000137e-02 -7.790591099999999956e-03 1.926958900000000086e-01
-4.235973999999999989e-02 -7.744182799999999901e-03 1.928919299999999892e-01
-4.235973999999999989e-02 -7.744182799999999901e-03 1.928919299999999892e-01
-4.235973999999999989e-02 -7.744182799999999901e-03 1.928919299999999892e-01
-4.235973999999999989e-02 -7.744182799999999901e-03 1.928919299999999892e-01
