ply
format ascii 1.0
comment PCL generated
element vertex 346
property float x
property float y
property float z
element camera 1
property float view_px
property float view_py
property float view_pz
property float x_axisx
property float x_axisy
property float x_axisz
property float y_axisx
property float y_axisy
property float y_axisz
property float z_axisx
property float z_axisy
property float z_axisz
property float focal
property float scalex
property float scaley
property float centerx
property float centery
property int viewportx
property int viewporty
property float k1
property float k2
end_header
-0.057982661 0.026266357 0.18936004
-0.058175866 0.023667829 0.19099747
-0.054934826 0.031819645 0.18491088
-0.055590488 0.029588131 0.18608929
-0.055844646 0.026664224 0.18749332
-0.056054499 0.023415839 0.18974642
-0.056528013 0.020003239 0.19159111
-0.056746978 0.016452858 0.19285212
-0.056442291 0.013128468 0.19308288
-0.051226072 0.034335241 0.18118457
-0.051878922 0.032608442 0.18268757
-0.052516814 0.029860662 0.18429604
-0.052529894 0.026867349 0.18553269
-0.052863728 0.023625767 0.18812051
-0.0534456 0.019914234 0.19016987
-0.054009646 0.016357658 0.19192916
-0.054220222 0.012686513 0.19291855
-0.054203704 0.0088979471 0.19279991
-0.047750466 0.036998887 0.17871773
-0.048330434 0.035243116 0.17959626
-0.048759282 0.032795649 0.18115002
-0.04895978 0.029708555 0.18283644
-0.049468294 0.027046673 0.18557505
-0.050014481 0.023630764 0.18832287
-0.050457083 0.019996205 0.19006813
-0.051010333 0.016363375 0.19229133
-0.051188625 0.012592906 0.19348134
-0.051250689 0.0082239686 0.1930107
-0.051560849 0.0039229253 0.19351566
-0.051906794 -2.0666179e-05 0.19401093
-0.045459259 0.037615944 0.17773254
-0.045353793 0.035278775 0.17871666
-0.045490257 0.032766931 0.1805497
-0.046010349 0.029796766 0.18341701
-0.046563074 0.027157608 0.18605627
-0.047134809 0.024122978 0.18891972
-0.047640007 0.020329691 0.1909685
-0.048042577 0.016809076 0.19262315
-0.048028529 0.0122525 0.19285446
-0.048025772 0.0080565307 0.19297524
-0.048173618 0.0039891815 0.19360362
-0.048813481 -0.00054901221 0.19492792
-0.051619381 -0.0014818315 0.20329057
-0.054053102 -0.0012805813 0.21284831
-0.053473819 -0.0038695021 0.21700759
-0.042597193 0.040616743 0.17601161
-0.042659692 0.038308855 0.17714451
-0.042454496 0.035759095 0.1784752
-0.042567756 0.033207577 0.18050492
-0.043029409 0.030238992 0.18375643
-0.043441366 0.027601119 0.18656608
-0.044009026 0.024593377 0.18917003
-0.044333681 0.021039698 0.19125484
-0.045186795 0.017063923 0.19349426
-0.044958092 0.012215342 0.19304942
-0.04463074 0.007928798 0.19293754
-0.04434815 0.0040654601 0.19383271
-0.046557952 0.0014896946 0.20081586
-0.050078973 0.0010403955 0.20873633
-0.050811931 -0.0010072589 0.21362247
-0.050767884 -0.0039935503 0.21647681
-0.050341111 -0.0072616502 0.21900766
-0.050002761 -0.010587739 0.22251995
-0.040037602 0.0415296 0.17587999
-0.039599791 0.038851794 0.17741008
-0.039397031 0.036274593 0.17859793
-0.039495878 0.033512048 0.18095107
-0.039778017 0.030846158 0.18381646
-0.040104195 0.027996395 0.18636696
-0.040770032 0.025106389 0.18911785
-0.041285556 0.021562232 0.19160049
-0.042332675 0.017044492 0.19460791
-0.041868102 0.012188354 0.19476819
-0.041487839 0.0075659659 0.19533026
-0.042354465 0.0045731389 0.19916023
-0.044368889 0.0027996402 0.20484251
-0.04628272 0.0010116469 0.20951264
-0.047269296 -0.00095458416 0.2143397
-0.046958189 -0.0039922162 0.2173287
-0.046696883 -0.00718266 0.21912281
-0.046738114 -0.010776356 0.22151323
-0.047332726 -0.015836027 0.22375387
-0.046721581 -0.020104131 0.22499746
-0.037154548 0.044448856 0.17502616
-0.037016645 0.042644963 0.17618285
-0.036410321 0.04002592 0.17729029
-0.03618997 0.036618777 0.17881261
-0.036442339 0.033705056 0.18125899
-0.036569275 0.030926324 0.18401644
-0.037019726 0.028156733 0.18664156
-0.037480876 0.025283098 0.19008189
-0.038384207 0.021428317 0.19367491
-0.039379563 0.016633881 0.19636394
-0.039251644 0.011845686 0.19738865
-0.039299939 0.0083146626 0.19957715
-0.040017147 0.0055840411 0.2031846
-0.041298456 0.0031676716 0.20679452
-0.042585954 0.0010202092 0.21057963
-0.043514486 -0.0010652289 0.21463841
-0.043236494 -0.0040230821 0.21767852
-0.043304905 -0.0073224022 0.21910585
-0.043509834 -0.010911945 0.22020444
-0.043473955 -0.015086571 0.2216088
-0.044014331 -0.020216189 0.22404751
-0.033158746 0.045420025 0.17499308
-0.033078544 0.043873932 0.17665388
-0.033094864 0.041085124 0.17833093
-0.033008348 0.037815742 0.17917824
-0.033247013 0.034174129 0.1813293
-0.033436954 0.031104887 0.18441056
-0.033959933 0.028153665 0.18778242
-0.034585595 0.02531941 0.19155794
-0.035347726 0.021840248 0.19536449
-0.036812406 0.016621921 0.19818813
-0.036676221 0.012357967 0.19993204
-0.03653029 0.0089564314 0.20211507
-0.036967147 0.0061244327 0.20469968
-0.037926987 0.0034492018 0.20828129
-0.038911529 0.0011052981 0.21191552
-0.039498612 -0.0015109456 0.21479096
-0.039584238 -0.0045074727 0.21783216
-0.039673515 -0.0078680906 0.21887299
-0.03967303 -0.011571783 0.21931879
-0.03961679 -0.015307822 0.22008178
-0.040038146 -0.01943407 0.22246271
-0.040183362 -0.023403157 0.22390674
-0.029831892 0.045894966 0.17738594
-0.029875027 0.044018127 0.17784972
-0.029998234 0.041379679 0.1790625
-0.030086301 0.038322095 0.1805318
-0.030131973 0.034960072 0.18189155
-0.030413209 0.031172514 0.18436922
-0.031058852 0.027995555 0.18896179
-0.031557534 0.025292084 0.19217016
-0.032462932 0.021989174 0.19623192
-0.033805508 0.017362995 0.19922005
-0.033784069 0.013462563 0.20182386
-0.033572961 0.0097794123 0.20371982
-0.033912264 0.0070926165 0.20631748
-0.034720309 0.0040489822 0.20927222
-0.035240807 0.0013398984 0.21267229
-0.035705507 -0.001719306 0.21502425
-0.036002848 -0.0049407943 0.21764392
-0.036249451 -0.0082275299 0.21876928
-0.036202591 -0.011780303 0.21946898
-0.036196355 -0.015337355 0.22125807
-0.03601408 -0.018953625 0.22220252
-0.036369994 -0.02301543 0.22386251
-0.02692697 0.046228629 0.17763512
-0.026859391 0.044287805 0.17829078
-0.026777869 0.041437071 0.1794007
-0.027038673 0.038491558 0.18132615
-0.027075762 0.035370346 0.18260714
-0.027483251 0.031604968 0.18504956
-0.028048225 0.028091865 0.18979524
-0.028562136 0.025488395 0.19254585
-0.029379342 0.022321831 0.19664885
-0.030670516 0.018049231 0.20001845
-0.030623205 0.014826498 0.20260531
-0.030355247 0.01160774 0.20450029
-0.030399775 0.0080421176 0.20661876
-0.030674286 0.0061812052 0.20843938
-0.031929158 0.001083492 0.21322937
-0.031860504 -0.0016437703 0.21502891
-0.032756194 -0.0049009528 0.21798973
-0.032757774 -0.008221983 0.21925871
-0.032662153 -0.011655393 0.22053204
-0.032821294 -0.014831156 0.22277115
-0.033101171 -0.018270755 0.22440846
-0.033390388 -0.021853764 0.2254308
-0.034287952 -0.024110867 0.2278486
-0.023572326 0.045894388 0.17835687
-0.023678582 0.04406533 0.17916609
-0.023666464 0.041280244 0.17971164
-0.023881361 0.038291804 0.18117397
-0.024120217 0.035350055 0.18314955
-0.024558989 0.03186591 0.18560971
-0.024882142 0.028379416 0.19076635
-0.025460787 0.025658697 0.19407652
-0.025605461 0.022638585 0.19752513
-0.026860937 0.019090666 0.20068827
-0.027037138 0.016118752 0.202931
-0.027074736 0.012721797 0.20506401
-0.026784573 0.0089455266 0.20736867
-0.027069734 0.0060878317 0.21070629
-0.027803143 0.0025906973 0.21382491
-0.028526444 -0.0011868617 0.21604653
-0.028774181 -0.0047226064 0.2185446
-0.028804727 -0.0084674433 0.22066188
-0.029162349 -0.011998913 0.22217049
-0.029771341 -0.015702954 0.22472405
-0.030110821 -0.018977102 0.22605005
-0.030531807 -0.022155156 0.22737379
-0.031031393 -0.025365343 0.23056139
-0.020482752 0.045397233 0.17880297
-0.020575659 0.043751191 0.18013194
-0.020750146 0.040875997 0.18115845
-0.020997863 0.037999034 0.18203846
-0.021418236 0.035260867 0.1843259
-0.021793693 0.031898953 0.18710405
-0.021637077 0.028405244 0.19171578
-0.021538798 0.025374135 0.1953695
-0.021871619 0.022540605 0.19861014
-0.022469897 0.019397376 0.20120354
-0.023228943 0.016511509 0.20380881
-0.023617147 0.013696165 0.2062981
-0.023793146 0.010040825 0.20946479
-0.024157269 0.0062714536 0.21275707
-0.024660125 0.0027180288 0.21488138
-0.024763547 -0.00095769501 0.21704422
-0.025397576 -0.0042145569 0.2196873
-0.025489623 -0.0082080103 0.22258183
-0.025628345 -0.012154805 0.22348557
-0.026114678 -0.015952893 0.22616114
-0.026479863 -0.019048156 0.22731479
-0.02676254 -0.022554025 0.22819519
-0.027135273 -0.026216451 0.23151249
-0.018000942 0.043345924 0.18132645
-0.017880561 0.040961109 0.18311201
-0.018136615 0.037995737 0.18380712
-0.01830807 0.035069745 0.18561444
-0.018544244 0.031640884 0.18839899
-0.018722417 0.027878841 0.19279747
-0.018774664 0.024459293 0.19698499
-0.019309681 0.021612063 0.1995703
-0.019144008 0.019158827 0.20230183
-0.019676089 0.016324118 0.20465618
-0.020177592 0.013285829 0.2070649
-0.020499032 0.0098596774 0.21030012
-0.02075761 0.0060911193 0.21337481
-0.021135008 0.0027776696 0.21623793
-0.021364212 -0.00079118909 0.21863282
-0.021899153 -0.0043722144 0.22150482
-0.022298558 -0.0082238493 0.22363113
-0.022500895 -0.012010537 0.22439699
-0.02272835 -0.016266065 0.22673939
-0.022565143 -0.019445706 0.2268575
-0.023056477 -0.022932384 0.22738439
-0.02329554 -0.027129222 0.23249997
-0.015017644 0.040653501 0.18452488
-0.014913375 0.037940182 0.18567532
-0.015157633 0.034843668 0.18721898
-0.015488675 0.03140714 0.18949027
-0.015481472 0.027780632 0.193398
-0.015790574 0.024851464 0.19807245
-0.016120829 0.021919265 0.20110039
-0.016143881 0.018922288 0.20374335
-0.016307887 0.016025765 0.20549646
-0.016597407 0.013016965 0.20787933
-0.017000197 0.009637584 0.21109287
-0.017109076 0.0061177947 0.2143781
-0.017601078 0.0029400259 0.21737525
-0.01784952 -0.00090047449 0.22048573
-0.018131983 -0.0047717006 0.22316138
-0.018679596 -0.0086729294 0.2246464
-0.018876875 -0.012481796 0.2253848
-0.018962953 -0.016407637 0.22649336
-0.018860029 -0.020224066 0.22728324
-0.019274822 -0.024122117 0.22916089
-0.01936635 -0.027671561 0.2343265
-0.012320999 0.037659369 0.1872804
-0.01207104 0.034688 0.18878764
-0.012221495 0.031664982 0.1908174
-0.012039619 0.028135907 0.19337572
-0.012271257 0.025144361 0.19793041
-0.012714717 0.022419997 0.20165439
-0.013134612 0.019077227 0.20495188
-0.0130828 0.01599751 0.20731924
-0.013358243 0.012587499 0.20985235
-0.013589374 0.0096461289 0.2124355
-0.013765051 0.0064817155 0.21545455
-0.014063756 0.0032619189 0.21885905
-0.014330454 -0.0010004495 0.22100693
-0.014537031 -0.0049464577 0.22350688
-0.014801863 -0.0089849513 0.2250177
-0.015052086 -0.012679787 0.22579308
-0.015151337 -0.016461521 0.22713046
-0.015116503 -0.020514807 0.22854951
-0.015083089 -0.024748961 0.2323875
-0.014958988 -0.027809324 0.23729275
-0.0096500581 0.034413394 0.18942834
-0.0089749163 0.031742427 0.19164525
-0.0088931788 0.02861581 0.19442835
-0.0086997421 0.025603229 0.19826058
-0.0091412188 0.022754146 0.20266016
-0.0097845057 0.019366374 0.20608248
-0.0098209372 0.015981654 0.20817721
-0.0099730995 0.012821704 0.21049993
-0.0099577084 0.009691922 0.21257792
-0.010344993 0.0068117669 0.21579504
-0.010435238 0.0035064558 0.21873832
-0.010533674 -0.0004669872 0.22088678
-0.010892671 -0.0043762578 0.22277112
-0.010867464 -0.0083753336 0.22473118
-0.011149935 -0.012308181 0.22500101
-0.011112267 -0.016571932 0.2280966
-0.011154874 -0.020600263 0.23009717
-0.010742485 -0.02473644 0.23469488
-0.0059669614 0.031463709 0.19392283
-0.0053973277 0.028703263 0.19669871
-0.0049686898 0.025642345 0.19956952
-0.0053363522 0.02267557 0.20290813
-0.0060201972 0.019472206 0.20615287
-0.0062909583 0.015791116 0.20836671
-0.0064769294 0.012828276 0.2108579
-0.0064955107 0.0099177556 0.21280834
-0.0066683022 0.0068268264 0.21599585
-0.0066942084 0.003518488 0.21837929
-0.0066676075 -0.00040137942 0.22165279
-0.0069583976 -0.0042251446 0.22244029
-0.0069553242 -0.0080379881 0.22475435
-0.0069306921 -0.012077896 0.22583957
-0.0070725884 -0.016370112 0.22860736
-0.0078343116 -0.020450391 0.2307125
-0.008051848 -0.02356118 0.23325202
-0.0028784717 0.030748472 0.19649254
-0.0015681848 0.028347751 0.19779244
-0.0014611332 0.025034711 0.19987616
-0.0020767897 0.02230761 0.20241497
-0.002426859 0.019241581 0.20519447
-0.0024119327 0.016053583 0.20751284
-0.0027774828 0.012639195 0.2097901
-0.0027418735 0.0098329689 0.21284094
-0.002736209 0.0066837887 0.21566275
-0.0027898187 0.0034158784 0.2173239
-0.0029093535 -0.00038011445 0.22135037
-0.0031298336 -0.0040831403 0.22250009
-0.0030297732 -0.0078157177 0.2239556
-0.0036918353 -0.011424662 0.22527808
0.0012630015 0.02700839 0.198311
0.0017252838 0.024645681 0.19970775
0.001191383 0.021912215 0.201756
0.0010964314 0.019012814 0.20415004
0.0011766934 0.015850011 0.20649356
0.0010894269 0.012736273 0.20868927
0.0012117625 0.0099208672 0.21169212
0.00074370659 0.006641997 0.21467412
0.00046214275 0.0032110906 0.21642835
0.00021213827 -0.00017808663 0.2194338
-0.00055429264 -0.0036833819 0.22208923
0.0044448841 0.024063451 0.20007604
0.0043510213 0.021588603 0.20134695
0.0042125848 0.01870968 0.20305736
0.0041133226 0.015605902 0.20572335
0.0037832258 0.012577046 0.20811468
0.003734177 0.010586794 0.2104338
0 0 0 1 0 0 0 1 0 0 0 1 0 0 0 0 0 346 1 0 0
