ply
format ascii 1.0
comment PCL generated
element vertex 346
property float x
property float y
property float z
element camera 1
property float view_px
property float view_py
property float view_pz
property float x_axisx
property float x_axisy
property float x_axisz
property float y_axisx
property float y_axisy
property float y_axisz
property float z_axisx
property float z_axisy
property float z_axisz
property float focal
property float scalex
property float scaley
property float centerx
property float centery
property int viewportx
property int viewporty
property float k1
property float k2
end_header
-0.057784889 0.019820053 0.19135195
-0.058248345 0.017174175 0.19288336
-0.055008285 0.024916185 0.18704814
-0.055454839 0.02299116 0.18844977
-0.055874031 0.020098956 0.1899073
-0.056299161 0.017142022 0.19170049
-0.057118665 0.013867646 0.19335316
-0.057169553 0.010636955 0.19507112
-0.056757286 0.007453959 0.19645225
-0.05314358 0.027731188 0.18443397
-0.053163219 0.025758926 0.18513338
-0.052953832 0.023315426 0.18631043
-0.052852061 0.020599984 0.18760777
-0.053158399 0.017505139 0.1895888
-0.054497249 0.013667895 0.19166026
-0.054968596 0.010001593 0.19381127
-0.055223543 0.0060857697 0.1959068
-0.054812379 0.0021134082 0.19622563
-0.050127726 0.030402072 0.18204157
-0.050778463 0.02900216 0.18271708
-0.050763723 0.026530048 0.18350029
-0.050293036 0.023582714 0.18495533
-0.050606798 0.020805674 0.1869296
-0.05139168 0.016998973 0.18900816
-0.052501004 0.013339283 0.19069193
-0.052789424 0.0092003448 0.19270991
-0.05289505 0.005125755 0.19355564
-0.052501787 -0.00010720328 0.19290018
-0.052358888 -0.0047349199 0.19316067
-0.052378654 -0.0076413229 0.19424556
-0.048630461 0.031019632 0.18123992
-0.048337411 0.02926911 0.18165031
-0.048078664 0.026668299 0.18272413
-0.048162062 0.023680527 0.18484315
-0.048500668 0.020435194 0.18667965
-0.049086981 0.01667436 0.18827087
-0.050234552 0.012357173 0.18989198
-0.05107512 0.0084884623 0.19118197
-0.051035594 0.0024508461 0.19000567
-0.050634943 -0.0027310455 0.1882685
-0.050471149 -0.0065622511 0.18925604
-0.050609205 -0.0099883704 0.19246592
-0.050855372 -0.01034377 0.19616921
-0.052173726 -0.0063713412 0.20211837
-0.0507305 -0.0035665878 0.20989068
-0.047051895 0.034031685 0.17971689
-0.046492577 0.032140154 0.18030141
-0.045929801 0.030214695 0.18099014
-0.045522708 0.027558787 0.18215965
-0.045658793 0.02398137 0.18424098
-0.045631625 0.020058764 0.18589181
-0.046194777 0.016010417 0.18724492
-0.04732554 0.011153866 0.18811513
-0.04904335 0.0061310311 0.18756084
-0.048898812 0.00021862844 0.18558285
-0.048430275 -0.0048609446 0.18409762
-0.047950678 -0.0085307006 0.1848911
-0.046063699 -0.010194368 0.19198427
-0.049064703 -0.0084468452 0.19739325
-0.049479883 -0.0048669437 0.20392556
-0.04884259 -0.0043289973 0.20990649
-0.048085153 -0.0059749782 0.21429488
-0.048444882 -0.010982004 0.21885267
-0.044743497 0.035291161 0.17876953
-0.043802645 0.033067316 0.17988248
-0.043168243 0.03111488 0.18082152
-0.042849824 0.028826656 0.1818333
-0.042831682 0.025567373 0.18329409
-0.042719599 0.019819207 0.18481244
-0.04362056 0.015028575 0.18606444
-0.045706939 0.0097896298 0.18638749
-0.046666004 0.0038915079 0.18404
-0.045671936 -0.0022167522 0.1823996
-0.04452052 -0.0068135574 0.18331675
-0.042932663 -0.0089327833 0.18795051
-0.042949561 -0.0076387981 0.19427404
-0.045281179 -0.0061550927 0.20025942
-0.045648165 -0.0044281757 0.20606339
-0.045407046 -0.0052540516 0.21044983
-0.045103762 -0.0079634087 0.21453187
-0.047070231 -0.01385755 0.21940722
-0.047865383 -0.019922281 0.22243661
-0.046998754 -0.023858977 0.22399086
-0.042455416 0.040359542 0.17692679
-0.041995093 0.03842013 0.17761643
-0.040660892 0.0368254 0.17872614
-0.040190529 0.03303593 0.18070774
-0.040177699 0.029797036 0.18200667
-0.039803676 0.026236931 0.18353459
-0.039970361 0.020090694 0.1843842
-0.04121305 0.013896707 0.18500005
-0.043543942 0.0079565253 0.18241565
-0.044449788 0.0016674434 0.18039311
-0.042339377 -0.0043917364 0.18214862
-0.040482432 -0.0066739013 0.18540609
-0.039831292 -0.0059329802 0.19080095
-0.040772561 -0.0053824265 0.19563258
-0.041663889 -0.0046640346 0.20094343
-0.042458598 -0.0051854611 0.20663145
-0.042177383 -0.0072947964 0.21136384
-0.043108933 -0.011081567 0.21497528
-0.044126134 -0.014450045 0.21807019
-0.044461362 -0.018883029 0.22152874
-0.044430602 -0.023759766 0.22375153
-0.039089508 0.044227444 0.17426077
-0.037912335 0.043214735 0.17554888
-0.036768656 0.041127216 0.17769827
-0.0358999 0.037242725 0.17984129
-0.036743175 0.031175733 0.1822693
-0.0365468 0.026842473 0.18408424
-0.037123729 0.019735856 0.1842977
-0.037953686 0.013688276 0.18427069
-0.040003203 0.0082293767 0.1808594
-0.042368162 0.00010462363 0.1797365
-0.039529409 -0.0038908613 0.18302818
-0.037818048 -0.0042175264 0.18666196
-0.037627347 -0.0040631616 0.19058751
-0.038124401 -0.0038727685 0.19602661
-0.038372245 -0.0040285471 0.20349033
-0.039368849 -0.0067642899 0.20825912
-0.039587352 -0.0095716324 0.21205918
-0.040339161 -0.012933556 0.21500976
-0.040999975 -0.016030628 0.21754263
-0.040655553 -0.0192525 0.22039512
-0.04071556 -0.022966811 0.22348428
-0.040624965 -0.026060177 0.22479676
-0.034122773 0.045806281 0.17589267
-0.033884566 0.044272419 0.17624746
-0.033268016 0.042096414 0.17777286
-0.032502633 0.039230917 0.1797841
-0.032728303 0.033375274 0.18272065
-0.033887155 0.027910562 0.18439898
-0.034875106 0.019673008 0.18453008
-0.034996357 0.014509301 0.18424565
-0.036840703 0.0084759658 0.1822774
-0.04017473 0.00069301057 0.17921567
-0.037607614 -0.0012301236 0.18249539
-0.036096219 -0.0014149974 0.18659656
-0.035726566 -0.0018384632 0.19119145
-0.036083754 -0.0029626847 0.19632216
-0.035407621 -0.0046782601 0.20473978
-0.03643607 -0.0080535831 0.20939885
-0.037202381 -0.011337331 0.21283253
-0.037405122 -0.014412406 0.21597229
-0.037673168 -0.017290246 0.21821721
-0.037479449 -0.019464903 0.22056915
-0.036858413 -0.022045882 0.22286014
-0.036997244 -0.02512216 0.22505307
-0.031380605 0.046958793 0.17536789
-0.030774506 0.045494102 0.17613275
-0.029836057 0.04313805 0.17762575
-0.029040016 0.040676888 0.17974202
-0.029288029 0.036305666 0.18231411
-0.030755965 0.029279353 0.18480806
-0.032493025 0.020202512 0.18525432
-0.032330628 0.015922215 0.18497317
-0.033327263 0.010869484 0.18385881
-0.036661059 0.0044339397 0.17992857
-0.035096623 0.0037310615 0.18176523
-0.033611581 0.0027207572 0.1847752
-0.032852653 0.00085734884 0.18928964
-0.032927386 -0.001383376 0.193928
-0.032880448 -0.005982277 0.20676093
-0.033544671 -0.0091034016 0.21052475
-0.03469656 -0.011624916 0.21347146
-0.03386936 -0.015172969 0.2176148
-0.034364548 -0.017752172 0.21953914
-0.034461927 -0.0195974 0.2213244
-0.03425296 -0.022200389 0.22291709
-0.034522593 -0.023991257 0.22396284
-0.035298362 -0.024933934 0.22508882
-0.027404713 0.047128413 0.17604011
-0.02700009 0.045624278 0.17689914
-0.026044587 0.043350637 0.17848001
-0.025595015 0.040653966 0.18015736
-0.026508275 0.037067246 0.18257354
-0.028085887 0.030528581 0.18559198
-0.029863752 0.020860426 0.18647496
-0.029733228 0.017182583 0.18633775
-0.029321587 0.015209391 0.18647471
-0.031881876 0.011543987 0.18429895
-0.031585682 0.0094259977 0.18405563
-0.030835385 0.0064841439 0.18609741
-0.029727394 0.0039741765 0.18963024
-0.028028931 0.0013159389 0.19615978
-0.030483339 -0.0043717339 0.20534712
-0.031540073 -0.008495803 0.21130303
-0.030861653 -0.012822473 0.21666585
-0.031252366 -0.016611803 0.21951771
-0.031789906 -0.018777251 0.22059974
-0.032542121 -0.021123378 0.22261328
-0.032387696 -0.022438053 0.22343813
-0.032639805 -0.02345093 0.22461577
-0.032390796 -0.02474002 0.22718491
-0.022933269 0.044980604 0.17854737
-0.022610333 0.04338976 0.17973714
-0.022755034 0.040947255 0.18093355
-0.023278201 0.03855155 0.18188328
-0.024380155 0.035998501 0.18367164
-0.025324346 0.03013755 0.18731305
-0.026566986 0.022977941 0.18874966
-0.026671475 0.020032899 0.18880609
-0.026993901 0.018606143 0.18873008
-0.026332339 0.018485159 0.18912357
-0.026090499 0.016007105 0.18897399
-0.025509922 0.013056215 0.18962471
-0.023818878 0.0084686084 0.19316441
-0.022874244 0.0022275301 0.20298068
-0.026645072 -0.0043534483 0.20867641
-0.028741423 -0.0083908625 0.21335025
-0.028303491 -0.012471792 0.21702819
-0.028396154 -0.015507723 0.22150926
-0.028532015 -0.018079311 0.22199897
-0.029004412 -0.020234343 0.2230711
-0.029466737 -0.021319263 0.22375928
-0.029387716 -0.022622818 0.22484522
-0.029183948 -0.024820056 0.22750916
-0.019523846 0.041569874 0.18195722
-0.019995127 0.039416686 0.18328388
-0.020499965 0.036826141 0.18408145
-0.020992573 0.034287672 0.18573657
-0.020593714 0.031063376 0.1889787
-0.020110073 0.025992565 0.19276224
-0.021712171 0.023880959 0.19160153
-0.023826364 0.021832244 0.1911739
-0.022512423 0.020410916 0.19342442
-0.022050552 0.018204717 0.19407623
-0.021384416 0.015435284 0.19444384
-0.019606926 0.0092230784 0.19881101
-0.020521704 0.0031951934 0.20525613
-0.022857971 -0.0022088662 0.20993835
-0.024957418 -0.008005783 0.21524613
-0.025277266 -0.011978503 0.21907559
-0.02593668 -0.015216839 0.22256429
-0.026489103 -0.017710255 0.22311404
-0.026695484 -0.01956402 0.22367269
-0.026590826 -0.020466033 0.22342473
-0.026561674 -0.022208448 0.22420555
-0.026332555 -0.024899777 0.22802453
-0.016996851 0.038427003 0.18510558
-0.017005492 0.036247801 0.18609412
-0.017300347 0.033402663 0.18793464
-0.017612368 0.029869907 0.19073559
-0.014544036 0.026335187 0.19459493
-0.016305396 0.024418592 0.19507758
-0.019322205 0.02239335 0.19513209
-0.018848091 0.019912427 0.19676538
-0.018388724 0.018034589 0.19740154
-0.017284233 0.014973475 0.19870125
-0.016687376 0.0088621043 0.20328824
-0.017794898 0.0036782476 0.20779777
-0.019781554 -0.00074473262 0.21129674
-0.02172224 -0.0077349846 0.21705608
-0.022057626 -0.01170141 0.2216652
-0.023017678 -0.014552657 0.22380123
-0.023883229 -0.017530166 0.22421637
-0.02394533 -0.019386249 0.22448558
-0.024042221 -0.020410359 0.22394851
-0.023969773 -0.022303872 0.22528432
-0.023370588 -0.025221761 0.23007314
-0.013921072 0.035739899 0.18755676
-0.014102896 0.032739453 0.1894004
-0.013668337 0.02958836 0.19178481
-0.010199698 0.026334206 0.19573896
-0.011718525 0.02402658 0.19768399
-0.014963686 0.022488412 0.19717894
-0.015555616 0.01938381 0.19872527
-0.014008236 0.016186269 0.20110388
-0.0129726 0.012519149 0.20381498
-0.013617714 0.0091076661 0.20624486
-0.014696544 0.0048092105 0.20929351
-0.016069254 0.00057526887 0.21353586
-0.018493282 -0.0076494822 0.21941133
-0.018875908 -0.011161293 0.22282502
-0.020037794 -0.013957407 0.22448759
-0.021541771 -0.016193189 0.2246792
-0.021781666 -0.018503534 0.22496946
-0.0214194 -0.020412467 0.22534879
-0.020396763 -0.02335437 0.22902229
-0.019586915 -0.027486388 0.23453362
-0.01056671 0.032179128 0.19068865
-0.0080855154 0.029925365 0.19359742
-0.0063520363 0.026412342 0.19798546
-0.0070349108 0.023532262 0.2004828
-0.010163373 0.022168892 0.20008151
-0.012264134 0.019661222 0.200499
-0.010932063 0.015903734 0.20364621
-0.010629649 0.012373364 0.20620866
-0.010954151 0.0094354711 0.20785524
-0.012034862 0.0061144838 0.21042903
-0.01250215 0.00056454813 0.2162044
-0.013782378 -0.0056853364 0.22095929
-0.015378449 -0.009230529 0.22282496
-0.015981888 -0.01256311 0.22502257
-0.018325338 -0.014580742 0.2249652
-0.019061495 -0.017410424 0.2260976
-0.01854633 -0.02049185 0.22746392
-0.016097929 -0.024457837 0.23277855
-0.0040197815 0.028953098 0.19701007
-0.0020921796 0.026177954 0.19967203
-0.0015352647 0.023686584 0.20125058
-0.0034176297 0.021404589 0.20264098
-0.0072749909 0.019731475 0.2029237
-0.0084176194 0.016540013 0.20542179
-0.0083139194 0.012615537 0.20771319
-0.0086615924 0.0099425521 0.2093842
-0.0093777329 0.0062094647 0.21300623
-0.0087799737 -8.6808031e-05 0.21857978
-0.0098256906 -0.0054219426 0.22231932
-0.010791671 -0.0084719965 0.2234564
-0.011510553 -0.011725617 0.22569765
-0.012847952 -0.01443381 0.22682585
-0.01506561 -0.016616236 0.22747292
-0.015751071 -0.020008503 0.22922419
-0.013953975 -0.023256196 0.23240861
7.2959716e-05 0.027491713 0.19919103
0.0019736642 0.025637975 0.19997808
0.0025184737 0.023202406 0.20138042
0.0014693044 0.021043308 0.20284913
0.00026995406 0.019056728 0.20463368
-0.0011842404 0.016800174 0.20647766
-0.004324263 0.013165896 0.20903562
-0.0046990803 0.0086697284 0.21246018
-0.0045423103 0.0043222853 0.2160991
-0.004425121 -0.00039051959 0.21974438
-0.0058597308 -0.0049667833 0.22278282
-0.0065289279 -0.0083068702 0.22406621
-0.0071396697 -0.011381128 0.22598337
-0.0086145531 -0.014120275 0.22751498
0.0048055989 0.024421861 0.20032923
0.0053086439 0.02263944 0.2012064
0.0045292452 0.020741414 0.20245939
0.0041926783 0.018905427 0.20432608
0.003882217 0.016913412 0.20661719
0.0030185955 0.012601831 0.20979659
0.0016453486 0.0072450391 0.21335983
0.00015640078 0.0034606706 0.2168798
-0.00087231951 -0.0003737658 0.2198506
-0.0023109133 -0.0046771695 0.22232586
-0.0036747758 -0.0080727814 0.22436386
0.0076569915 0.022203572 0.20150203
0.0074853254 0.020579251 0.20256488
0.0072616101 0.018745771 0.20436457
0.0068922513 0.016523832 0.20702355
0.0056446628 0.012989014 0.21005793
0.0047612879 0.0091677643 0.2116908
0 0 0 1 0 0 0 1 0 0 0 1 0 0 0 0 0 346 1 0 0
