ply
format ascii 1.0
comment PCL generated
element vertex 346
property float x
property float y
property float z
element camera 1
property float view_px
property float view_py
property float view_pz
property float x_axisx
property float x_axisy
property float x_axisz
property float y_axisx
property float y_axisy
property float y_axisz
property float z_axisx
property float z_axisy
property float z_axisz
property float focal
property float scalex
property float scaley
property float centerx
property float centery
property int viewportx
property int viewporty
property float k1
property float k2
end_header
-0.057889506 0.024635646 0.18983024
-0.058072623 0.021949662 0.19154006
-0.054786421 0.030263793 0.18502361
-0.055554155 0.027969519 0.18645094
-0.055816822 0.025041094 0.18798791
-0.056058489 0.021723563 0.19031757
-0.056467935 0.018211307 0.1923155
-0.056766562 0.014551529 0.19399023
-0.056546807 0.011464193 0.19504121
-0.051292583 0.032929447 0.18145485
-0.051904287 0.03106801 0.18283097
-0.052549418 0.028245144 0.18424986
-0.052661184 0.025270445 0.18575463
-0.052863065 0.022031587 0.18848732
-0.053441118 0.01800664 0.19074744
-0.054139547 0.014193853 0.19266516
-0.054552749 0.010552336 0.19482903
-0.054791808 0.006966217 0.19602334
-0.048006009 0.035593912 0.17874156
-0.048516054 0.033812776 0.179619
-0.048775967 0.031312261 0.18099363
-0.04908061 0.028192835 0.18261951
-0.049687672 0.02545491 0.18532676
-0.050187271 0.021828404 0.18826453
-0.050787747 0.017980572 0.19031782
-0.051293477 0.01376749 0.19257811
-0.051811222 0.010522732 0.19539186
-0.051932506 0.005562217 0.1955094
-0.052494142 0.0012639801 0.19657274
-0.052962463 -0.0023556047 0.19754495
-0.045954671 0.036357943 0.17782648
-0.045672599 0.034024999 0.1787571
-0.045631874 0.031252425 0.18032813
-0.046180248 0.0282171 0.18299904
-0.046881735 0.025328752 0.18558948
-0.047362618 0.021896394 0.18817849
-0.047974072 0.017898271 0.19033207
-0.048553295 0.013790516 0.19223741
-0.049082428 0.0091986759 0.194254
-0.049171515 0.0045864619 0.19434032
-0.049419798 0.00064498623 0.19539583
-0.049926642 -0.0039415965 0.19699226
-0.050191145 -0.0061244527 0.20167749
-0.052540082 -0.0059686671 0.20756295
-0.052548748 -0.0071607945 0.21224944
-0.043432776 0.039597642 0.17635688
-0.043284237 0.037350696 0.1774824
-0.042900983 0.034858994 0.1788092
-0.042785306 0.0321513 0.18054114
-0.043205149 0.028596025 0.18323733
-0.04364768 0.025535874 0.18576486
-0.044208176 0.022021864 0.18789652
-0.044676088 0.018082609 0.18974485
-0.04592647 0.014081297 0.19342366
-0.04630151 0.0085933777 0.19350708
-0.046172109 0.0040006773 0.19316448
-0.045840416 -8.4185973e-05 0.19373882
-0.045115285 -0.0037112569 0.19819367
-0.048278715 -0.0045947782 0.20376661
-0.049765278 -0.0054464936 0.20862599
-0.050135307 -0.0073785088 0.21220303
-0.050082855 -0.0096142096 0.21557201
-0.050017323 -0.012451442 0.21996933
-0.040937964 0.040813446 0.17638785
-0.04040556 0.038233347 0.17794274
-0.039929949 0.035765365 0.1791821
-0.039701425 0.032905556 0.1811934
-0.039793108 0.029730253 0.18354665
-0.040170453 0.026203671 0.18560122
-0.040994287 0.022257572 0.18779066
-0.041748103 0.017713705 0.18952301
-0.042908784 0.012551508 0.19220553
-0.042799864 0.0080226408 0.19384055
-0.042348843 0.0031156694 0.19359016
-0.04159065 -0.00039173081 0.19603088
-0.04223451 -0.0026156127 0.20054968
-0.044635184 -0.0042039985 0.20484734
-0.046363749 -0.0050761183 0.20966522
-0.046490934 -0.0070243152 0.21331124
-0.046498358 -0.0094609512 0.21601813
-0.046906129 -0.01278979 0.21966296
-0.047336552 -0.017262036 0.22333278
-0.046611983 -0.020992402 0.22570358
-0.038276218 0.044239443 0.17558862
-0.037975896 0.042487953 0.17662805
-0.037293497 0.039952077 0.17804079
-0.036627878 0.036764864 0.17977184
-0.036693916 0.033498172 0.18194002
-0.036729649 0.030394498 0.18420702
-0.037211165 0.02684701 0.18635246
-0.037718836 0.022250274 0.18884389
-0.038744587 0.017478433 0.19182764
-0.039755013 0.011799146 0.19356933
-0.039352395 0.0068072579 0.19389166
-0.038592014 0.0032012628 0.19535622
-0.038347535 0.00055069587 0.19892861
-0.039432377 -0.0016382324 0.20257439
-0.041190259 -0.0034807154 0.20644343
-0.042729255 -0.0049256533 0.21045873
-0.042935144 -0.0069497237 0.21394183
-0.043191418 -0.010179359 0.21595424
-0.043707721 -0.012984528 0.21878435
-0.043524113 -0.016755724 0.2213255
-0.043949939 -0.021154009 0.22510026
-0.034420408 0.045805123 0.17517795
-0.034002554 0.044212569 0.17669596
-0.03377853 0.041534033 0.1785962
-0.033504266 0.038255334 0.17974384
-0.033611014 0.034408692 0.18220949
-0.033760797 0.030942857 0.1850674
-0.034405615 0.02681384 0.18772168
-0.034863595 0.022269493 0.19023441
-0.03544239 0.017788976 0.19316779
-0.037057113 0.011367343 0.19414102
-0.036192227 0.0070637255 0.19507073
-0.035433281 0.0039070402 0.19726482
-0.03534982 0.0014052578 0.20021249
-0.036406633 -0.00074776699 0.20432901
-0.037898667 -0.0026812176 0.20860556
-0.03901406 -0.0049234154 0.21169381
-0.039583422 -0.0072821146 0.21475585
-0.039859418 -0.010494971 0.2165273
-0.040086139 -0.013629746 0.21849735
-0.0397586 -0.01695721 0.22041111
-0.040034615 -0.020465586 0.22385259
-0.039947864 -0.023725625 0.22602005
-0.030617736 0.046219256 0.17720869
-0.030588945 0.044338107 0.17757875
-0.030631416 0.041808382 0.17898773
-0.030530294 0.038725261 0.18070395
-0.030573551 0.035376318 0.18255618
-0.030957896 0.031400837 0.18531121
-0.031765632 0.02659448 0.18901049
-0.03196821 0.022573268 0.19100264
-0.032573942 0.0173063 0.19318077
-0.034260567 0.012055536 0.19470263
-0.033328556 0.0085369591 0.19670512
-0.032512821 0.0049607763 0.19868256
-0.032691911 0.0029089579 0.20200551
-0.03364376 0.00034745949 0.20552446
-0.034500591 -0.0021626235 0.20999023
-0.035448629 -0.0047853352 0.21305214
-0.036217775 -0.0079411725 0.21518971
-0.036675356 -0.010604703 0.21727593
-0.036840748 -0.013581797 0.21933389
-0.036830124 -0.016370917 0.22173086
-0.036340121 -0.019641502 0.22352055
-0.036553733 -0.023261575 0.22636019
-0.027759317 0.046670988 0.17720941
-0.027571591 0.044702761 0.17781849
-0.027404603 0.041818749 0.17921238
-0.027522374 0.038879108 0.18127824
-0.027615586 0.035840265 0.18304428
-0.028229972 0.031653993 0.18599401
-0.028866949 0.026717834 0.19000371
-0.029184502 0.023099113 0.1917088
-0.029623838 0.018244244 0.19423366
-0.030997038 0.013261473 0.19556473
-0.030236039 0.010745122 0.19783366
-0.0296664 0.0078806812 0.2002181
-0.029562632 0.004831505 0.20300134
-0.029981762 0.0030766898 0.20498936
-0.031305119 -0.0023691736 0.21101484
-0.031857144 -0.0048078317 0.21358974
-0.033370804 -0.0074258596 0.21644504
-0.033367459 -0.010039022 0.21859506
-0.033321004 -0.012860448 0.2208498
-0.033406518 -0.015496508 0.22332779
-0.033383135 -0.018742975 0.22509052
-0.033661168 -0.02220335 0.22677504
-0.034856454 -0.02444588 0.22911885
-0.024315355 0.04626083 0.17759357
-0.024336163 0.044356059 0.17844625
-0.024283022 0.041449361 0.17951037
-0.024496658 0.038468607 0.18126293
-0.024811717 0.035715081 0.18364295
-0.02537543 0.03206278 0.18654042
-0.025800001 0.027068561 0.1912532
-0.026196068 0.02339438 0.19350223
-0.026137553 0.019923903 0.19616982
-0.026956635 0.01574502 0.19667658
-0.026710367 0.01279409 0.19840649
-0.026539898 0.0094663613 0.20078236
-0.026216218 0.0062469244 0.20372154
-0.026271457 0.0034454346 0.20718773
-0.027446352 -4.9071987e-06 0.21129863
-0.028538978 -0.0035084661 0.21470729
-0.029332707 -0.0066900146 0.21783116
-0.029468877 -0.0097233653 0.22050013
-0.029779321 -0.012979812 0.22228102
-0.030210072 -0.016399233 0.22502537
-0.030514902 -0.019533234 0.22662143
-0.031002315 -0.022607561 0.22823323
-0.031515997 -0.026016083 0.23152596
-0.02094581 0.045045186 0.17836925
-0.020998443 0.043358028 0.17980962
-0.021155387 0.040552653 0.18116067
-0.021471785 0.037793722 0.1822972
-0.022062855 0.035264648 0.18474211
-0.022453556 0.031713158 0.18800442
-0.022384262 0.027364586 0.19232936
-0.022088088 0.023722138 0.19525187
-0.022559164 0.020989796 0.19760378
-0.022921436 0.018227208 0.19893812
-0.023338443 0.014790836 0.2007055
-0.023274571 0.01158934 0.20253277
-0.023066428 0.0077234493 0.20554946
-0.023415992 0.0040774457 0.20985416
-0.024257531 0.00082011614 0.21270059
-0.024663618 -0.0024373226 0.2156433
-0.025319248 -0.005239293 0.21889654
-0.025703758 -0.0088420482 0.22216748
-0.025954101 -0.012877849 0.22339518
-0.026497832 -0.01646764 0.22636931
-0.026952695 -0.019381907 0.22797611
-0.027283045 -0.022801058 0.22921614
-0.027563157 -0.026458481 0.23248528
-0.018380852 0.042858142 0.1812928
-0.01846494 0.040582258 0.18317419
-0.018600158 0.037757151 0.18415768
-0.018699195 0.035015423 0.18607725
-0.018767592 0.031699259 0.18907054
-0.018794348 0.02756924 0.19322659
-0.018731831 0.023798222 0.19651037
-0.019458806 0.020851046 0.19814037
-0.019240357 0.018326042 0.20043284
-0.019640991 0.015343713 0.20229693
-0.01999497 0.012107561 0.20424272
-0.020078974 0.008332097 0.20757654
-0.020355033 0.004617482 0.21126384
-0.020937841 0.0013813914 0.2144036
-0.021311076 -0.0017544607 0.21745728
-0.021987502 -0.0050758221 0.22102639
-0.022562411 -0.0086228671 0.22343515
-0.022796512 -0.012408551 0.22434339
-0.023125224 -0.016484562 0.22697555
-0.023216261 -0.019528721 0.2276973
-0.023608338 -0.022971265 0.22837864
-0.023689924 -0.02712501 0.23331036
-0.015391639 0.040481403 0.18485935
-0.015300857 0.037958369 0.18603817
-0.015411259 0.034883123 0.18773296
-0.01568779 0.031399306 0.19034371
-0.015237723 0.027663417 0.19381042
-0.015613496 0.024382079 0.19767989
-0.016076822 0.021165382 0.19965266
-0.016167331 0.018162975 0.20206755
-0.016270541 0.015330346 0.20359899
-0.016550351 0.012294291 0.20604244
-0.016896587 0.0087109786 0.2093036
-0.016873442 0.0050524203 0.21273443
-0.017545247 0.0018177294 0.21577421
-0.017938863 -0.0016108812 0.21947245
-0.018344406 -0.0051482939 0.22283152
-0.018923217 -0.0089000864 0.22469041
-0.019139159 -0.012698173 0.2253346
-0.019330028 -0.016521359 0.22674055
-0.019551434 -0.020154858 0.22783038
-0.020006327 -0.023904735 0.23001195
-0.019901695 -0.027469814 0.23492508
-0.012569292 0.037744876 0.18757398
-0.012315532 0.034810305 0.18930356
-0.012342685 0.031650033 0.19155504
-0.011711068 0.027908685 0.19382177
-0.012080546 0.024567975 0.19786459
-0.012750844 0.021725615 0.20056881
-0.013195434 0.01831587 0.20344846
-0.013143629 0.015303865 0.2058645
-0.013454331 0.012048022 0.20848571
-0.013663429 0.0090113282 0.21091849
-0.013678725 0.0056184423 0.21391794
-0.014011391 0.0021637084 0.21727604
-0.014444762 -0.0015731595 0.22051719
-0.014774887 -0.0052523492 0.22347994
-0.015129788 -0.0091496287 0.22515582
-0.015496002 -0.012804651 0.22579122
-0.015612427 -0.016495105 0.22720835
-0.015733764 -0.020348648 0.2288834
-0.015683956 -0.024566639 0.23277651
-0.015263695 -0.027772348 0.2375056
-0.0097648511 0.034427218 0.19005874
-0.0088492893 0.031591307 0.1922262
-0.0085734222 0.028177256 0.19498834
-0.0084607005 0.024806989 0.19853564
-0.009179079 0.02180797 0.20184758
-0.009920598 0.018657606 0.20473428
-0.010090881 0.015577862 0.20719299
-0.01023782 0.012483284 0.2095664
-0.010115372 0.0094953831 0.21161936
-0.010449071 0.0064587872 0.21460213
-0.01028452 0.0029665853 0.21766444
-0.010644417 -0.0006735542 0.22069331
-0.011287187 -0.0044261096 0.22294597
-0.011299456 -0.0084200362 0.22474326
-0.011624823 -0.012332449 0.22503866
-0.011549736 -0.016461395 0.22798748
-0.011731415 -0.020470841 0.23017506
-0.011098804 -0.024840517 0.23481908
-0.0057704062 0.031005332 0.19458422
-0.0051017543 0.027881322 0.19738409
-0.0047498443 0.02452465 0.19994698
-0.0054703434 0.021444321 0.20269661
-0.006301044 0.018658591 0.20528357
-0.0066161659 0.015708962 0.20795159
-0.0069109951 0.012954098 0.21036221
-0.0068811332 0.010089582 0.21237262
-0.0068617449 0.0068865963 0.21531709
-0.0066286689 0.0034855916 0.21797606
-0.0069222446 -0.00046849056 0.22161005
-0.0073436173 -0.0042097736 0.22250322
-0.0074809371 -0.008053585 0.22470714
-0.0075015347 -0.012033775 0.22565345
-0.0075929463 -0.016163191 0.22835356
-0.008387181 -0.020440521 0.23065183
-0.0084935371 -0.02365141 0.23327276
-0.0027052024 0.029877489 0.19725393
-0.001256738 0.027262893 0.19860795
-0.0011693259 0.023944177 0.2004538
-0.0019349458 0.021149267 0.20262037
-0.0025598099 0.018506456 0.20516577
-0.0024829321 0.016012263 0.2075987
-0.0029749982 0.013279557 0.21007411
-0.0029911294 0.010409218 0.21285112
-0.0027850613 0.0070909061 0.21549815
-0.002673575 0.0037420322 0.21754012
-0.0031677729 -0.00017544556 0.22160608
-0.0035423611 -0.0038978287 0.22267263
-0.0035113918 -0.0077216499 0.22418284
-0.0042805299 -0.011343893 0.22538824
0.001538681 0.025943581 0.19924419
0.0019195593 0.023726558 0.20048377
0.0012703737 0.021049034 0.20224167
0.0011293654 0.018650768 0.20455363
0.0013873525 0.015983716 0.20706171
0.0013504995 0.013357894 0.20958272
0.0012981422 0.010667562 0.21222544
0.00078392628 0.0073287142 0.21505569
0.00056101201 0.0037931651 0.21709983
2.3167862e-05 0.00018520975 0.22020538
-0.0010046138 -0.0035587407 0.22282109
0.0045603467 0.023364009 0.20093027
0.0044779987 0.021098515 0.20200253
0.0043934314 0.018513126 0.2038918
0.0043161986 0.015915683 0.20665273
0.0040710797 0.013396154 0.20928775
0.0039469698 0.011582864 0.2113106
0 0 0 1 0 0 0 1 0 0 0 1 0 0 0 0 0 346 1 0 0
