ply
format ascii 1.0
comment PCL generated
element vertex 346
property float x
property float y
property float z
element camera 1
property float view_px
property float view_py
property float view_pz
property float x_axisx
property float x_axisy
property float x_axisz
property float y_axisx
property float y_axisy
property float y_axisz
property float z_axisx
property float z_axisy
property float z_axisz
property float focal
property float scalex
property float scaley
property float centerx
property float centery
property int viewportx
property int viewporty
property float k1
property float k2
end_header
-0.058647715 0.019648323 0.19244081
-0.05928674 0.017032806 0.19393735
-0.055528376 0.024726428 0.18842311
-0.056027964 0.022846054 0.1898292
-0.056561731 0.019982856 0.19128273
-0.057194173 0.017067304 0.19303116
-0.058092751 0.01388264 0.19481646
-0.058195565 0.010807517 0.19684333
-0.0577273 0.0077163675 0.19848892
-0.053673018 0.02742723 0.18567835
-0.053657107 0.025513999 0.18656586
-0.053416621 0.02317347 0.18802835
-0.053332802 0.020562595 0.18942994
-0.053910732 0.017421477 0.19131327
-0.055294972 0.013789931 0.19357905
-0.055795681 0.010282278 0.19602755
-0.056116525 0.006356528 0.19811323
-0.056125671 0.002357349 0.19974561
-0.050620612 0.029791353 0.18295048
-0.051285241 0.02853504 0.18382289
-0.051196694 0.026220568 0.18497443
-0.05071507 0.023499083 0.18707186
-0.051204596 0.02083496 0.18912458
-0.052199241 0.016989212 0.19103025
-0.053386059 0.0135123 0.19295743
-0.053551082 0.009475885 0.1952576
-0.054008272 0.0054069832 0.19724961
-0.053643994 -5.3549426e-05 0.19655308
-0.05355015 -0.0047825263 0.19667728
-0.053664476 -0.007746893 0.19766431
-0.049122587 0.03030213 0.18209505
-0.048791129 0.028648468 0.18275945
-0.04853015 0.026445705 0.18440159
-0.048683491 0.023736523 0.18726511
-0.049228236 0.020554699 0.18931326
-0.049919087 0.016732277 0.19090177
-0.051118616 0.012549539 0.19272824
-0.0518042 0.0087209502 0.19388226
-0.051984821 0.0025491691 0.19384386
-0.051477399 -0.0026806782 0.19209836
-0.051389825 -0.0065507074 0.19299288
-0.051766369 -0.010102247 0.1960804
-0.052317388 -0.010434868 0.19976594
-0.054051019 -0.0071086222 0.20502225
-0.053742949 -0.0051541016 0.21216668
-0.047584031 0.03316842 0.18041897
-0.046962958 0.031307269 0.18108438
-0.046322752 0.02951517 0.18201108
-0.045973577 0.027265372 0.18381144
-0.046180837 0.024141889 0.18702322
-0.046372928 0.020237189 0.18927209
-0.047053628 0.016105 0.19070417
-0.048214637 0.011204451 0.19170021
-0.050104331 0.0062142843 0.19218515
-0.049600102 0.00029666693 0.18976073
-0.049009442 -0.0047599981 0.18820202
-0.048591185 -0.0084610367 0.18892586
-0.047236823 -0.01037322 0.19615248
-0.050659847 -0.0086070774 0.20114675
-0.051771205 -0.0059348894 0.20662148
-0.051727198 -0.0056368052 0.21256568
-0.050889254 -0.0073061585 0.21715578
-0.04983183 -0.011740018 0.22078845
-0.045268476 0.03426012 0.17933743
-0.044268284 0.032192588 0.18066765
-0.043622632 0.030409832 0.18197556
-0.043353602 0.028449187 0.18344949
-0.043399323 0.025662195 0.1857948
-0.043727294 0.019735789 0.18881178
-0.044878516 0.014848415 0.19017673
-0.046835884 0.0096406192 0.1902563
-0.047438502 0.0037656703 0.18733604
-0.046165798 -0.0021110668 0.18697372
-0.045066822 -0.0066900542 0.18786159
-0.043970358 -0.0089822616 0.1925544
-0.044451658 -0.0077829058 0.19895856
-0.04725749 -0.0064496142 0.20415963
-0.048236419 -0.0051348479 0.2092558
-0.04827138 -0.0060749659 0.2136362
-0.047469418 -0.0088302298 0.21775545
-0.048239693 -0.014499725 0.22149821
-0.048824422 -0.020373575 0.22448555
-0.047812186 -0.024269175 0.22588177
-0.043096688 0.039761998 0.17736536
-0.042552855 0.037675478 0.17801662
-0.041151088 0.036123037 0.17915006
-0.040713675 0.032388289 0.18168393
-0.040713489 0.029525286 0.18362901
-0.040462621 0.026382716 0.18605597
-0.041386344 0.019755967 0.18863361
-0.042730581 0.013602739 0.18939275
-0.045034587 0.007425331 0.18899684
-0.045006912 0.0015116187 0.18595399
-0.042844947 -0.0041884971 0.18718125
-0.0413328 -0.0064974139 0.19052954
-0.041297894 -0.0060107401 0.19619738
-0.042593528 -0.0054474087 0.20068052
-0.043901715 -0.0046596169 0.20545676
-0.045094822 -0.0053780782 0.210439
-0.044733029 -0.0076086223 0.21513747
-0.044377107 -0.011108325 0.21756658
-0.045221303 -0.014711557 0.22037034
-0.045469981 -0.019175857 0.22379346
-0.045245565 -0.024059843 0.2257259
-0.039740514 0.043906197 0.17433074
-0.038472883 0.042924907 0.17555602
-0.037208285 0.040866967 0.17763616
-0.036249224 0.036974635 0.18012141
-0.037338663 0.031168522 0.18380421
-0.037346836 0.027072715 0.18669586
-0.03877062 0.01932618 0.18873878
-0.039666958 0.013252982 0.18902604
-0.041455649 0.0077091348 0.18833569
-0.042804755 0.00011954922 0.18546195
-0.040216725 -0.0035891554 0.18853663
-0.038950991 -0.0039704083 0.1924399
-0.039115805 -0.0040034228 0.1962491
-0.040009558 -0.0037627816 0.20136313
-0.041070182 -0.0034876852 0.20837104
-0.042013347 -0.0063411109 0.21272148
-0.041793581 -0.009429954 0.21604286
-0.041501172 -0.012655178 0.21768233
-0.042014971 -0.01580382 0.22005688
-0.041575894 -0.019217104 0.22283235
-0.041550674 -0.023095034 0.22570008
-0.041350953 -0.026223186 0.22675076
-0.034566414 0.045440618 0.17562832
-0.03431337 0.043929063 0.17602205
-0.033632971 0.041823931 0.17759375
-0.032777421 0.039026432 0.17977162
-0.033263564 0.033398647 0.1839491
-0.034786146 0.02804154 0.18683103
-0.036637016 0.019209785 0.18906191
-0.036869168 0.014024637 0.18925862
-0.03827963 0.0082038408 0.18751465
-0.040677566 0.00081663596 0.18548062
-0.038496323 -0.00085698196 0.18856785
-0.037536237 -0.0012262919 0.19285086
-0.037348557 -0.0016866571 0.19709437
-0.038054567 -0.0026610158 0.2019472
-0.038306404 -0.00339777 0.21014845
-0.039072622 -0.0070704338 0.21424127
-0.038650736 -0.010706979 0.21581246
-0.038616035 -0.013917385 0.21873437
-0.03876375 -0.017010847 0.22065902
-0.03839682 -0.019345246 0.22288504
-0.03766923 -0.022035101 0.22505823
-0.037789345 -0.025073372 0.22714855
-0.031836376 0.046579596 0.17500307
-0.031197187 0.045150205 0.17579915
-0.030170305 0.042843368 0.1773953
-0.029300334 0.040477607 0.17973664
-0.029662875 0.036273722 0.18299989
-0.031633917 0.029337335 0.18704802
-0.034291986 0.019758623 0.18966857
-0.034355666 0.015495926 0.19005445
-0.035331529 0.010668688 0.18941934
-0.038500212 0.0045013726 0.18786986
-0.03738182 0.0039829696 0.18962608
-0.035950091 0.0028214958 0.192553
-0.034832813 0.00085072155 0.19643854
-0.034761235 -0.00083697442 0.20002046
-0.034959912 -0.0043650861 0.21082857
-0.035382975 -0.0078801997 0.21421099
-0.036194388 -0.010809277 0.21654224
-0.035109498 -0.01486092 0.22012234
-0.035427809 -0.017609872 0.22181651
-0.035372749 -0.019582951 0.22353394
-0.035205837 -0.022205437 0.22500874
-0.03547984 -0.023948167 0.22597842
-0.036186147 -0.024839997 0.22706178
-0.027784055 0.04672483 0.17568463
-0.027333686 0.045257926 0.17663996
-0.026291735 0.043043233 0.17845458
-0.025838787 0.040474132 0.18039781
-0.026825396 0.037040871 0.18317954
-0.028808733 0.030641038 0.18742272
-0.031682409 0.020493779 0.19066407
-0.031836711 0.01691743 0.19110727
-0.031534988 0.015081647 0.19151801
-0.034089036 0.011391138 0.18976684
-0.033771437 0.0095214108 0.18959324
-0.032704387 0.0066363602 0.19136551
-0.031315893 0.0040620463 0.19463536
-0.029783094 0.002045373 0.20073491
-0.032746539 -0.0027603279 0.20925206
-0.033611227 -0.0074504437 0.21493477
-0.032354377 -0.012469276 0.21942896
-0.03238184 -0.016527306 0.22199783
-0.03288386 -0.018694673 0.22298273
-0.03359969 -0.021093918 0.22486037
-0.033431314 -0.022366773 0.22561492
-0.033718608 -0.02341884 0.22665223
-0.033378102 -0.024833595 0.22906046
-0.023209583 0.044607621 0.1785263
-0.022862788 0.043085113 0.17984134
-0.02298039 0.04074673 0.18120885
-0.023504624 0.038441416 0.18235521
-0.024634292 0.036047626 0.18442799
-0.026077811 0.030117959 0.18906856
-0.028200815 0.022778748 0.19223937
-0.028551776 0.020045871 0.19279623
-0.028996633 0.018680962 0.19295748
-0.02829746 0.018654561 0.19327632
-0.02825143 0.016255407 0.19345887
-0.027779048 0.013487747 0.19438919
-0.026027257 0.0092881462 0.19781734
-0.024912786 0.0037187736 0.20675659
-0.029111098 -0.0029442392 0.21226767
-0.0309227 -0.0077060116 0.21652457
-0.030115156 -0.012261705 0.21991433
-0.029765578 -0.015593823 0.22413884
-0.029795676 -0.018056393 0.2246383
-0.030259075 -0.020148747 0.22550987
-0.030657627 -0.021195021 0.22607136
-0.030491989 -0.022470417 0.22697353
-0.030184818 -0.02482341 0.22932683
-0.019722639 0.041321456 0.18213268
-0.020199044 0.039290708 0.18353677
-0.020687733 0.036775336 0.18457909
-0.021285942 0.034275156 0.18652149
-0.02118141 0.030948112 0.19010955
-0.020826789 0.0254992 0.19430947
-0.022712611 0.02348128 0.19366266
-0.025159756 0.021947796 0.19408409
-0.023667553 0.020895313 0.19619462
-0.023418916 0.0189087 0.19723551
-0.02311218 0.016345819 0.19811879
-0.021615755 0.010435212 0.20255832
-0.022324616 0.0046106181 0.208618
-0.025029017 -0.00065061229 0.21328655
-0.027094444 -0.0074208681 0.21824989
-0.027184365 -0.011845724 0.22178604
-0.027436469 -0.015451295 0.22501096
-0.027939113 -0.017921513 0.22563657
-0.028062748 -0.019474644 0.22612467
-0.027980054 -0.020278782 0.22581686
-0.027783433 -0.021963982 0.22639111
-0.027262745 -0.024900217 0.22963503
-0.017239571 0.038237546 0.18541545
-0.017341955 0.036071111 0.18662304
-0.017811509 0.033183012 0.18876334
-0.018327061 0.029527124 0.19193581
-0.015303086 0.025956647 0.19605173
-0.016884815 0.024104405 0.19653629
-0.019989632 0.022441963 0.19696966
-0.019750901 0.020298783 0.19904272
-0.019515712 0.018610539 0.19997631
-0.018773895 0.015799623 0.20177776
-0.018309707 0.010144501 0.20649411
-0.019462189 0.0049756342 0.21073945
-0.021669237 0.00068437163 0.21432354
-0.023848636 -0.0072355936 0.21980925
-0.023768026 -0.011766581 0.22399513
-0.024514347 -0.014775222 0.2259336
-0.02539289 -0.017794244 0.2263003
-0.025444653 -0.019486701 0.22658929
-0.025522931 -0.020327609 0.22609207
-0.025284853 -0.022091422 0.22714151
-0.024172159 -0.025388416 0.23129721
-0.01431417 0.035503961 0.18812381
-0.014672457 0.032389954 0.19024175
-0.014357332 0.029150445 0.19290784
-0.01083551 0.026075909 0.19679646
-0.012355087 0.023934387 0.1991052
-0.015749766 0.022348912 0.19887552
-0.016547495 0.019620577 0.20092198
-0.01520654 0.016716206 0.20348157
-0.014169442 0.013289255 0.20590158
-0.014665682 0.010189167 0.20855038
-0.016033467 0.0060497052 0.21187249
-0.017486593 0.0017274308 0.21611579
-0.020416945 -0.0074178097 0.22195473
-0.02045521 -0.01127245 0.22492127
-0.021426717 -0.014120748 0.22629306
-0.022985674 -0.016413525 0.22647282
-0.023226056 -0.018659323 0.22672299
-0.022824673 -0.020415615 0.22697042
-0.021287519 -0.02351407 0.23015161
-0.019784791 -0.027899407 0.23538975
-0.011083812 0.031904772 0.19145671
-0.0085203052 0.02966431 0.19416764
-0.0067260284 0.026150813 0.19854587
-0.0074597849 0.023566769 0.20144804
-0.010824919 0.022222884 0.20152928
-0.013227586 0.019848727 0.2024588
-0.011790076 0.016289214 0.20520441
-0.011364824 0.012772896 0.20758797
-0.01172305 0.0100999 0.2093807
-0.01283602 0.0072236205 0.21236034
-0.013554702 0.0011335275 0.21836439
-0.01532739 -0.0057089003 0.22316794
-0.017037217 -0.0092656957 0.22485113
-0.017402135 -0.012822792 0.22659023
-0.019804915 -0.014786742 0.22647181
-0.0203791 -0.017630948 0.22740801
-0.019700151 -0.02070968 0.22849652
-0.016520906 -0.024710579 0.23347288
-0.0041460171 0.028554052 0.19718163
-0.0019832808 0.025867948 0.2000107
-0.0013610546 0.023523102 0.20177084
-0.0034506388 0.021510381 0.20346656
-0.0079025058 0.019903671 0.20413572
-0.0089084525 0.016590619 0.20628375
-0.0088057611 0.012718373 0.2085169
-0.0091607682 0.010317934 0.21035427
-0.009818661 0.0070020002 0.21446949
-0.0096405782 -0.00019742492 0.22050819
-0.010855583 -0.0057886648 0.22380526
-0.012015862 -0.0087521095 0.22474667
-0.012620969 -0.012130093 0.22667626
-0.014005461 -0.014913841 0.2276639
-0.016204115 -0.017030168 0.22817697
-0.016716428 -0.020382263 0.22988573
-0.014497006 -0.023510817 0.23294665
0.00035794277 0.027009726 0.19936603
0.002292448 0.025167862 0.20030926
0.0027949763 0.022817489 0.2018199
0.001585827 0.020763285 0.20343699
0.00029205391 0.01888784 0.20525399
-0.0014004385 0.016569084 0.20695753
-0.0046762908 0.012874947 0.20926332
-0.0050166277 0.0087689115 0.21316157
-0.0048020277 0.0043367227 0.21749482
-0.0049768211 -0.00080699677 0.2214345
-0.0065923729 -0.0055029416 0.22395533
-0.0072831302 -0.0087199099 0.22495131
-0.0078579718 -0.011775772 0.22663307
-0.0093354415 -0.014540455 0.22805089
0.0050118919 0.023828523 0.20062222
0.0054818373 0.022011729 0.20164031
0.004606795 0.020215513 0.20298472
0.0041951546 0.018402167 0.20488097
0.0038102204 0.016399665 0.20712604
0.0026696611 0.01206884 0.21050577
0.001488013 0.0068224394 0.21428522
8.0638943e-05 0.0030898754 0.21813528
-0.0011444275 -0.00080002157 0.22121221
-0.00283662 -0.0051850984 0.22336212
-0.0041938936 -0.0084998766 0.22514947
0.0078017446 0.021405846 0.20189299
0.0075418265 0.019800462 0.20301165
0.0072426102 0.017981654 0.20488356
0.0068022823 0.015751217 0.20754622
0.005328224 0.012211641 0.21070872
0.004448717 0.0085605532 0.21232101
0 0 0 1 0 0 0 1 0 0 0 1 0 0 0 0 0 346 1 0 0
