ply
format ascii 1.0
comment PCL generated
element vertex 346
property float x
property float y
property float z
element camera 1
property float view_px
property float view_py
property float view_pz
property float x_axisx
property float x_axisy
property float x_axisz
property float y_axisx
property float y_axisy
property float y_axisz
property float z_axisx
property float z_axisy
property float z_axisz
property float focal
property float scalex
property float scaley
property float centerx
property float centery
property int viewportx
property int viewporty
property float k1
property float k2
end_header
-0.059351254 0.019190168 0.19277017
-0.06006014 0.016495736 0.19401658
-0.056147709 0.0246481 0.18951695
-0.056615397 0.02266694 0.19076203
-0.057171185 0.01968204 0.19189055
-0.057881635 0.016658692 0.19332115
-0.058798227 0.01347185 0.1950856
-0.058912866 0.010459706 0.19728722
-0.058383532 0.0074458802 0.1991246
-0.054362882 0.027509088 0.18688118
-0.054265562 0.025610421 0.18785167
-0.053959262 0.023209063 0.18927011
-0.053849146 0.020500006 0.19044562
-0.054517061 0.017116435 0.19185312
-0.055894416 0.013527691 0.19413698
-0.056396581 0.010058704 0.19677129
-0.056693971 0.006133711 0.19890417
-0.056359768 0.0020473448 0.19978078
-0.051229209 0.030113017 0.18457167
-0.051897302 0.028846942 0.18538579
-0.05171806 0.026574349 0.18662073
-0.05123841 0.023729879 0.18870795
-0.051767983 0.020877762 0.190418
-0.052781213 0.016698776 0.19164392
-0.05401247 0.013315793 0.19364651
-0.054065596 0.0093058581 0.19623511
-0.054196138 0.0051806695 0.19737905
-0.053736221 -0.00037456746 0.19664091
-0.053578585 -0.0051643108 0.19665515
-0.053683016 -0.0081681842 0.19756475
-0.04972199 0.030622363 0.18380159
-0.049360417 0.029141113 0.18470718
-0.0490725 0.027122801 0.1865119
-0.049273558 0.024070097 0.18913682
-0.04985664 0.020658251 0.19086017
-0.050531108 0.016537016 0.19190729
-0.051717006 0.012366906 0.19371496
-0.052258417 0.0085255839 0.19496576
-0.052029621 0.0023179222 0.194033
-0.051416956 -0.0028955226 0.19222461
-0.051312085 -0.006794882 0.19303487
-0.051718786 -0.010454694 0.19601202
-0.052317142 -0.010974013 0.19963305
-0.054132473 -0.0084102973 0.20464721
-0.054539073 -0.0071701212 0.21138191
-0.048224051 0.033110827 0.18166444
-0.047579266 0.031498823 0.18270597
-0.046869863 0.030010575 0.18402374
-0.046527538 0.02806945 0.1861728
-0.04679513 0.02466982 0.1892579
-0.047039632 0.020458356 0.19137558
-0.047693271 0.016025787 0.19236968
-0.048793029 0.011012034 0.19319338
-0.050202433 0.0060518975 0.19251534
-0.049524788 0.0001759148 0.19004045
-0.04885406 -0.0048352499 0.1884051
-0.048429158 -0.008546249 0.18906295
-0.047193188 -0.010692183 0.19623666
-0.050676901 -0.0092712864 0.20109452
-0.052016467 -0.007448392 0.20626007
-0.052499391 -0.0074605253 0.2119689
-0.051950894 -0.0089951744 0.21651801
-0.051024001 -0.013124563 0.22136679
-0.045869462 0.034083109 0.18056266
-0.044800412 0.032257915 0.18224029
-0.044145919 0.030672582 0.18384513
-0.043893635 0.028942494 0.18558228
-0.044042896 0.026391523 0.18828019
-0.044426307 0.019880394 0.19144309
-0.045618769 0.014732582 0.19252466
-0.047464974 0.0093642296 0.19222072
-0.047690872 0.0035418554 0.18906102
-0.046013087 -0.0021287552 0.18734497
-0.044919509 -0.0067005139 0.18816343
-0.043925006 -0.0091015669 0.19281588
-0.04450478 -0.0081954366 0.19919075
-0.047397044 -0.0073413551 0.2042533
-0.048759796 -0.0065378756 0.20910101
-0.049115971 -0.0075279255 0.21336542
-0.048463296 -0.010056249 0.21757548
-0.049139876 -0.015381448 0.22292781
-0.049556222 -0.020219889 0.22720233
-0.04842674 -0.023970962 0.22884996
-0.043565921 0.039342135 0.1775796
-0.043021969 0.037323508 0.17856324
-0.041492481 0.035937563 0.17981659
-0.041074995 0.032279111 0.18304573
-0.041141395 0.029729396 0.1854389
-0.041058242 0.026943231 0.18839468
-0.042195849 0.019817637 0.19152915
-0.043542363 0.013483688 0.19206916
-0.045113988 0.0073386854 0.18990935
-0.044862811 0.0015181887 0.1865495
-0.042715073 -0.0041509722 0.18762675
-0.041284006 -0.0065265261 0.19094473
-0.041344523 -0.0062517701 0.19662341
-0.042739481 -0.005892904 0.20103553
-0.044224348 -0.0054071443 0.20576581
-0.045685954 -0.0065126093 0.21054485
-0.045550466 -0.0086692693 0.21525671
-0.045391183 -0.01196155 0.21882336
-0.046023667 -0.015404083 0.22204474
-0.046293836 -0.01908027 0.22637944
-0.04588791 -0.023751186 0.22861211
-0.040050078 0.043495506 0.17399323
-0.038727637 0.042588349 0.17523316
-0.037386172 0.040647846 0.17737964
-0.036353085 0.036824323 0.1802682
-0.03759383 0.031170173 0.18501301
-0.037831444 0.0273751 0.18872997
-0.039690308 0.019341072 0.19168372
-0.040579081 0.013118623 0.19191831
-0.04152279 0.0076869354 0.18947695
-0.042650383 0.00017810105 0.1860902
-0.040148109 -0.0035444675 0.18907683
-0.038978606 -0.0040277983 0.19299982
-0.039196368 -0.004206744 0.19679451
-0.040221959 -0.0041672089 0.20185947
-0.041673295 -0.0042032013 0.20879802
-0.042717915 -0.0071941605 0.21307397
-0.042507436 -0.010084669 0.216748
-0.042390116 -0.012873069 0.21970558
-0.042765487 -0.015814306 0.22238672
-0.042377453 -0.019008374 0.22547887
-0.042245377 -0.0227511 0.22849153
-0.041933782 -0.025799194 0.2296723
-0.034712955 0.045028467 0.17503738
-0.034473535 0.043551613 0.17553036
-0.033770535 0.041574687 0.17724384
-0.032861475 0.038948502 0.17968805
-0.03334279 0.033360932 0.18449116
-0.03516116 0.028101644 0.18840319
-0.037564967 0.019113729 0.19191988
-0.037872072 0.013939527 0.19221957
-0.039039731 0.0080629671 0.19051778
-0.040556796 0.00091444131 0.18622565
-0.038482148 -0.0007940816 0.18925385
-0.037629846 -0.0012825924 0.19355333
-0.037481721 -0.0018964314 0.19775444
-0.038319573 -0.0030228875 0.20254521
-0.039052572 -0.003923242 0.21070999
-0.039856531 -0.0075321496 0.21494304
-0.039708279 -0.010742567 0.21785764
-0.039603766 -0.013571155 0.22135533
-0.039654031 -0.016683182 0.22334951
-0.039190236 -0.01891082 0.22567888
-0.038347971 -0.021524278 0.22787075
-0.038402122 -0.024439204 0.23003228
-0.031982195 0.046069913 0.17427374
-0.031335529 0.044703785 0.17517841
-0.030285753 0.042531516 0.17699707
-0.029359993 0.040377785 0.17966746
-0.029719615 0.036371712 0.18333717
-0.031873938 0.029333115 0.18820293
-0.035145622 0.019571356 0.19225933
-0.03537963 0.015313989 0.19288503
-0.036355127 0.010599427 0.19253238
-0.038630713 0.0045564491 0.18894175
-0.037601557 0.0040278765 0.19063781
-0.036180321 0.002798182 0.19349797
-0.03500545 0.0007138552 0.19728047
-0.035002224 -0.0010315203 0.20078854
-0.03637889 -0.0041589937 0.21269053
-0.036683802 -0.0076113329 0.21624687
-0.03742389 -0.010336502 0.21894942
-0.03619035 -0.014363573 0.22280505
-0.036338571 -0.017130632 0.22454658
-0.036177836 -0.019035272 0.22630063
-0.035987608 -0.021586802 0.22779417
-0.036227647 -0.023280896 0.22878464
-0.036842868 -0.024124451 0.22986569
-0.027872853 0.046165656 0.17496815
-0.027401423 0.044785384 0.17608106
-0.026315795 0.042708214 0.17818728
-0.025861202 0.040347099 0.18045335
-0.026880469 0.037195288 0.18355183
-0.028936118 0.030708317 0.18834352
-0.032409362 0.020157799 0.19287945
-0.032716803 0.016632885 0.19351088
-0.032435 0.014775801 0.1939431
-0.035025336 0.01138811 0.19278213
-0.034893446 0.0094511388 0.19259162
-0.033622045 0.0065401797 0.19410783
-0.031971969 0.0038158798 0.19708708
-0.030486599 0.0020446223 0.20280324
-0.034272458 -0.0025192033 0.21105003
-0.035037123 -0.0070320168 0.2169375
-0.033564266 -0.011938875 0.22183917
-0.033341981 -0.016147599 0.22449437
-0.033791773 -0.018266005 0.22553208
-0.034406353 -0.020565312 0.22748986
-0.034223951 -0.021807235 0.2282173
-0.034455463 -0.022846423 0.22922015
-0.033912715 -0.024371587 0.23140207
-0.023189722 0.044070791 0.17804816
-0.022822106 0.042639494 0.17946884
-0.022946594 0.040442053 0.18105319
-0.023520624 0.038304307 0.1824646
-0.024648692 0.036228169 0.18485072
-0.026219562 0.030025048 0.18982075
-0.028659191 0.022287637 0.19372578
-0.029097421 0.019666234 0.19448489
-0.029599875 0.018342562 0.19477765
-0.028810022 0.01839852 0.19501331
-0.028891331 0.015976898 0.1953176
-0.028397599 0.013317523 0.19640981
-0.026621211 0.0093476046 0.19965743
-0.025407616 0.0041031023 0.20768936
-0.030501856 -0.0025621571 0.21367364
-0.032295477 -0.0073045339 0.21827403
-0.031287231 -0.011888095 0.22210337
-0.030526632 -0.015333756 0.22607535
-0.030552557 -0.017807579 0.22680742
-0.031017968 -0.019791266 0.22776942
-0.031387165 -0.020787332 0.22834668
-0.03115589 -0.02207434 0.22913694
-0.030696426 -0.024552904 0.23126341
-0.019637659 0.04078922 0.18161778
-0.020138148 0.038926739 0.1831817
-0.020679334 0.036539424 0.1845143
-0.021372013 0.034195587 0.18666019
-0.02147723 0.030716043 0.19024223
-0.021131689 0.02500749 0.19454801
-0.023047628 0.022842323 0.19409741
-0.025497317 0.021468678 0.19491081
-0.023868369 0.020684971 0.19686149
-0.023680497 0.018868435 0.19814353
-0.023469659 0.016461279 0.1993394
-0.022043418 0.010701681 0.20359772
-0.022635542 0.004868852 0.20928188
-0.025837358 -0.00026717316 0.21411741
-0.028266728 -0.0071286131 0.21975052
-0.028151888 -0.011627129 0.22355235
-0.028138537 -0.015367492 0.226772
-0.028670043 -0.017862543 0.22759947
-0.028866546 -0.019227747 0.22812675
-0.028776757 -0.020019377 0.22786355
-0.02851335 -0.021682894 0.22834755
-0.027745832 -0.02478392 0.2312074
-0.017277384 0.037887827 0.18504427
-0.017447669 0.035793357 0.18641201
-0.01802114 0.032901797 0.18868196
-0.018692037 0.029188117 0.19206321
-0.015643977 0.025868468 0.19648665
-0.017025301 0.023919581 0.19676711
-0.020050425 0.022116126 0.19705772
-0.019828126 0.020203654 0.19939625
-0.019676531 0.018644322 0.2004662
-0.018996825 0.015940187 0.20252
-0.01849087 0.010340378 0.20709477
-0.019638926 0.0050255093 0.21107696
-0.022081438 0.00085914432 0.2147551
-0.024843654 -0.0071447589 0.22094436
-0.024466412 -0.011765808 0.22525713
-0.025139213 -0.014742712 0.22734073
-0.026152585 -0.017807141 0.22793753
-0.026261171 -0.019439535 0.22834484
-0.02629881 -0.020199202 0.22791523
-0.026038202 -0.021919761 0.22881721
-0.024611339 -0.025400741 0.23257428
-0.01447569 0.035320997 0.187967
-0.014939104 0.032112122 0.19019397
-0.014737283 0.028860081 0.19306938
-0.011115536 0.026386395 0.19735552
-0.012554048 0.024292931 0.19978464
-0.015883481 0.022322198 0.19924511
-0.016672522 0.019647058 0.20138837
-0.015436552 0.016883459 0.20401065
-0.014373043 0.013499455 0.20616068
-0.014618773 0.010458005 0.20876282
-0.015990496 0.006002442 0.21190773
-0.01750117 0.0014799782 0.21605261
-0.021155417 -0.0076567298 0.2226301
-0.021033727 -0.011445165 0.22575058
-0.021994136 -0.014179864 0.22731876
-0.023670381 -0.016398169 0.22781162
-0.024005694 -0.018645544 0.22821742
-0.023635501 -0.020333404 0.22846717
-0.021852674 -0.023513418 0.231426
-0.020225847 -0.027787793 0.23677215
-0.011349128 0.031838942 0.19154431
-0.0087859724 0.029884432 0.19442372
-0.006958955 0.026794879 0.19909088
-0.0076437849 0.024341365 0.20216763
-0.011040131 0.022708502 0.20225552
-0.013461095 0.020070789 0.20307526
-0.012006988 0.016427429 0.20533931
-0.011387894 0.012835405 0.20740211
-0.011607137 0.010281684 0.20924139
-0.012621638 0.0074163256 0.21226455
-0.013552042 0.0007224821 0.21814972
-0.015867209 -0.0060418192 0.22343874
-0.017698243 -0.0094197681 0.22544637
-0.018043065 -0.012820227 0.22748971
-0.020473823 -0.014855491 0.22747242
-0.021058649 -0.017659269 0.22854765
-0.020382628 -0.020732312 0.22965816
-0.017026713 -0.024677558 0.23460373
-0.0043890611 0.029156499 0.19744854
-0.0020218866 0.026608128 0.20023999
-0.001248343 0.02422804 0.20186768
-0.0033915271 0.022239095 0.20377393
-0.0080625648 0.020328328 0.204539
-0.0089851106 0.016545381 0.20593654
-0.008751981 0.012708237 0.20802346
-0.0089687742 0.010432989 0.20998727
-0.0095334379 0.0071804356 0.21426857
-0.0097853532 -0.0005263802 0.22061345
-0.011193966 -0.0060195611 0.22416545
-0.012483113 -0.0088633858 0.22532363
-0.013156869 -0.011996466 0.22764407
-0.014617707 -0.01475438 0.2288606
-0.016799305 -0.017032264 0.2291224
-0.017333612 -0.020495987 0.23082958
-0.015044577 -0.023589302 0.23392197
0.00036062903 0.027642276 0.19936655
0.0023875618 0.025711494 0.20010501
0.0029626009 0.023249455 0.20145485
0.0017513168 0.021069074 0.20305124
0.00046977802 0.019010402 0.20473021
-0.0013082963 0.016279414 0.20603263
-0.0046132621 0.012687978 0.20837867
-0.0048381947 0.0089904238 0.21287082
-0.0046912199 0.0044530989 0.2176984
-0.0050991611 -0.0010012717 0.22185631
-0.0068052365 -0.0057480456 0.22432934
-0.0075090625 -0.0088407882 0.22546636
-0.0081331041 -0.011766874 0.22726852
-0.0096782977 -0.014377522 0.22894342
0.0051067215 0.02422695 0.20015751
0.0056137894 0.022281578 0.201067
0.004704637 0.020349732 0.20239039
0.0043101856 0.01829257 0.20410359
0.0039347862 0.016014628 0.20613417
0.0026256114 0.011428635 0.20961243
0.0014791802 0.0066869757 0.2143411
0.00012039491 0.003141711 0.21856458
-0.0011832723 -0.00082450354 0.22176075
-0.00295328 -0.0053972579 0.22380802
-0.0043374719 -0.0086401943 0.22565353
0.0078991102 0.021496059 0.20115581
0.0076185381 0.019758407 0.20219834
0.0073218364 0.017691646 0.20392565
0.0069060819 0.015158308 0.20639072
0.0053015873 0.011352721 0.20962603
0.0043340148 0.0080192955 0.21178421
0 0 0 1 0 0 0 1 0 0 0 1 0 0 0 0 0 346 1 0 0
