ply
format ascii 1.0
comment PCL generated
element vertex 346
property float x
property float y
property float z
element camera 1
property float view_px
property float view_py
property float view_pz
property float x_axisx
property float x_axisy
property float x_axisz
property float y_axisx
property float y_axisy
property float y_axisz
property float z_axisx
property float z_axisy
property float z_axisz
property float focal
property float scalex
property float scaley
property float centerx
property float centery
property int viewportx
property int viewporty
property float k1
property float k2
end_header
-0.058620941 0.019663282 0.19242515
-0.059255838 0.017047087 0.19392443
-0.055508502 0.024740933 0.18839581
-0.056007557 0.02285945 0.18980238
-0.056539115 0.019995896 0.19125813
-0.057166856 0.017079286 0.19301048
-0.058064263 0.013891262 0.19479202
-0.058167096 0.010810161 0.19680814
-0.057702933 0.007714557 0.19844395
-0.053651143 0.027446235 0.18565544
-0.053637736 0.025529725 0.18653554
-0.053399257 0.0231851 0.18799002
-0.0533153 0.020572083 0.18939002
-0.053886719 0.017433409 0.19128174
-0.055270862 0.013795165 0.19354275
-0.055772487 0.010280982 0.19597983
-0.056095313 0.0063537783 0.19806285
-0.056125671 0.002357349 0.19974561
-0.050599683 0.02981594 0.18292998
-0.051264167 0.028556533 0.18379904
-0.051179159 0.026236786 0.18494053
-0.050698388 0.023509134 0.18702151
-0.051184189 0.020841453 0.18907341
-0.05217531 0.016998636 0.19099109
-0.053359509 0.013515878 0.19291371
-0.053531088 0.0094743315 0.19520102
-0.054008272 0.0054069832 0.19724961
-0.053643994 -5.3549426e-05 0.19655308
-0.05355015 -0.0047825263 0.19667728
-0.053664476 -0.007746893 0.19766431
-0.049101584 0.030328352 0.18207274
-0.048771325 0.02867117 0.18272932
-0.048511546 0.02645734 0.18435985
-0.048663601 0.023742879 0.18720838
-0.049204476 0.020557765 0.18925007
-0.049894098 0.016737822 0.19084318
-0.051092744 0.012551797 0.19266911
-0.051785003 0.0087211458 0.19382206
-0.051984821 0.0025491691 0.19384386
-0.051477399 -0.0026806782 0.19209836
-0.051389825 -0.0065507074 0.19299288
-0.051766369 -0.010102247 0.1960804
-0.052317388 -0.010434868 0.19976594
-0.054051019 -0.0071086222 0.20502225
-0.053742949 -0.0051541016 0.21216668
-0.047559943 0.033199765 0.18040098
-0.04694169 0.031335369 0.1810607
-0.046305284 0.029537056 0.18197854
-0.045954805 0.027275711 0.18376449
-0.046160102 0.024144325 0.18695773
-0.046347991 0.020236032 0.18918684
-0.047027599 0.01610663 0.19061984
-0.048189808 0.011207609 0.19162048
-0.050104331 0.0062142843 0.19218515
-0.049600102 0.00029666693 0.18976073
-0.049009442 -0.0047599981 0.18820202
-0.048591185 -0.0084610367 0.18892586
-0.047236823 -0.01037322 0.19615248
-0.050659847 -0.0086070774 0.20114675
-0.051771205 -0.0059348894 0.20662148
-0.051727198 -0.0056368052 0.21256568
-0.050889254 -0.0073061585 0.21715578
-0.049819965 -0.011712188 0.22076383
-0.045245685 0.034295004 0.17931901
-0.044249225 0.032221083 0.18064038
-0.043604337 0.03043217 0.18193811
-0.043335356 0.028462579 0.18340173
-0.043378685 0.025664525 0.18573008
-0.043697696 0.019739859 0.18871327
-0.044844232 0.014855464 0.19007771
-0.046807598 0.0096488362 0.19016799
-0.047419712 0.0037745633 0.18725751
-0.046165798 -0.0021110668 0.18697372
-0.045066822 -0.0066900542 0.18786159
-0.043970358 -0.0089822616 0.1925544
-0.044451658 -0.0077829058 0.19895856
-0.04725749 -0.0064496142 0.20415963
-0.048236419 -0.0051348479 0.2092558
-0.04827138 -0.0060749659 0.2136362
-0.047469418 -0.0088302298 0.21775545
-0.048227608 -0.014468652 0.22147672
-0.048812393 -0.020350333 0.2244627
-0.04780487 -0.024248619 0.22585931
-0.043072008 0.039787211 0.17735954
-0.042530678 0.037703432 0.17800669
-0.041133486 0.03614625 0.17913756
-0.040697314 0.032411177 0.1816514
-0.040697705 0.029538991 0.1835826
-0.040442646 0.02638685 0.18599139
-0.041349344 0.019765077 0.18853401
-0.042691067 0.013611794 0.18929262
-0.045034587 0.007425331 0.18899684
-0.045006912 0.0015116187 0.18595399
-0.042844947 -0.0041884971 0.18718125
-0.0413328 -0.0064974139 0.19052954
-0.041297894 -0.0060107401 0.19619738
-0.042593528 -0.0054474087 0.20068052
-0.043901715 -0.0046596169 0.20545676
-0.045094822 -0.0053780782 0.210439
-0.044733029 -0.0076086223 0.21513747
-0.044363625 -0.011099498 0.21752408
-0.045211043 -0.014689383 0.22034316
-0.045455709 -0.019155594 0.22376581
-0.045237731 -0.024042066 0.22570138
-0.039718166 0.043925498 0.17434284
-0.038453218 0.042941272 0.17556827
-0.037192591 0.040879302 0.17764735
-0.036236919 0.036984142 0.18011674
-0.037323322 0.031176487 0.18376511
-0.037326586 0.027076431 0.1866329
-0.038727663 0.019337077 0.18863766
-0.039621647 0.013265664 0.18892136
-0.041455649 0.0077091348 0.18833569
-0.042804755 0.00011954922 0.18546195
-0.040216725 -0.0035891554 0.18853663
-0.038950991 -0.0039704083 0.1924399
-0.039115805 -0.0040034228 0.1962491
-0.040009558 -0.0037627816 0.20136313
-0.041070182 -0.0034876852 0.20837104
-0.042013347 -0.0063411109 0.21272148
-0.041793581 -0.009429954 0.21604286
-0.041487496 -0.012650921 0.21764114
-0.042005681 -0.015795486 0.22002511
-0.04156534 -0.019204874 0.22280097
-0.041541435 -0.023080863 0.22567114
-0.041345596 -0.026210247 0.22672449
-0.034549721 0.045457628 0.17564996
-0.034297217 0.043944962 0.17604087
-0.033618715 0.04183552 0.17760845
-0.032766089 0.039032597 0.17977738
-0.033250228 0.033401586 0.18392417
-0.034765583 0.028047999 0.18677627
-0.036592286 0.019224834 0.18896021
-0.036819544 0.014039005 0.18914887
-0.038240086 0.0082131634 0.18739779
-0.040677566 0.00081663596 0.18548062
-0.038496323 -0.00085698196 0.18856785
-0.037536237 -0.0012262919 0.19285086
-0.037348557 -0.0016866571 0.19709437
-0.038054567 -0.0026610158 0.2019472
-0.038306404 -0.00339777 0.21014845
-0.039072622 -0.0070704338 0.21424127
-0.038626973 -0.01071171 0.21576522
-0.038599744 -0.013916826 0.2186932
-0.038750879 -0.017003793 0.22062889
-0.038387515 -0.0193373 0.22285517
-0.037661556 -0.022028737 0.22502698
-0.037780855 -0.02507082 0.22711562
-0.03181934 0.046597615 0.17502847
-0.031181337 0.045166019 0.17582136
-0.030156996 0.042855043 0.17741039
-0.029289436 0.040483389 0.17974086
-0.029651081 0.036273625 0.18298763
-0.03161585 0.029342351 0.18700312
-0.034248751 0.019775368 0.18957128
-0.034304198 0.015511781 0.18994333
-0.03528006 0.010676226 0.18929359
-0.038500212 0.0045013726 0.18786986
-0.03738182 0.0039829696 0.18962608
-0.035950091 0.0028214958 0.192553
-0.034832813 0.00085072155 0.19643854
-0.034761235 -0.00083697442 0.20002046
-0.034916922 -0.0043891813 0.21076247
-0.035349514 -0.0078946194 0.21415448
-0.036169581 -0.010816851 0.21649596
-0.035090543 -0.014857032 0.2200885
-0.035414193 -0.017602257 0.22178815
-0.035361767 -0.019576391 0.2235036
-0.035191618 -0.022204513 0.22497217
-0.035465512 -0.023949999 0.22593996
-0.036174025 -0.024843514 0.22702555
-0.027768891 0.046740804 0.1757054
-0.027320078 0.045271203 0.17665537
-0.02628091 0.043052148 0.17845899
-0.025828907 0.040477946 0.18039291
-0.026815167 0.037040856 0.18316895
-0.028796094 0.030645071 0.18738961
-0.031641364 0.020512236 0.1905745
-0.031787608 0.016932631 0.19100603
-0.031483956 0.015094633 0.19141132
-0.034035403 0.011398122 0.18964316
-0.033714794 0.0095255086 0.18946765
-0.032658532 0.0066397754 0.19124967
-0.031282548 0.0040694559 0.19453071
-0.029746937 0.0020339047 0.20064072
-0.032693975 -0.0027858848 0.20918922
-0.033571515 -0.0074589304 0.2148855
-0.032327089 -0.012467048 0.21939068
-0.032364614 -0.016518719 0.22196387
-0.032866739 -0.018689182 0.22294579
-0.033582769 -0.02109262 0.22481987
-0.033413384 -0.022368174 0.2255733
-0.033700559 -0.023421163 0.22661223
-0.033361565 -0.024835819 0.22902349
-0.023197265 0.044616103 0.17852785
-0.022851447 0.04309126 0.17983946
-0.022971379 0.040750824 0.18120389
-0.023497041 0.038444169 0.18234847
-0.024628514 0.036049206 0.18441886
-0.026064873 0.030130157 0.18904285
-0.028168017 0.022797845 0.19217151
-0.028513156 0.020057833 0.19271681
-0.028954357 0.018691141 0.19287218
-0.028257342 0.018661503 0.19319312
-0.028205579 0.01626076 0.19336809
-0.027732385 0.013486853 0.19429062
-0.025980579 0.009275347 0.19772269
-0.02486998 0.0036846958 0.2066911
-0.029054871 -0.002967081 0.21221966
-0.030876439 -0.0077095702 0.21648693
-0.030076107 -0.012258743 0.21986558
-0.029739683 -0.015587701 0.22410245
-0.029773217 -0.018052906 0.22459446
-0.030236507 -0.020149887 0.22546497
-0.030636314 -0.021198254 0.22602728
-0.030472722 -0.022475561 0.22693206
-0.030167719 -0.024827683 0.22928999
-0.019713597 0.041327782 0.1821329
-0.020191574 0.039296594 0.18353918
-0.020682717 0.036781389 0.18457957
-0.021278096 0.034282289 0.18651953
-0.021162611 0.030960897 0.19010177
-0.020810645 0.025528161 0.19430235
-0.02269206 0.023511184 0.19364391
-0.025135951 0.021962531 0.19404145
-0.023650011 0.020898679 0.19616
-0.023395738 0.018903809 0.19718798
-0.023079056 0.016333107 0.19805425
-0.021573801 0.010410275 0.20249143
-0.022289259 0.0045800908 0.20856443
-0.024981881 -0.00068173651 0.21324077
-0.027046323 -0.0074263099 0.21820968
-0.027140656 -0.011844023 0.22173747
-0.027406132 -0.015441539 0.22497138
-0.027911579 -0.017913455 0.22559665
-0.028034726 -0.019476062 0.22608232
-0.027953206 -0.020281823 0.22577243
-0.027761364 -0.02196997 0.22634706
-0.027246566 -0.02490551 0.22960162
-0.017229715 0.038246516 0.18542226
-0.017330248 0.036080316 0.18662621
-0.017794771 0.033194032 0.18876
-0.018303864 0.02954348 0.19192487
-0.015283375 0.025971167 0.19603591
-0.016878704 0.024124831 0.19653408
-0.019986326 0.022461176 0.19697049
-0.019743335 0.020305239 0.19902891
-0.019501766 0.018609639 0.19995321
-0.018750895 0.015790192 0.20173725
-0.018281156 0.010119354 0.20644659
-0.019431451 0.0049508801 0.2106984
-0.021631362 0.00065662706 0.21428341
-0.023799598 -0.0072412509 0.21977013
-0.023728387 -0.011763661 0.22395489
-0.024482096 -0.014768582 0.22589837
-0.025361398 -0.017785659 0.22627053
-0.025411645 -0.019482421 0.22655486
-0.02549272 -0.0203289 0.22605337
-0.025257507 -0.022097863 0.22710508
-0.024154989 -0.02539173 0.23127165
-0.014300249 0.035511661 0.18812604
-0.014653097 0.032400653 0.1902359
-0.014333773 0.029164465 0.19289455
-0.010817435 0.02607804 0.19678347
-0.012344453 0.02393722 0.19908926
-0.01574198 0.022363888 0.1988683
-0.016536606 0.019626642 0.20090464
-0.015187969 0.016711809 0.20345683
-0.014150511 0.01327895 0.2058834
-0.014653312 0.010169391 0.20852748
-0.016012473 0.0060272687 0.21184181
-0.017461358 0.0017099977 0.21608666
-0.020372191 -0.0074193077 0.22191682
-0.020418433 -0.011269731 0.22488762
-0.021395367 -0.014117778 0.22626495
-0.022953974 -0.016408075 0.2264474
-0.023194142 -0.018654624 0.22669788
-0.022793557 -0.020416165 0.22694428
-0.021266466 -0.023512267 0.2301323
-0.019770684 -0.027882637 0.23537971
-0.01106584 0.0319084 0.19144858
-0.0085038748 0.029663924 0.19416338
-0.0067133973 0.026150167 0.19854753
-0.0074509108 0.023561275 0.20144174
-0.010813392 0.022221476 0.2015129
-0.013211754 0.019849582 0.20243725
-0.01177514 0.016287498 0.20519623
-0.011355534 0.012771725 0.2075882
-0.011714986 0.010090168 0.20937568
-0.012828026 0.0072011044 0.21234339
-0.013536641 0.0011293485 0.21833874
-0.015294185 -0.0057022837 0.22313452
-0.016998829 -0.0092636552 0.2248197
-0.01736813 -0.012818532 0.22656699
-0.019770499 -0.014782918 0.22645034
-0.020349054 -0.017626299 0.22739345
-0.019673528 -0.020706087 0.22848465
-0.016503055 -0.024697725 0.23346536
-0.0041370625 0.028555183 0.19719332
-0.0019839983 0.025869679 0.20002559
-0.0013661167 0.023522865 0.20178333
-0.0034519462 0.021505442 0.20347033
-0.0078911269 0.019900454 0.20412721
-0.0089013167 0.016597448 0.20629396
-0.0088006882 0.01272345 0.20853065
-0.0091574444 0.010314296 0.21036126
-0.0098166 0.0069851261 0.21446069
-0.009624701 -0.00018813017 0.22047748
-0.010834889 -0.0057752337 0.22378448
-0.011989403 -0.0087435739 0.22472806
-0.012594384 -0.012122924 0.22666141
-0.013976302 -0.014905591 0.22765218
-0.016176835 -0.017022463 0.22817491
-0.016690932 -0.020373752 0.2298806
-0.014476531 -0.02349521 0.23294298
0.00035334381 0.02701528 0.19938545
0.0022846847 0.025172386 0.20032494
0.0027863693 0.022820748 0.20183201
0.0015797782 0.020766264 0.20344645
0.00028786619 0.018891212 0.20526358
-0.0013996736 0.016579429 0.20697303
-0.0046720104 0.012887536 0.20928735
-0.0050141285 0.0087655159 0.21316557
-0.0047979658 0.0043351594 0.21747357
-0.0049662977 -0.00079304969 0.2214033
-0.0065785917 -0.0054847454 0.22394
-0.0072685773 -0.0087063676 0.22494154
-0.0078421813 -0.011764737 0.22662801
-0.0093175303 -0.014531731 0.22804625
0.0050046691 0.023834566 0.20063661
0.0054740249 0.022017978 0.20165102
0.0046013952 0.02022226 0.2029929
0.0041915085 0.018410951 0.20488925
0.00380833 0.016411832 0.20713605
0.0026759333 0.012085981 0.21050777
0.001491698 0.0068304832 0.21426873
8.2875347e-05 0.0030950981 0.21810777
-0.0011391038 -0.00079030049 0.22118379
-0.0028283261 -0.0051679169 0.22334757
-0.004184735 -0.0084841046 0.22514148
0.0077949953 0.021415353 0.20190236
0.0075370758 0.019810982 0.20302013
0.0072393687 0.01799475 0.2048905
0.0068009803 0.015768148 0.20755407
0.005334076 0.012234012 0.210712
0.0044561718 0.008576069 0.2123161
0 0 0 1 0 0 0 1 0 0 0 1 0 0 0 0 0 346 1 0 0
