ply
format ascii 1.0
comment PCL generated
element vertex 346
property float x
property float y
property float z
element camera 1
property float view_px
property float view_py
property float view_pz
property float x_axisx
property float x_axisy
property float x_axisz
property float y_axisx
property float y_axisy
property float y_axisz
property float z_axisx
property float z_axisy
property float z_axisz
property float focal
property float scalex
property float scaley
property float centerx
property float centery
property int viewportx
property int viewporty
property float k1
property float k2
end_header
-0.057529703 0.023017529 0.18943356
-0.057733126 0.020196039 0.19124468
-0.054524131 0.028655304 0.18450068
-0.055243619 0.026399333 0.18595304
-0.055516534 0.023419501 0.18759824
-0.05573196 0.020029694 0.18993047
-0.056147825 0.016226288 0.19203027
-0.056215219 0.012403705 0.19401464
-0.055899121 0.0094492789 0.19566745
-0.051106654 0.03157004 0.18128695
-0.051686902 0.029622857 0.18245128
-0.05230628 0.026724892 0.18372215
-0.052437603 0.023713263 0.18525594
-0.052628133 0.020371379 0.18791632
-0.053243391 0.016063459 0.19029598
-0.053647812 0.011886876 0.1926299
-0.053948093 0.008228316 0.19555585
-0.053497408 0.0042046225 0.19680391
-0.047712855 0.034407932 0.17874737
-0.0482933 0.03257224 0.17955869
-0.048574045 0.03002101 0.18073854
-0.04886435 0.026858883 0.18211514
-0.049536448 0.023976987 0.18460046
-0.050181217 0.019870484 0.18735622
-0.050830442 0.015971977 0.18959861
-0.050934467 0.011244706 0.19232039
-0.051005594 0.0072683869 0.19474867
-0.050454952 0.0016440855 0.19566537
-0.050549239 -0.0027696979 0.19706418
-0.0506262 -0.0063739135 0.19810438
-0.045642961 0.035185318 0.17785941
-0.045396332 0.032850988 0.17876546
-0.045434665 0.030016268 0.18017817
-0.046006911 0.026778826 0.18244754
-0.046813425 0.023728563 0.18475771
-0.047486193 0.019737184 0.186975
-0.04816512 0.015533562 0.18922275
-0.048442479 0.010977018 0.1916398
-0.048029549 0.0046413359 0.19330265
-0.047558997 -0.00021570268 0.19371615
-0.047562845 -0.0040431214 0.19510974
-0.047817864 -0.0086388607 0.19652508
-0.04779819 -0.011832586 0.19920744
-0.050492782 -0.01170491 0.20370765
-0.050576311 -0.012317519 0.20816863
-0.043164391 0.03842238 0.17647491
-0.042981792 0.036215756 0.17754816
-0.042615797 0.033776071 0.17888632
-0.042540602 0.031003419 0.18054342
-0.043029677 0.027035419 0.18272533
-0.043645259 0.023663078 0.184973
-0.044359166 0.019600701 0.18651095
-0.044914637 0.015163568 0.18827637
-0.04575216 0.0095578879 0.19070731
-0.04499808 0.0034000941 0.19166224
-0.044678718 -0.0014156587 0.19140652
-0.044183198 -0.0053134374 0.19206889
-0.042726934 -0.0089012571 0.19543791
-0.046087336 -0.010751559 0.20021065
-0.047798611 -0.011360771 0.20447063
-0.04835296 -0.012535621 0.20824043
-0.048530605 -0.013880244 0.21193802
-0.049247805 -0.013898788 0.21814927
-0.040637501 0.039660938 0.17654046
-0.040130302 0.037148383 0.17811333
-0.039671052 0.034724116 0.17933591
-0.03944625 0.031802464 0.18105809
-0.039583482 0.028347099 0.1830686
-0.040146422 0.024303572 0.18489243
-0.041080881 0.019497756 0.18642749
-0.041958272 0.014147511 0.18794785
-0.042528428 0.0083766961 0.19089076
-0.041350134 0.002526683 0.19032381
-0.040695667 -0.0024028665 0.19024993
-0.039532639 -0.0055439123 0.19312333
-0.040035825 -0.0075587146 0.19744898
-0.042388167 -0.01016889 0.20111515
-0.04443758 -0.01081608 0.20554222
-0.044852365 -0.011939687 0.209435
-0.045086574 -0.01371859 0.21249948
-0.046354521 -0.014426753 0.21825138
-0.046876807 -0.018072786 0.22279526
-0.04625285 -0.021557981 0.22562024
-0.038115926 0.043032236 0.17559382
-0.037832025 0.041326668 0.17662831
-0.037117872 0.038978927 0.17819105
-0.036463346 0.035799164 0.17985038
-0.036494516 0.032347564 0.181731
-0.036515679 0.029000651 0.18370204
-0.037057225 0.024773013 0.18545622
-0.037702676 0.019106803 0.18722062
-0.038809359 0.0121668 0.18847203
-0.039301965 0.0062029795 0.18987374
-0.037936863 0.0012896174 0.19010809
-0.036894292 -0.0019174506 0.19224267
-0.036636882 -0.0039108698 0.1962254
-0.037489474 -0.0062401593 0.19953285
-0.039191671 -0.0089384476 0.20279178
-0.041011143 -0.010527591 0.2064285
-0.041500084 -0.011862283 0.210309
-0.042206053 -0.013213422 0.21404633
-0.043137338 -0.014841111 0.21761177
-0.043030243 -0.017718472 0.22106698
-0.04359011 -0.021680275 0.22521167
-0.03453543 0.044574134 0.1747133
-0.034050241 0.043131471 0.17630856
-0.033744011 0.040679373 0.17847204
-0.033410706 0.037501659 0.17982891
-0.033459015 0.033391457 0.18209715
-0.033554442 0.029507952 0.18462999
-0.034231022 0.024435079 0.18662558
-0.034804165 0.019109404 0.18840675
-0.035421498 0.01250747 0.18972023
-0.036551233 0.0058564818 0.19057333
-0.034969192 0.0020481574 0.19192936
-0.034109302 -0.00053210719 0.19450767
-0.033987332 -0.0026216938 0.197515
-0.034704529 -0.004930031 0.20129909
-0.036119156 -0.0077588325 0.20517111
-0.037478246 -0.0099902246 0.20819484
-0.038416784 -0.011675364 0.21177769
-0.039177813 -0.013173091 0.21519399
-0.03960643 -0.015438592 0.21781234
-0.039269816 -0.018097194 0.22040957
-0.039663281 -0.021031419 0.22430702
-0.039623629 -0.023887407 0.22664614
-0.030711915 0.045277171 0.17686208
-0.030629255 0.043440402 0.17726047
-0.030623745 0.041032605 0.17886251
-0.030446375 0.038051348 0.18066022
-0.030429084 0.034652151 0.1825065
-0.030802004 0.030164281 0.18500713
-0.031662695 0.024020862 0.18785802
-0.031925816 0.019562852 0.1892572
-0.032597329 0.013456042 0.19113709
-0.03398319 0.0069621545 0.19154254
-0.032398362 0.0041962005 0.19376136
-0.031451356 0.0011937674 0.19637753
-0.031507 -0.00068106147 0.19934671
-0.032234818 -0.0034343202 0.20273082
-0.03321296 -0.006512017 0.20699127
-0.034646019 -0.0088526253 0.21037459
-0.035635237 -0.010778076 0.21385802
-0.036204059 -0.012807562 0.2164987
-0.036524676 -0.015079915 0.21903494
-0.036515262 -0.017283466 0.22163878
-0.035957266 -0.020117048 0.22395355
-0.036289003 -0.023369813 0.22711983
-0.027897049 0.045840692 0.17685136
-0.027666692 0.043968275 0.17755242
-0.027431447 0.041213062 0.17915009
-0.027441485 0.038341329 0.18121448
-0.027461724 0.035307743 0.18292776
-0.028076291 0.030482134 0.18569437
-0.028902596 0.024098964 0.18900511
-0.029239671 0.020119971 0.19021632
-0.029658126 0.014796528 0.19229057
-0.030657779 0.0088294772 0.19244847
-0.029400978 0.0069992878 0.19462131
-0.028491622 0.0044281771 0.19703022
-0.028264794 0.0016049925 0.19990875
-0.02884368 -0.00012302687 0.20203915
-0.030394731 -0.0055254241 0.20915538
-0.031369187 -0.0075405305 0.212291
-0.033289071 -0.009672218 0.21537767
-0.033139143 -0.01164278 0.21806216
-0.033285968 -0.013934082 0.22073667
-0.03336183 -0.01618598 0.22320385
-0.033201542 -0.019304147 0.22497262
-0.033581976 -0.022311419 0.22647877
-0.03500263 -0.024249637 0.22862403
-0.024501869 0.0456587 0.17739251
-0.024481339 0.043855678 0.17837556
-0.024365123 0.041181739 0.1797127
-0.024425965 0.038210049 0.18137127
-0.024662245 0.035322446 0.18352483
-0.025231358 0.031093018 0.18631397
-0.025911486 0.024394695 0.19048603
-0.026281374 0.020455565 0.19224504
-0.026303759 0.017051252 0.19449371
-0.026711453 0.013259396 0.19448133
-0.026209718 0.010447876 0.19607328
-0.025750836 0.0071250717 0.19831525
-0.025079165 0.0040100757 0.20127109
-0.025016977 0.0011978983 0.20494825
-0.02656853 -0.0022573844 0.20934235
-0.028129248 -0.0055559324 0.2132483
-0.029200347 -0.0085425656 0.21688561
-0.029717995 -0.010967438 0.22030726
-0.030090207 -0.013953339 0.22223462
-0.030619889 -0.017200476 0.22481377
-0.030714732 -0.02006031 0.2259647
-0.031207982 -0.022653781 0.22743192
-0.031782165 -0.025766045 0.23049717
-0.021159565 0.044666566 0.17881741
-0.021133602 0.043032456 0.18016694
-0.021202741 0.040291913 0.18142422
-0.021456646 0.037526321 0.18244085
-0.021989951 0.034903921 0.18462738
-0.022417754 0.030606715 0.18792138
-0.022517471 0.025027419 0.19199124
-0.022326799 0.021001434 0.19453034
-0.022941442 0.018832542 0.19648413
-0.02288379 0.016892402 0.19742659
-0.022954082 0.013372979 0.19874726
-0.022589099 0.010040576 0.20021825
-0.022089478 0.0061360495 0.20302084
-0.022349004 0.002347705 0.20774958
-0.02343135 -0.00090623449 0.21084259
-0.024076635 -0.0040443186 0.21420084
-0.024676772 -0.0066992491 0.21724707
-0.025568213 -0.010161071 0.2210521
-0.026170623 -0.013791887 0.22302237
-0.026848964 -0.017164115 0.22589485
-0.02721303 -0.019669842 0.22711413
-0.027531765 -0.022759736 0.22829884
-0.027861206 -0.026244124 0.23151441
-0.018401848 0.042446986 0.18159199
-0.018465301 0.040099494 0.18334121
-0.018551059 0.037303638 0.18423231
-0.018607352 0.034496322 0.18602251
-0.018646521 0.031064261 0.18890795
-0.018512452 0.02647586 0.1930097
-0.018589944 0.022448929 0.19582871
-0.019617317 0.019571476 0.1971412
-0.019265084 0.017275326 0.19931407
-0.019455824 0.014350169 0.20081025
-0.019564876 0.011046751 0.20239966
-0.019445552 0.0071359971 0.20570371
-0.019693619 0.0033730529 0.2095717
-0.020439912 0.00011981649 0.21287513
-0.020926382 -0.0030145594 0.21620591
-0.021592977 -0.0061791148 0.21955378
-0.02234244 -0.0097613195 0.2220958
-0.022859005 -0.013248434 0.22365758
-0.023521103 -0.016923361 0.2265444
-0.023562696 -0.01968196 0.22694097
-0.023916882 -0.023021856 0.22764744
-0.024067787 -0.026965775 0.23244797
-0.015274031 0.03994317 0.18489344
-0.015123299 0.037444077 0.18594868
-0.01520667 0.034253828 0.18756253
-0.015602356 0.030563841 0.19016454
-0.014668841 0.0268913 0.193774
-0.015443944 0.023491485 0.19724035
-0.01625572 0.020102881 0.19867605
-0.016268542 0.01721075 0.20095935
-0.016190153 0.014531584 0.20231469
-0.016240811 0.011436093 0.2045857
-0.016580334 0.0078591798 0.20788839
-0.01658543 0.0043106652 0.21158352
-0.017372238 0.0010227239 0.21463147
-0.017727042 -0.0024512766 0.21847256
-0.018278321 -0.0059477445 0.2218333
-0.018832058 -0.0096889315 0.22367994
-0.019321401 -0.013319014 0.22489101
-0.019702025 -0.016914418 0.22674985
-0.019891335 -0.020469518 0.22726533
-0.020454019 -0.024041917 0.22933346
-0.020313257 -0.027403522 0.23431699
-0.012225897 0.037253689 0.187336
-0.012062598 0.034135535 0.18903567
-0.012139489 0.030763732 0.19139099
-0.011042434 0.027245266 0.19423221
-0.011848953 0.023874493 0.19798091
-0.012986217 0.021031447 0.19993885
-0.013298045 0.017577128 0.20242296
-0.01310107 0.014615045 0.20464373
-0.013259564 0.011450468 0.20723568
-0.013467341 0.0085641565 0.20985328
-0.013635119 0.0053577586 0.21313123
-0.014118307 0.0018845139 0.21668881
-0.014488909 -0.0020275398 0.22011417
-0.014879802 -0.0057060402 0.22313231
-0.015215075 -0.009589876 0.22472262
-0.015820721 -0.013204497 0.22576876
-0.015938904 -0.016778419 0.22731937
-0.016105019 -0.020461293 0.22870459
-0.016128952 -0.024592865 0.23233877
-0.015606216 -0.027683686 0.23719893
-0.0094159851 0.033740036 0.19015548
-0.0083418516 0.030918403 0.19269374
-0.007896455 0.027561469 0.19580339
-0.0080486313 0.024328876 0.19894361
-0.0092105325 0.021532992 0.20151456
-0.010100102 0.018310999 0.20387237
-0.010161733 0.015093171 0.20618364
-0.010199526 0.012058748 0.20862412
-0.010129711 0.0093516028 0.21093437
-0.010603678 0.0064471886 0.21416275
-0.010459345 0.0027606189 0.2175878
-0.010798058 -0.0010283334 0.22080475
-0.011487157 -0.0045673242 0.22316417
-0.011479192 -0.0085098855 0.22497693
-0.011915266 -0.012542767 0.22528075
-0.011938071 -0.016529329 0.22811797
-0.012106162 -0.020494981 0.23026271
-0.011405527 -0.024739908 0.23480467
-0.0052583306 0.030250955 0.19548158
-0.004477154 0.027247002 0.19796225
-0.0042638839 0.024195172 0.19998257
-0.0052556866 0.021337235 0.20245332
-0.0063276114 0.01867006 0.20466045
-0.0067862878 0.015486112 0.20703226
-0.0070410534 0.012802919 0.20968206
-0.0070047909 0.010153577 0.21197668
-0.0071240244 0.0070027732 0.21525009
-0.0067927013 0.0032967248 0.21827663
-0.0070952126 -0.00085795502 0.22183801
-0.0074910051 -0.0044764848 0.22267283
-0.0077025043 -0.0082408525 0.22493012
-0.0078508323 -0.012070251 0.22584906
-0.0079392474 -0.016141957 0.22849718
-0.0087717073 -0.020356188 0.23076633
-0.0087861018 -0.023532476 0.23358779
-0.0021612933 0.02911723 0.19780427
-0.00073880074 0.026816813 0.19872649
-0.00064322923 0.023634296 0.20026107
-0.0015028984 0.020991487 0.20245174
-0.0023664299 0.018427519 0.20484672
-0.0023908296 0.015897529 0.20714538
-0.003018792 0.013246571 0.20973901
-0.0030611583 0.010463683 0.21296504
-0.002893439 0.0070623877 0.21579042
-0.0027805232 0.0035750195 0.21803077
-0.003286957 -0.0005355833 0.22190894
-0.0037192574 -0.0042490745 0.22276045
-0.0037714452 -0.0080545824 0.22430393
-0.0046159239 -0.011638572 0.22565717
0.0020392707 0.02556357 0.19922683
0.0023564587 0.023354271 0.20042557
0.0017164636 0.020877983 0.20217879
0.0014491645 0.018628245 0.2045505
0.0016494875 0.016026601 0.20710103
0.0015603732 0.013451787 0.20991939
0.0014556013 0.010644882 0.21261527
0.00086567126 0.0072818827 0.21553513
0.00057454058 0.0035960882 0.21765718
-4.727799e-05 -0.00020023443 0.22058883
-0.0010911553 -0.0039729369 0.22292088
0.0049778526 0.023081243 0.20100647
0.0048603071 0.020949032 0.20213598
0.0048172148 0.018514229 0.20420457
0.0046435534 0.016004151 0.20703354
0.004294368 0.013513283 0.20992343
0.0040565627 0.011615044 0.21184559
0 0 0 1 0 0 0 1 0 0 0 1 0 0 0 0 0 346 1 0 0
