ply
format ascii 1.0
comment PCL generated
element vertex 346
property float x
property float y
property float z
element camera 1
property float view_px
property float view_py
property float view_pz
property float x_axisx
property float x_axisy
property float x_axisz
property float y_axisx
property float y_axisy
property float y_axisz
property float z_axisx
property float z_axisy
property float z_axisz
property float focal
property float scalex
property float scaley
property float centerx
property float centery
property int viewportx
property int viewporty
property float k1
property float k2
end_header
-0.057052985 0.021077638 0.19012569
-0.057435278 0.018122254 0.1917394
-0.054079764 0.026728164 0.18502268
-0.054742191 0.024598917 0.18672675
-0.055082235 0.02154202 0.18833473
-0.055469073 0.0179662 0.19040039
-0.056049362 0.014032729 0.19236943
-0.055964399 0.010243996 0.19487099
-0.055446852 0.007487556 0.19731045
-0.051012803 0.029805243 0.18208812
-0.051537652 0.027674086 0.18290623
-0.051979203 0.024730526 0.18409607
-0.052171759 0.02176887 0.18579769
-0.052409995 0.018270791 0.18821153
-0.053226102 0.01381008 0.19059122
-0.053399667 0.0096028214 0.19365467
-0.053419404 0.0063253781 0.1977109
-0.052421652 0.0024932576 0.20037605
-0.047549907 0.033139933 0.18002674
-0.048235882 0.031091703 0.1805602
-0.04857716 0.028338037 0.18128735
-0.04872229 0.024922509 0.18250264
-0.049471438 0.021975255 0.18514915
-0.050191399 0.017545154 0.18757223
-0.050985515 0.013596949 0.18989483
-0.050673395 0.0090034036 0.19350512
-0.050439857 0.0056338795 0.19744645
-0.048612092 -0.00059039943 0.19978286
-0.048157442 -0.0055899406 0.20091015
-0.048087917 -0.0091060251 0.20153482
-0.045547813 0.034130368 0.17914543
-0.045294642 0.031715356 0.17991485
-0.045471277 0.0284996 0.18072948
-0.045986012 0.024799557 0.18286417
-0.04686515 0.021732936 0.18551502
-0.047634508 0.017346419 0.18739669
-0.048413653 0.012988718 0.18956557
-0.048298713 0.0085977446 0.19289748
-0.046713077 0.0024582797 0.1972075
-0.045516893 -0.0029191715 0.19795182
-0.045288667 -0.0069151209 0.19902033
-0.045437034 -0.011291821 0.19990729
-0.04569919 -0.013804097 0.20131893
-0.048664745 -0.012845687 0.20524682
-0.049166996 -0.012513374 0.20975478
-0.043218665 0.0373892 0.17718782
-0.042989634 0.035314351 0.17854778
-0.04252601 0.032911427 0.17997089
-0.042405438 0.029831925 0.18126635
-0.043028962 0.024982939 0.1832182
-0.043726802 0.021546133 0.18584801
-0.044589072 0.017150173 0.18720926
-0.045162361 0.012343569 0.18882002
-0.04529975 0.007114022 0.19317134
-0.043374304 0.00049751654 0.19644161
-0.042617541 -0.0044690771 0.19631518
-0.042053428 -0.0081556169 0.19674996
-0.040545404 -0.011424387 0.19875349
-0.044052009 -0.012727464 0.20207146
-0.046165403 -0.012430537 0.20585565
-0.047130309 -0.012824073 0.20980497
-0.047656879 -0.013504996 0.2137364
-0.048431687 -0.013151436 0.21913369
-0.040716562 0.038582183 0.17683542
-0.040052976 0.036224399 0.17868841
-0.03941657 0.033722751 0.17994416
-0.039130747 0.030699177 0.18151082
-0.039394334 0.027158927 0.18373485
-0.040186964 0.022301564 0.1858293
-0.041267354 0.016967719 0.18721263
-0.042153236 0.011171062 0.18893878
-0.041786611 0.0053495876 0.19333135
-0.039960068 -0.00067386043 0.19555332
-0.039211329 -0.0051703718 0.19556528
-0.037895173 -0.0079253931 0.1971909
-0.03792277 -0.0098937694 0.20033307
-0.04041649 -0.012288731 0.20333982
-0.042845402 -0.012036025 0.20719855
-0.043651346 -0.012472343 0.21117698
-0.044312108 -0.013643688 0.21455161
-0.046030723 -0.01406303 0.22019738
-0.047136184 -0.018034844 0.22476548
-0.046815231 -0.021800546 0.22747174
-0.038258586 0.041985072 0.17610431
-0.037880402 0.040468279 0.17712517
-0.036953624 0.038459629 0.17897098
-0.035963122 0.034468457 0.18002744
-0.036077991 0.031101968 0.18207657
-0.036327392 0.027941268 0.18473035
-0.037003089 0.02305926 0.18688634
-0.037705544 0.016661972 0.1881738
-0.038752664 0.0097104739 0.19039324
-0.038650129 0.003451179 0.19374622
-0.037418175 -0.0014185254 0.19493547
-0.036215488 -0.0041418029 0.19632669
-0.035121247 -0.005943039 0.1994289
-0.035587966 -0.0082817897 0.2022654
-0.037335768 -0.010986807 0.20510341
-0.039480317 -0.012003493 0.20827404
-0.040433276 -0.012722859 0.21231762
-0.041456904 -0.014230597 0.21564545
-0.042870726 -0.014804551 0.2197074
-0.043163631 -0.017598607 0.22362188
-0.044095263 -0.021782987 0.2272578
-0.035041403 0.044882793 0.17677358
-0.03440623 0.043584704 0.17829284
-0.033850901 0.04122398 0.1805101
-0.033270605 0.037980009 0.1816394
-0.033063989 0.032484654 0.18276286
-0.033401087 0.028587792 0.18580937
-0.03423005 0.022654388 0.18832187
-0.034797609 0.016927449 0.18956289
-0.035293669 0.010591529 0.19141844
-0.036555126 0.0032069248 0.19399303
-0.035014383 -0.00030886626 0.19555217
-0.033426296 -0.002334526 0.1978499
-0.032677587 -0.0040923036 0.20043308
-0.033121198 -0.0066683395 0.20388645
-0.034374308 -0.0098649031 0.20736991
-0.036064282 -0.011857454 0.21015972
-0.037447993 -0.012932739 0.21400188
-0.038614061 -0.014354704 0.21710663
-0.0395911 -0.015824765 0.22021231
-0.03960596 -0.018220061 0.22335537
-0.040308539 -0.021110281 0.22719565
-0.040503826 -0.023908056 0.22918448
-0.031247303 0.046194885 0.17954867
-0.03102955 0.044466518 0.17973237
-0.030785732 0.041978009 0.18117112
-0.030424852 0.039068002 0.18272746
-0.030186871 0.034997366 0.18401842
-0.030607313 0.029585814 0.18622679
-0.031795256 0.022375613 0.18953785
-0.032019913 0.017695554 0.19063322
-0.032599721 0.01139208 0.1923181
-0.034537721 0.0045160796 0.19394694
-0.032850161 0.0023826093 0.19622448
-0.031035284 2.4659281e-05 0.19913647
-0.030867448 -0.0017891736 0.20163748
-0.031160781 -0.004850795 0.20475732
-0.031527199 -0.0087239202 0.20894881
-0.033249959 -0.010983121 0.21228971
-0.034680851 -0.01256428 0.21563193
-0.035741184 -0.014225555 0.21855843
-0.036669213 -0.015828146 0.22172989
-0.037152082 -0.017402159 0.22494732
-0.036931425 -0.019886639 0.22764513
-0.037352607 -0.023227764 0.23029822
-0.028514097 0.047067635 0.17958561
-0.028102377 0.045237575 0.18015368
-0.027656367 0.04254416 0.18149193
-0.027399017 0.039546747 0.18319631
-0.027323799 0.036234174 0.18458124
-0.027941059 0.030339498 0.18702117
-0.029146167 0.022591183 0.19071992
-0.029398954 0.018459538 0.19174577
-0.029723227 0.013352113 0.19350572
-0.0317984 0.0076528373 0.19427225
-0.030694267 0.0063677202 0.19612625
-0.02943288 0.0043679224 0.1986818
-0.028498679 0.0014399959 0.20158353
-0.028518409 -0.0009009238 0.2035211
-0.028915845 -0.0077574244 0.21030535
-0.030059814 -0.0098519269 0.21379922
-0.032355111 -0.011558777 0.21709907
-0.032519251 -0.013476806 0.22021121
-0.033540074 -0.01501107 0.22352447
-0.03427799 -0.016376887 0.22647563
-0.034379587 -0.018947585 0.22889012
-0.034597926 -0.021810513 0.22991735
-0.035702109 -0.023793081 0.23132603
-0.025082109 0.047112536 0.18002437
-0.024903115 0.04526924 0.18071401
-0.024513638 0.042507369 0.1816757
-0.024337346 0.039288595 0.1828512
-0.024547227 0.036257241 0.18479584
-0.025084579 0.031204766 0.18739781
-0.0261949 0.02308118 0.19215329
-0.026400698 0.019161806 0.19374411
-0.026299501 0.016304221 0.19545692
-0.02760601 0.01300655 0.19509007
-0.027472382 0.010581335 0.19673875
-0.026846517 0.0074227322 0.1990203
-0.025715603 0.0044195484 0.20210949
-0.025139058 0.0012118337 0.20541936
-0.02619982 -0.0035573517 0.20924605
-0.027298739 -0.0075112712 0.21368308
-0.028490389 -0.011174708 0.21812451
-0.029690094 -0.01352404 0.22209592
-0.030735539 -0.015614715 0.22482024
-0.031704821 -0.017812945 0.2279463
-0.031856652 -0.019964565 0.22909951
-0.032087129 -0.022036269 0.23031387
-0.032295987 -0.024881124 0.23301336
-0.021343248 0.045177061 0.18015902
-0.021066774 0.043400452 0.1809952
-0.021018934 0.040612802 0.18183979
-0.021291658 0.038009591 0.18282682
-0.021846296 0.035402514 0.18494461
-0.022374442 0.030501427 0.18856527
-0.022691967 0.024207048 0.19368327
-0.022448631 0.020312319 0.19592065
-0.023456825 0.01875937 0.19731709
-0.02346085 0.017644579 0.19812223
-0.023844497 0.014282071 0.19922288
-0.023604373 0.010993388 0.20069002
-0.022996586 0.0070282514 0.20329027
-0.02288333 0.0027001784 0.20761754
-0.023654981 -0.0017913509 0.21018538
-0.023934165 -0.0054293936 0.21360131
-0.024492798 -0.0082402425 0.21658275
-0.025595551 -0.0122725 0.22108182
-0.026660968 -0.015654894 0.22450612
-0.027547138 -0.01798337 0.22807796
-0.028040336 -0.019712014 0.22926986
-0.028110897 -0.022328604 0.23041697
-0.028127037 -0.025485236 0.23356915
-0.018010562 0.042408552 0.18157403
-0.018103767 0.040058676 0.18316485
-0.018236855 0.037306372 0.1840332
-0.018391579 0.034455109 0.18583427
-0.018587554 0.031075306 0.18908535
-0.018377835 0.026582625 0.1939536
-0.018510677 0.023218453 0.19697075
-0.020363256 0.020285856 0.1982037
-0.02023948 0.018154508 0.20025153
-0.020464871 0.015226067 0.20145512
-0.020567831 0.011930118 0.20284721
-0.020173689 0.0078172237 0.20579399
-0.020293623 0.0036917706 0.20933495
-0.020812903 -0.00040001568 0.21229699
-0.020820988 -0.0042906208 0.21542263
-0.021360643 -0.0077457386 0.21841091
-0.02210382 -0.011477006 0.22123326
-0.02305836 -0.014635316 0.22390059
-0.023939701 -0.017618088 0.22778822
-0.024195958 -0.019854663 0.22847541
-0.024473265 -0.022971911 0.22932401
-0.024161519 -0.026517602 0.23392494
-0.01478891 0.039579991 0.18443616
-0.0147116 0.037135608 0.18561293
-0.015007099 0.034058012 0.18762773
-0.015578143 0.030565152 0.19069214
-0.014155141 0.027182382 0.19508137
-0.015260508 0.023958324 0.19858181
-0.017026229 0.020810558 0.19969077
-0.017199904 0.017886261 0.20164488
-0.01723397 0.015316082 0.20264764
-0.017044658 0.012153688 0.20454909
-0.017129771 0.0083453758 0.20791073
-0.017066887 0.0043468443 0.21113001
-0.017704951 0.00057869218 0.21384101
-0.017572178 -0.0038486128 0.21734861
-0.01790037 -0.0076602455 0.22057456
-0.018489126 -0.011301466 0.22252883
-0.019398853 -0.014561761 0.22468835
-0.019887712 -0.01774247 0.22703639
-0.020318542 -0.020938288 0.22783041
-0.020830115 -0.024235724 0.23033495
-0.020066477 -0.027226122 0.23527132
-0.011793367 0.036874756 0.18708231
-0.011879219 0.033990346 0.18933374
-0.011950302 0.030858295 0.19216964
-0.010250996 0.027517142 0.19592397
-0.011374416 0.024122739 0.19952445
-0.013217346 0.021396775 0.20083581
-0.013793813 0.017855765 0.20283285
-0.013760397 0.014979418 0.20483088
-0.013707714 0.011788733 0.20714112
-0.013829117 0.0087524876 0.20935895
-0.013869772 0.0051912731 0.21214573
-0.01414089 0.0010914754 0.21551138
-0.014287183 -0.0035112391 0.21879299
-0.01451984 -0.0072181234 0.2217745
-0.014882516 -0.011017833 0.2236672
-0.015836598 -0.014262989 0.22536929
-0.015951006 -0.017439293 0.22706681
-0.016209839 -0.021036955 0.22858235
-0.016011324 -0.024980068 0.23248795
-0.014850912 -0.027803592 0.23741181
-0.0089558456 0.033721436 0.19092835
-0.0075838841 0.031111889 0.19407021
-0.0070321872 0.027838329 0.19789965
-0.0072431881 0.024517473 0.20056167
-0.0088818809 0.021539865 0.20224188
-0.010369412 0.018191464 0.2041156
-0.010626152 0.014983921 0.20611063
-0.010455465 0.011787511 0.20796503
-0.010281762 0.0090493532 0.20976305
-0.010633173 0.0061188363 0.21285151
-0.010529892 0.0020373375 0.21658558
-0.010915034 -0.0019675393 0.21985805
-0.011353577 -0.0054608434 0.22215851
-0.011248813 -0.0093421368 0.22392349
-0.011922359 -0.01321949 0.22469707
-0.011952415 -0.016966758 0.22761787
-0.011980568 -0.020982075 0.22982793
-0.010875992 -0.025108449 0.23440164
-0.004466807 0.030401545 0.19746722
-0.0032802806 0.027246481 0.19943278
-0.0030050233 0.024018325 0.20009588
-0.0042167795 0.020927388 0.2017968
-0.0060723359 0.01812765 0.20388466
-0.0072781104 0.015125435 0.2061896
-0.0071872477 0.012098121 0.20832127
-0.0070158322 0.0095568765 0.21028745
-0.0071126116 0.0065861549 0.21376951
-0.0070109051 0.0026874507 0.21765317
-0.0072874371 -0.0016431874 0.22108549
-0.0075221951 -0.005122168 0.22189377
-0.0076240422 -0.0087485192 0.22425112
-0.0077506676 -0.012439622 0.22520614
-0.0078506442 -0.0163383 0.22781199
-0.0086060558 -0.020710684 0.23012736
-0.0083716614 -0.023978792 0.23308176
-0.00081419403 0.02885687 0.19887272
0.00055764342 0.026010051 0.19800624
0.00044913215 0.022566639 0.19818985
-0.00046394378 0.019832004 0.20003495
-0.0014415932 0.017387444 0.20237523
-0.0018593092 0.015234733 0.20487556
-0.0029554823 0.012347891 0.2076681
-0.0030728332 0.0096327337 0.21119738
-0.0031458307 0.0065654512 0.21478368
-0.003053766 0.0030915176 0.21761847
-0.0035094682 -0.0011800003 0.22122516
-0.0037980424 -0.0048008263 0.22205116
-0.0038072623 -0.0084989732 0.22383454
-0.0044706836 -0.011977089 0.2253315
0.0029554761 0.024088128 0.19666307
0.0030432972 0.021605534 0.19707493
0.0024613284 0.019190509 0.19878958
0.0023130579 0.017097156 0.20122546
0.0025770841 0.015181588 0.20416394
0.0020919347 0.013199396 0.20797363
0.0013061325 0.010024162 0.21126704
0.00061947806 0.0067871949 0.21467222
0.00027102118 0.00315817 0.21723175
-0.00026417314 -0.00079379941 0.21999183
-0.0011859781 -0.0044358661 0.22223441
0.0056429273 0.020864081 0.19689791
0.0054540215 0.018830823 0.19811234
0.0055679246 0.016682141 0.20040716
0.0056109042 0.014849154 0.20379658
0.0048680832 0.013164614 0.20790176
0.0041298396 0.011248726 0.21022788
0 0 0 1 0 0 0 1 0 0 0 1 0 0 0 0 0 346 1 0 0
