ply
format ascii 1.0
comment PCL generated
element vertex 346
property float x
property float y
property float z
element camera 1
property float view_px
property float view_py
property float view_pz
property float x_axisx
property float x_axisy
property float x_axisz
property float y_axisx
property float y_axisy
property float y_axisz
property float z_axisx
property float z_axisy
property float z_axisz
property float focal
property float scalex
property float scaley
property float centerx
property float centery
property int viewportx
property int viewporty
property float k1
property float k2
end_header
-0.057117693 0.020103956 0.18976678
-0.05750208 0.017022645 0.19131604
-0.054102071 0.025795175 0.18481727
-0.054753013 0.023654042 0.18658119
-0.05513943 0.020520141 0.18816569
-0.055504005 0.016969481 0.1901214
-0.055946846 0.013105003 0.19197321
-0.055721696 0.0094288345 0.19448143
-0.055086352 0.0065162675 0.19695544
-0.051262457 0.028905215 0.18196626
-0.05163252 0.026775217 0.18275337
-0.051935647 0.023922805 0.18407521
-0.052108493 0.020984199 0.18567038
-0.052314751 0.017495293 0.18804002
-0.053067546 0.013117286 0.19047482
-0.053119734 0.0090012467 0.19349241
-0.053038049 0.00534679 0.19734852
-0.051363759 0.0013736183 0.2001677
-0.04773568 0.032263629 0.18021439
-0.048426412 0.03028053 0.18058743
-0.048686601 0.027582131 0.18135899
-0.048715658 0.024308681 0.18275666
-0.049453132 0.021294532 0.18518767
-0.050059233 0.016837478 0.18758032
-0.050788935 0.013028253 0.18998177
-0.050434433 0.0084147993 0.19345251
-0.049841695 0.0047003436 0.1970627
-0.047168259 -0.002019949 0.19869216
-0.046654072 -0.0074131968 0.19893132
-0.046721272 -0.010834033 0.19920672
-0.045750912 0.03325785 0.1796288
-0.045488462 0.030996632 0.1802865
-0.045581259 0.027916612 0.1811493
-0.046126377 0.024416111 0.1833228
-0.046935309 0.021093968 0.18561332
-0.047535341 0.016676124 0.18729857
-0.04824033 0.012447878 0.18977995
-0.048115298 0.0080249319 0.19282237
-0.045636158 0.0011307515 0.19628914
-0.044031899 -0.0046820706 0.19610311
-0.04392666 -0.0087413164 0.19663179
-0.044279866 -0.013005807 0.19766235
-0.04477793 -0.015380589 0.19890906
-0.047580801 -0.014242409 0.202722
-0.047892686 -0.01356168 0.20754993
-0.043355234 0.03655095 0.17786191
-0.04314113 0.034541693 0.17914414
-0.042703748 0.032303821 0.18040466
-0.042597134 0.029317809 0.18174963
-0.04329339 0.0247554 0.18376635
-0.043813165 0.020942664 0.18585086
-0.044518888 0.016445693 0.18700179
-0.045090176 0.011659705 0.18911751
-0.044857614 0.0060620108 0.19301648
-0.042051334 -0.0013509829 0.19488657
-0.041207902 -0.0064909938 0.19401017
-0.040690362 -0.01014601 0.19403352
-0.039180744 -0.013592437 0.19616915
-0.043042004 -0.01447284 0.19958569
-0.045054857 -0.013927983 0.2034332
-0.045909513 -0.01397779 0.20766684
-0.046317477 -0.014476918 0.21176076
-0.046924941 -0.014554658 0.2169992
-0.040904351 0.037770808 0.17741193
-0.040236868 0.035545323 0.17933135
-0.039662432 0.033256423 0.1806626
-0.039457902 0.030421278 0.18209392
-0.039691649 0.026724037 0.18390569
-0.039981328 0.021305224 0.18570964
-0.041221119 0.016070962 0.18712585
-0.042453192 0.010291711 0.18927766
-0.04157659 0.0038599719 0.19255002
-0.038616825 -0.0029193426 0.19331002
-0.037762854 -0.0075717759 0.19285381
-0.036168594 -0.010603827 0.1943486
-0.036300335 -0.012373389 0.19759801
-0.039193183 -0.014375308 0.2009145
-0.041629594 -0.013713772 0.20488985
-0.04234894 -0.013918629 0.20898949
-0.042979497 -0.014934689 0.21254751
-0.04475145 -0.015782339 0.21797247
-0.045934282 -0.019222384 0.22257553
-0.045914587 -0.022438755 0.22559327
-0.03851055 0.040974807 0.17574932
-0.038096976 0.039531693 0.17680117
-0.037115507 0.037682377 0.17857543
-0.036481414 0.03435171 0.1806791
-0.036535129 0.030868771 0.18243594
-0.036407217 0.027119912 0.18435083
-0.036538582 0.021279823 0.18608423
-0.037815664 0.015009171 0.18764356
-0.039034378 0.0082195532 0.19013616
-0.03793947 0.0014599987 0.19222577
-0.036071926 -0.0039458917 0.19229405
-0.034457471 -0.0070020431 0.19326779
-0.033325646 -0.0088064158 0.19639571
-0.033958141 -0.010830292 0.19949797
-0.035891864 -0.013205237 0.20252362
-0.038196642 -0.013923873 0.20587799
-0.039134569 -0.014446735 0.2101649
-0.040354792 -0.015776906 0.21364437
-0.04164106 -0.016686525 0.21758679
-0.041900739 -0.019307418 0.22136094
-0.043238051 -0.022804797 0.22561941
-0.035319928 0.043624006 0.17464131
-0.034514844 0.04245105 0.17607106
-0.033753231 0.040312946 0.17835157
-0.033204295 0.03715875 0.18004391
-0.033327557 0.031977549 0.18247978
-0.033258285 0.027484743 0.184946
-0.033768583 0.020455046 0.18691386
-0.034737308 0.014914861 0.18827671
-0.035372842 0.0087303072 0.19023812
-0.035870232 0.0010422787 0.19202445
-0.033761296 -0.0028815712 0.19262442
-0.031817932 -0.0050876862 0.19459696
-0.031039914 -0.006782305 0.19731368
-0.031423375 -0.0093272198 0.20098849
-0.032767572 -0.012246186 0.20475689
-0.034699071 -0.014077403 0.20773098
-0.036141604 -0.015044292 0.21187779
-0.037475172 -0.016207032 0.21503614
-0.038402677 -0.017868349 0.21802135
-0.038335688 -0.020154053 0.22118282
-0.039302014 -0.022431793 0.22542688
-0.039783344 -0.024877466 0.22782962
-0.031135228 0.045021512 0.1767392
-0.030937014 0.043377902 0.17710605
-0.030579146 0.041070901 0.17874472
-0.030165454 0.038337436 0.18058161
-0.030091172 0.034138691 0.18262675
-0.030468021 0.028395157 0.18498373
-0.031431742 0.020114928 0.18762864
-0.031839922 0.015459186 0.18873692
-0.032569643 0.0095471488 0.1903642
-0.034040611 0.0024562024 0.1917797
-0.031761639 4.689319e-05 0.193249
-0.029607238 -0.0024840052 0.19582787
-0.029379459 -0.004371901 0.19853953
-0.029512409 -0.007594204 0.20174016
-0.029762819 -0.011388144 0.20618463
-0.031744175 -0.01352872 0.20979378
-0.033512492 -0.014712974 0.21329637
-0.034579456 -0.016300296 0.21640992
-0.035387766 -0.018144753 0.21935195
-0.035712827 -0.019606445 0.2224776
-0.03562915 -0.021580851 0.22551514
-0.036487676 -0.024513841 0.22871611
-0.028402803 0.045885023 0.17653373
-0.027961254 0.04419658 0.17727017
-0.027417587 0.041707408 0.17881359
-0.027052345 0.03902879 0.18090871
-0.027076241 0.035680559 0.18288071
-0.027748641 0.029342931 0.18529984
-0.028855145 0.020350777 0.18831643
-0.029133761 0.016229438 0.1893243
-0.029427651 0.011502905 0.19089365
-0.031232676 0.0058095199 0.19162908
-0.029871304 0.0044757803 0.19294396
-0.028331343 0.0024323601 0.19511957
-0.027176039 -0.00070272555 0.19807418
-0.027184883 -0.0034457047 0.20046616
-0.027534552 -0.010153454 0.20750642
-0.028743885 -0.012161586 0.21122555
-0.031063167 -0.013874535 0.21457626
-0.031298213 -0.015807355 0.21805204
-0.032172691 -0.017660491 0.22098966
-0.032827843 -0.019060032 0.22376242
-0.033216164 -0.021475989 0.22627904
-0.033728238 -0.023774147 0.22763117
-0.035000905 -0.02512241 0.22945288
-0.024920784 0.046012118 0.1770836
-0.024729609 0.044365771 0.17793112
-0.024237759 0.041895486 0.17932941
-0.023990987 0.039006222 0.18101992
-0.024435515 0.035920236 0.18331963
-0.025056243 0.030252282 0.18578905
-0.025872761 0.020886058 0.18933314
-0.025932405 0.017095162 0.19077544
-0.025576139 0.014551384 0.19214357
-0.027171617 0.01149104 0.19202951
-0.026848461 0.0092116976 0.19347991
-0.026093375 0.0059386687 0.19552693
-0.024737395 0.0027209434 0.19843274
-0.023874022 -0.00086569611 0.20193619
-0.024808673 -0.0061789285 0.20635767
-0.026165688 -0.010004221 0.21116012
-0.027273806 -0.013398854 0.21609172
-0.028374719 -0.015995516 0.22039434
-0.029540351 -0.018275669 0.22276853
-0.030963358 -0.020542962 0.22576354
-0.031193566 -0.022349553 0.22694919
-0.031638999 -0.023855813 0.22847335
-0.032122087 -0.025963124 0.23147745
-0.021317316 0.044397824 0.17864315
-0.021101831 0.042849027 0.1797985
-0.021134274 0.040246431 0.18104731
-0.021479763 0.037752204 0.18211244
-0.022147899 0.035209302 0.18415384
-0.022485968 0.0297317 0.18737155
-0.022286942 0.022407558 0.19070072
-0.021683984 0.018695425 0.19276549
-0.022244921 0.017113825 0.19403137
-0.021834234 0.016170254 0.19489609
-0.022364559 0.012932039 0.19596829
-0.02244379 0.0097087789 0.19739567
-0.021818068 0.0055377255 0.19996828
-0.021269457 0.00036949603 0.20440318
-0.022353357 -0.0044956221 0.20765759
-0.023008632 -0.0078878095 0.21151033
-0.023601145 -0.010687518 0.21514711
-0.024922134 -0.014105123 0.22080873
-0.025903208 -0.017691096 0.22377743
-0.02711348 -0.020172836 0.22665192
-0.027641796 -0.021593334 0.22772869
-0.027968176 -0.023662804 0.22888558
-0.028304338 -0.026533457 0.23206548
-0.018179525 0.04185798 0.18116786
-0.018467329 0.03964128 0.18282427
-0.018714236 0.036981963 0.18384847
-0.018955881 0.03427916 0.1857481
-0.018823955 0.030831922 0.18883583
-0.017956089 0.025458254 0.19259904
-0.017139567 0.021341387 0.19453403
-0.018750211 0.018504571 0.1955388
-0.018492196 0.016384838 0.19765739
-0.01887008 0.013710788 0.1987645
-0.019179951 0.01053216 0.20002715
-0.01897108 0.0061759078 0.20303674
-0.018969052 0.0013695743 0.20663439
-0.019706972 -0.0028244576 0.20973569
-0.020198634 -0.0065332791 0.21376564
-0.020855099 -0.0096932529 0.21760492
-0.021850206 -0.012955002 0.22120063
-0.022957103 -0.016106134 0.22392753
-0.023841774 -0.01944039 0.22689554
-0.024066206 -0.021294987 0.22722857
-0.024385614 -0.024071909 0.22814184
-0.024532769 -0.027317809 0.23276585
-0.015217618 0.039194502 0.18442065
-0.015147663 0.036855653 0.18567325
-0.01536995 0.033789631 0.18759957
-0.015644265 0.030077925 0.19021565
-0.013429832 0.02611794 0.19413935
-0.014065555 0.022414066 0.19699328
-0.01552626 0.018759353 0.19761714
-0.015750762 0.016043963 0.19961548
-0.015804423 0.013749109 0.20055155
-0.015819008 0.010718859 0.20248778
-0.016252857 0.0066440525 0.20602877
-0.01624456 0.0022328564 0.20904203
-0.017015725 -0.0015346484 0.21161349
-0.017336842 -0.0056419452 0.21621661
-0.017773677 -0.0090654045 0.22032478
-0.018509407 -0.012294946 0.2228739
-0.019603882 -0.015550061 0.22504982
-0.02001217 -0.018808834 0.22677758
-0.020357681 -0.021694165 0.22713545
-0.021063652 -0.024935739 0.22960483
-0.020709924 -0.027771803 0.23471428
-0.012182436 0.036592919 0.18725963
-0.012144473 0.033581614 0.18924695
-0.011843295 0.030150173 0.19155942
-0.0094685024 0.026585888 0.19524027
-0.01048909 0.023006942 0.19870895
-0.012291043 0.019944964 0.19948626
-0.01292942 0.016354794 0.20141169
-0.012751488 0.013450125 0.20350295
-0.012838855 0.010237494 0.20583926
-0.01313703 0.007185379 0.2081338
-0.013422964 0.0036599415 0.21077934
-0.014063883 -0.00041719878 0.21409567
-0.014232324 -0.004831329 0.21827051
-0.014660192 -0.0082183219 0.22186588
-0.015062761 -0.011648418 0.22424981
-0.016259288 -0.014773355 0.22588539
-0.016347079 -0.017841943 0.22714959
-0.016583389 -0.021330036 0.22850689
-0.016612966 -0.025239311 0.23245171
-0.015771527 -0.028108196 0.23744799
-0.0090015503 0.033072893 0.1907718
-0.007187488 0.030303372 0.19360833
-0.0062500355 0.02703636 0.19755159
-0.0064999736 0.023798319 0.20064227
-0.0083986847 0.020770593 0.20196113
-0.010065764 0.017191667 0.2034978
-0.010098259 0.013709223 0.20556115
-0.0097819585 0.010266047 0.2071
-0.0098237665 0.007652171 0.20872933
-0.010496189 0.004949322 0.21185888
-0.010441095 0.0010869933 0.21593438
-0.010734471 -0.0029479912 0.21946613
-0.011364139 -0.0061837309 0.22216479
-0.011243806 -0.0097827679 0.22443467
-0.012247154 -0.013279736 0.2255322
-0.012592495 -0.017078143 0.22810033
-0.01258236 -0.021153888 0.23021917
-0.011587505 -0.025307614 0.23498143
-0.0039157714 0.029719347 0.19721679
-0.0025795305 0.026742024 0.19990808
-0.0021861929 0.023569543 0.20138241
-0.0035665173 0.020526003 0.20304513
-0.0058258777 0.017644366 0.20460509
-0.006825082 0.01392003 0.20621295
-0.0067514251 0.010672963 0.2077105
-0.0067697344 0.0082566552 0.20953207
-0.0070990194 0.0056470172 0.21314465
-0.0068636476 0.0017827463 0.21723509
-0.0071814419 -0.0024144144 0.22108778
-0.0074220672 -0.005704917 0.22216815
-0.0076254965 -0.0091080517 0.22473171
-0.0078555709 -0.012576817 0.22603229
-0.0084084291 -0.016198875 0.22869235
-0.0092511186 -0.020725258 0.23078667
-0.009028879 -0.024067927 0.23387071
-0.00020904858 0.028381851 0.19958274
0.001376019 0.025714274 0.19973078
0.0015079005 0.022354294 0.20052198
0.00043717847 0.019582082 0.20216544
-0.00071622373 0.017020877 0.20409809
-0.0013372966 0.014519575 0.20595726
-0.0026292794 0.01120842 0.20775028
-0.0029513265 0.0086432341 0.21095006
-0.0029821631 0.0057306034 0.21458508
-0.0028406775 0.0022267855 0.21756376
-0.0034464954 -0.0018523162 0.22138737
-0.0036962864 -0.0053349095 0.22239338
-0.0037271932 -0.008937533 0.22425213
-0.0044980375 -0.012294157 0.225853
0.0039650863 0.023930291 0.19909306
0.0041771899 0.021483431 0.19968437
0.0034820403 0.019034056 0.2011033
0.0031373734 0.016808379 0.20320876
0.0031788668 0.014660597 0.20587818
0.0023874359 0.01225273 0.2089103
0.0017042526 0.0091808718 0.21153727
0.00093044457 0.005947188 0.21492788
0.00055930897 0.0024218101 0.2175464
-0.00013542698 -0.0014063739 0.22031938
-0.0011193672 -0.0049730013 0.2226395
0.0067500537 0.020839972 0.19972461
0.0065057403 0.018769452 0.20076461
0.0064563956 0.016515857 0.20276468
0.0061944826 0.014449474 0.20579675
0.005188196 0.012449248 0.20917206
0.0044568176 0.010525272 0.21090399
0 0 0 1 0 0 0 1 0 0 0 1 0 0 0 0 0 346 1 0 0
