ply
format ascii 1.0
comment PCL generated
element vertex 346
property float x
property float y
property float z
element camera 1
property float view_px
property float view_py
property float view_pz
property float x_axisx
property float x_axisy
property float x_axisz
property float y_axisx
property float y_axisy
property float y_axisz
property float z_axisx
property float z_axisy
property float z_axisz
property float focal
property float scalex
property float scaley
property float centerx
property float centery
property int viewportx
property int viewporty
property float k1
property float k2
end_header
-0.056987707 0.019489229 0.18915918
-0.057245698 0.01645381 0.19083549
-0.054051179 0.025216369 0.18417391
-0.054721497 0.023060428 0.18587996
-0.05509299 0.019892085 0.18752633
-0.055311508 0.016431071 0.18955415
-0.055687819 0.012676961 0.19148955
-0.055397488 0.0089123948 0.19372068
-0.054650482 0.0056244349 0.19596332
-0.051356219 0.028336488 0.18154499
-0.051681466 0.026208574 0.18220207
-0.05191201 0.023453247 0.1834452
-0.052040562 0.020481 0.18501736
-0.052192912 0.017074468 0.18738915
-0.052952643 0.012641409 0.18982092
-0.0529906 0.008440231 0.19252381
-0.052726198 0.004504052 0.1960879
-0.051313616 0.00047293556 0.19869442
-0.047939811 0.031647969 0.17963812
-0.048593562 0.029768476 0.18009551
-0.048832525 0.027078172 0.18074876
-0.048816089 0.023865256 0.18202619
-0.049453463 0.020842252 0.18438245
-0.050039537 0.016498804 0.18690144
-0.050732359 0.012558932 0.18914643
-0.050352752 0.0077667702 0.19216771
-0.049856775 0.0038503767 0.19555445
-0.04720195 -0.0029176567 0.19663978
-0.046730131 -0.0083063478 0.19640179
-0.046859775 -0.011651252 0.19657056
-0.046061922 0.032658163 0.17893268
-0.045792274 0.030446647 0.17951076
-0.045811485 0.027402608 0.18033987
-0.046334852 0.023976289 0.18240349
-0.047007855 0.020608271 0.18455656
-0.047566526 0.016258644 0.18624717
-0.048237003 0.011943608 0.1886151
-0.048072401 0.0073377471 0.19135815
-0.045740601 0.00034000498 0.19430932
-0.044229478 -0.0054808287 0.19331053
-0.044145621 -0.0095316991 0.19353987
-0.044572074 -0.013762033 0.19472764
-0.045153093 -0.016016187 0.1963491
-0.047767002 -0.014738961 0.20067422
-0.047916509 -0.013836818 0.2057656
-0.043833055 0.036073692 0.17729433
-0.043564461 0.034043174 0.17836784
-0.043100428 0.031834088 0.17946869
-0.042926025 0.028839359 0.18076192
-0.043542739 0.024325557 0.18261144
-0.043885574 0.020441948 0.18440251
-0.044585336 0.015943136 0.18550873
-0.045205459 0.01114549 0.18758217
-0.045031071 0.005387336 0.19128023
-0.042269148 -0.0020532294 0.19208376
-0.041465733 -0.0071001924 0.19046302
-0.041024227 -0.010775034 0.19033489
-0.039603915 -0.014356037 0.19297436
-0.043415118 -0.015106594 0.19708109
-0.045290265 -0.01436204 0.20141439
-0.045967102 -0.014269109 0.20584068
-0.046173532 -0.01471112 0.21002801
-0.046248015 -0.014631361 0.2153168
-0.041398022 0.03741245 0.17680202
-0.040673275 0.035152569 0.17851421
-0.040135514 0.032907847 0.17972192
-0.03988814 0.030161941 0.18098409
-0.040082071 0.026444189 0.18255292
-0.040156905 0.020829232 0.1838841
-0.041388944 0.015594779 0.18522198
-0.042811267 0.0097992951 0.18750596
-0.041709889 0.0030906559 0.19003208
-0.03890831 -0.0035161059 0.18964697
-0.038008008 -0.008217033 0.18883796
-0.036465716 -0.01142672 0.19062595
-0.036692414 -0.01311976 0.1944716
-0.039543487 -0.014942097 0.19850622
-0.041807175 -0.014171342 0.20279327
-0.042356275 -0.014308949 0.20698711
-0.042836368 -0.015269498 0.21065378
-0.044193666 -0.016084528 0.21624866
-0.045232426 -0.019572368 0.22073916
-0.045140065 -0.02261336 0.22393146
-0.03897414 0.040845208 0.17538628
-0.038594231 0.039326854 0.17632844
-0.037526838 0.037513554 0.17798249
-0.037011735 0.03430194 0.17978969
-0.037027165 0.030788142 0.18126498
-0.036806628 0.026891379 0.18284921
-0.03677645 0.020830292 0.18379761
-0.038181238 0.014444048 0.18526976
-0.039821412 0.0077443672 0.18793069
-0.038440149 0.00085819419 0.18904655
-0.036255624 -0.0046730055 0.18823291
-0.034594711 -0.0078464001 0.18919341
-0.033620425 -0.0096313199 0.19269891
-0.034340803 -0.011500301 0.19635545
-0.036138058 -0.013725341 0.19986141
-0.038334541 -0.014430523 0.20356402
-0.039174598 -0.014904256 0.20802
-0.040109053 -0.016122464 0.2116282
-0.041144151 -0.017093632 0.21568242
-0.04128113 -0.019815823 0.2192359
-0.042486493 -0.023077531 0.22377525
-0.035776135 0.04363697 0.1742883
-0.034919739 0.042468205 0.17566584
-0.034080289 0.040309403 0.17790845
-0.033559885 0.037130348 0.17953497
-0.033860482 0.031950247 0.18135364
-0.033644184 0.027273957 0.18332395
-0.033964805 0.019962229 0.18428294
-0.035021357 0.014256875 0.18538949
-0.036088195 0.0080580702 0.18749622
-0.036266427 0.00033586912 0.18848293
-0.033866171 -0.003678482 0.18860802
-0.032015257 -0.0059186332 0.19064687
-0.031392366 -0.0076160142 0.19357407
-0.031819258 -0.0099716382 0.19771147
-0.03302855 -0.012589352 0.20202681
-0.03486497 -0.014459631 0.20528682
-0.036141951 -0.015507519 0.20957352
-0.037200227 -0.01676769 0.21283062
-0.038011868 -0.018479489 0.21585388
-0.037797324 -0.020727305 0.21893784
-0.038516559 -0.022865048 0.22332114
-0.038974579 -0.025168505 0.22588401
-0.031514373 0.045057401 0.17650233
-0.031295113 0.043440986 0.17678954
-0.030878326 0.041107178 0.17828375
-0.030435044 0.038337987 0.17997693
-0.030505516 0.034010902 0.18170671
-0.030914666 0.028227538 0.18340786
-0.031667158 0.019659715 0.18489042
-0.032094892 0.01483512 0.18560921
-0.032963362 0.0086831627 0.18709812
-0.034471158 0.0017608345 0.18836519
-0.03205679 -0.00065963092 0.18965669
-0.030024335 -0.0032892483 0.19224358
-0.0297629 -0.0053022737 0.19488755
-0.029905969 -0.008333738 0.19833556
-0.03015822 -0.011575637 0.20341805
-0.03199812 -0.013678537 0.20729649
-0.033337515 -0.015391706 0.21071886
-0.034234297 -0.017048681 0.21397692
-0.034849595 -0.018964658 0.21684438
-0.034964886 -0.020322077 0.21995039
-0.034763854 -0.022091504 0.2230787
-0.035596695 -0.024899552 0.22645341
-0.028790336 0.046012681 0.17629044
-0.028327322 0.044356007 0.17695509
-0.027695056 0.041841388 0.1783188
-0.027227104 0.039090671 0.18012199
-0.027328577 0.035606991 0.18186566
-0.028128926 0.029179363 0.18371902
-0.029145131 0.019929877 0.18567508
-0.029392464 0.01571119 0.1862867
-0.029760877 0.010822794 0.18746427
-0.031874377 0.0050928551 0.18845966
-0.030389814 0.0037928384 0.18954083
-0.028663781 0.0016797016 0.19141594
-0.027337087 -0.0016754102 0.19422291
-0.027380092 -0.0045288019 0.19677433
-0.027626146 -0.010697758 0.20461579
-0.028610973 -0.012618972 0.20840044
-0.03081584 -0.014589059 0.21187292
-0.030848237 -0.016705323 0.215436
-0.031539235 -0.018691914 0.21822016
-0.032021634 -0.020017238 0.22082981
-0.032379132 -0.022367846 0.22340161
-0.032915697 -0.0243614 0.22490078
-0.03409373 -0.025403401 0.22678013
-0.025286263 0.046178687 0.17688161
-0.025049951 0.044542313 0.17760459
-0.024457281 0.04207968 0.17878599
-0.024101848 0.039141372 0.18004082
-0.024628254 0.035800297 0.18212038
-0.025422329 0.029913938 0.18432856
-0.02623917 0.020466859 0.18689473
-0.026275177 0.016653802 0.18801627
-0.025915746 0.014117341 0.18920797
-0.027563719 0.010998975 0.188742
-0.027149905 0.0086183762 0.18981284
-0.026207959 0.0052264244 0.19151957
-0.024609199 0.001833003 0.19413741
-0.023523826 -0.0020087268 0.19797036
-0.024939429 -0.0070327763 0.20353261
-0.026366813 -0.010522574 0.20868
-0.027086146 -0.013951557 0.21358706
-0.027865911 -0.017215716 0.2174388
-0.028907677 -0.019512378 0.21967681
-0.030253135 -0.021655273 0.22264032
-0.030566575 -0.02323016 0.22392157
-0.030967513 -0.024360921 0.22562218
-0.031471565 -0.02591341 0.22883336
-0.021664489 0.044438548 0.17832795
-0.021407187 0.042838339 0.17926377
-0.021400562 0.040170193 0.18023033
-0.021721618 0.037631817 0.18104157
-0.022431029 0.034952853 0.18284176
-0.022742182 0.029470332 0.1860729
-0.022659145 0.022102416 0.1888413
-0.022089949 0.018389892 0.1905141
-0.02242831 0.016739735 0.19138613
-0.021689761 0.015793938 0.19202761
-0.021983828 0.012492468 0.19265193
-0.022014018 0.0091813272 0.19369192
-0.021282535 0.0047126026 0.19605094
-0.020428654 -0.00097286631 0.20114343
-0.022125099 -0.0056431228 0.20523885
-0.023115652 -0.0086932173 0.20945008
-0.023596924 -0.011615586 0.21340691
-0.024838913 -0.014989909 0.21892424
-0.025484141 -0.018697126 0.22099592
-0.026576612 -0.021141589 0.22353244
-0.027089143 -0.022264641 0.22467826
-0.027488593 -0.023918508 0.22611788
-0.027864706 -0.026278595 0.2295846
-0.018504124 0.04163561 0.180511
-0.018808005 0.039333899 0.18198304
-0.019081686 0.036619928 0.18286787
-0.019330136 0.033972207 0.18470305
-0.019013101 0.030681929 0.18787323
-0.01780298 0.025156809 0.19126001
-0.01690639 0.020638237 0.1922345
-0.018521253 0.017921012 0.1928926
-0.017949214 0.015577401 0.19468792
-0.018182226 0.012911865 0.1954605
-0.018340271 0.0096603818 0.19629951
-0.018137714 0.0050648251 0.19942334
-0.018134359 4.1593765e-05 0.20355102
-0.019177457 -0.0040450892 0.20713584
-0.020110307 -0.0075688199 0.21171972
-0.020743992 -0.010646435 0.21596061
-0.021993808 -0.013701056 0.21989058
-0.023082349 -0.01694289 0.22205
-0.023707844 -0.020199282 0.22419073
-0.023834145 -0.021712756 0.22447348
-0.024111954 -0.02402862 0.22563426
-0.024437143 -0.026743572 0.23060907
-0.015646692 0.038793147 0.18359834
-0.015575576 0.036501002 0.1848006
-0.015696423 0.033543408 0.18672781
-0.015733207 0.029903363 0.18919712
-0.012945465 0.025793353 0.19275899
-0.013572617 0.021580782 0.19473322
-0.015178499 0.017816305 0.19500849
-0.015239586 0.015112626 0.1968122
-0.015159029 0.012853228 0.19750683
-0.015078514 0.0097023062 0.19918138
-0.015476939 0.0054656398 0.20292939
-0.015567892 0.0010276444 0.20621873
-0.016526664 -0.0027037463 0.20899367
-0.017125657 -0.0067706555 0.21421474
-0.017661499 -0.010045772 0.21873616
-0.018663894 -0.01304306 0.22153215
-0.01995464 -0.016389497 0.22347671
-0.020200778 -0.019424761 0.22476734
-0.020418527 -0.021675648 0.22498277
-0.021079443 -0.024445532 0.22770117
-0.020958461 -0.02696326 0.23295875
-0.012556528 0.036181405 0.1864254
-0.012407939 0.033300437 0.18831372
-0.011829719 0.029950101 0.19043405
-0.0090427967 0.026346615 0.19411513
-0.010090924 0.02229047 0.19680823
-0.012019726 0.019098708 0.19710927
-0.012520798 0.015476481 0.1988707
-0.012143934 0.012451367 0.20080851
-0.012083667 0.0091290465 0.20304874
-0.01244793 0.0061070053 0.20551091
-0.012919425 0.0025787533 0.20822071
-0.01371875 -0.0013906896 0.21169999
-0.013918979 -0.0060365861 0.2163979
-0.014523702 -0.0092641842 0.22030173
-0.015218296 -0.012399688 0.22279163
-0.016698491 -0.015366935 0.22426553
-0.016845779 -0.018286152 0.22534145
-0.016951887 -0.02129457 0.22667813
-0.016988268 -0.024659555 0.23098949
-0.016596863 -0.027562348 0.23612425
-0.0091861207 0.032800734 0.18985014
-0.0071276301 0.03024544 0.19279104
-0.0059614452 0.026848111 0.19677304
-0.0061843046 0.023258913 0.1994587
-0.0081716161 0.020124217 0.20000389
-0.0098173339 0.016398013 0.2011276
-0.0096835652 0.012778138 0.20298427
-0.0093328794 0.0093979668 0.20472236
-0.0094121462 0.0068533495 0.20646752
-0.010248915 0.0041795578 0.20959608
-0.01020076 7.5352116e-05 0.21390937
-0.010374046 -0.0041568242 0.21767734
-0.011186216 -0.0071408632 0.22065619
-0.011225271 -0.010432066 0.22328767
-0.012756377 -0.013636304 0.22433648
-0.013328624 -0.017185131 0.22676542
-0.013264206 -0.020999065 0.22900161
-0.012423733 -0.024857618 0.23423819
-0.003845565 0.029754478 0.1967219
-0.0023997964 0.0266807 0.19952101
-0.0018516213 0.023463804 0.20089801
-0.0031869046 0.020308349 0.2021067
-0.005549788 0.017305527 0.20285207
-0.0067388308 0.013364946 0.20416568
-0.0065828371 0.010077203 0.20573363
-0.0066442033 0.0077258092 0.20764641
-0.0071961153 0.0050812066 0.21148637
-0.0066394219 0.00078127638 0.21552679
-0.0069871824 -0.0033617099 0.2195878
-0.0072882036 -0.0064193173 0.22103342
-0.0076990752 -0.009488048 0.22395097
-0.0081918035 -0.012678778 0.22554564
-0.0092507713 -0.015917344 0.22809182
-0.01009515 -0.020380946 0.23002979
-0.0099051213 -0.023585685 0.23341276
-0.00015289475 0.028483341 0.19940384
0.0016445743 0.025936229 0.19971293
0.0020033093 0.022558531 0.20048667
0.00097207696 0.019741379 0.20185496
-0.00019710767 0.017171599 0.20362358
-0.0010171927 0.014753225 0.20535319
-0.0026716262 0.011206886 0.20680356
-0.0030786495 0.0083488515 0.20985745
-0.0030599928 0.0051631946 0.21339308
-0.002696305 0.0014488125 0.21636415
-0.0033508942 -0.0026063514 0.22024839
-0.0036246893 -0.0058998466 0.22160918
-0.0038698437 -0.0092280181 0.22385575
-0.0048669488 -0.012339347 0.22572576
0.0044102822 0.024326978 0.19929054
0.0047677737 0.021887314 0.1998153
0.0040864516 0.019409196 0.20101459
0.0037341639 0.017173717 0.20305938
0.0036337527 0.015025566 0.20575294
0.0026807077 0.012295161 0.20854555
0.0019129567 0.00872673 0.21060625
0.00097744714 0.0053674304 0.21398386
0.0006123081 0.0018073489 0.21673231
-1.7594586e-05 -0.0020394819 0.21958908
-0.0011716489 -0.0054707793 0.22211358
0.0073324726 0.021387974 0.20003287
0.0071239299 0.019311022 0.2009792
0.007046687 0.017041201 0.20292184
0.006636702 0.0148891 0.20590872
0.0054664887 0.012651823 0.20892437
0.0047433288 0.010371118 0.21016599
0 0 0 1 0 0 0 1 0 0 0 1 0 0 0 0 0 346 1 0 0
