ply
format ascii 1.0
comment PCL generated
element vertex 346
property float x
property float y
property float z
element camera 1
property float view_px
property float view_py
property float view_pz
property float x_axisx
property float x_axisy
property float x_axisz
property float y_axisx
property float y_axisy
property float y_axisz
property float z_axisx
property float z_axisy
property float z_axisz
property float focal
property float scalex
property float scaley
property float centerx
property float centery
property int viewportx
property int viewporty
property float k1
property float k2
end_header
-0.056776788 0.019241605 0.188798
-0.057007812 0.016206035 0.19045904
-0.053950891 0.02496695 0.18381999
-0.054589689 0.022798054 0.18549255
-0.054961275 0.019638445 0.18711349
-0.055138115 0.016188849 0.18909568
-0.055458631 0.01252586 0.19104156
-0.055105295 0.0087699872 0.1931868
-0.054314695 0.0053765611 0.19526145
-0.051335279 0.028086754 0.18134168
-0.05164149 0.025970301 0.18190235
-0.051847883 0.023244746 0.18301398
-0.05196343 0.02023932 0.18449184
-0.052085027 0.016862985 0.18677029
-0.052829873 0.012443209 0.18923178
-0.052797697 0.0082573947 0.19185632
-0.05243789 0.004242674 0.19523999
-0.050920796 -2.3952363e-05 0.1973611
-0.047968294 0.031372324 0.17942521
-0.048613247 0.029551245 0.17991425
-0.04883923 0.026869429 0.18046321
-0.04881724 0.023653425 0.18154167
-0.049405891 0.02059604 0.18370786
-0.049984463 0.01628983 0.18617307
-0.050659128 0.012362422 0.18839328
-0.050208438 0.0075637111 0.19127391
-0.049599051 0.0033648268 0.19419929
-0.046998512 -0.0032082589 0.19502938
-0.046607144 -0.0085277734 0.19465598
-0.046826307 -0.011820334 0.19481686
-0.046135765 0.032359909 0.17864284
-0.045870058 0.030183474 0.17919497
-0.045862567 0.027149387 0.17995705
-0.046358354 0.023719581 0.18178621
-0.046973225 0.020316307 0.18371484
-0.047539286 0.0160225 0.18532266
-0.048177745 0.011711184 0.18767008
-0.047971733 0.0070803473 0.19034724
-0.045600172 -7.4966511e-06 0.19265786
-0.044234149 -0.005695486 0.19131646
-0.044216577 -0.0097280452 0.19139163
-0.04469661 -0.013958008 0.19278511
-0.045328755 -0.01611376 0.19477376
-0.047786552 -0.014594244 0.19944806
-0.047915578 -0.013378938 0.2047229
-0.043977026 0.035750266 0.17701299
-0.043689441 0.033713389 0.17801383
-0.043211285 0.031531669 0.17906222
-0.043005452 0.028527988 0.18028697
-0.043571603 0.024051564 0.18185662
-0.043850727 0.020131346 0.18337272
-0.044561733 0.015678141 0.18437998
-0.045182511 0.010918254 0.18643339
-0.044986676 0.004977732 0.18964791
-0.042288773 -0.0022165412 0.19005622
-0.04169884 -0.0071138525 0.18796012
-0.041304436 -0.01087712 0.18772233
-0.039883491 -0.014670692 0.19088733
-0.043586608 -0.015208402 0.19556327
-0.045367241 -0.014194878 0.20023134
-0.046015415 -0.013852537 0.20481201
-0.046163533 -0.014131756 0.20910777
-0.046204526 -0.01449025 0.21453829
-0.041540992 0.037122086 0.1765072
-0.040796634 0.034852546 0.17812544
-0.04025485 0.032626413 0.17925355
-0.039968234 0.029901767 0.18037544
-0.040091086 0.026159529 0.18173458
-0.040121365 0.020565782 0.18280594
-0.041340161 0.015397073 0.1839993
-0.042830639 0.0096319364 0.18617834
-0.041691083 0.0028763341 0.1883862
-0.039101798 -0.0036475509 0.18720786
-0.038278989 -0.0083879987 0.18615155
-0.036683153 -0.011828871 0.18819153
-0.036921296 -0.013448687 0.19251452
-0.039790619 -0.015006013 0.19708882
-0.041930288 -0.014016983 0.20163202
-0.042413097 -0.013981001 0.20591852
-0.042862155 -0.0148105 0.20969401
-0.044201367 -0.016004359 0.21551664
-0.045206983 -0.019785022 0.21989018
-0.04502897 -0.022934789 0.222991
-0.039117768 0.040676478 0.17510243
-0.038744397 0.039129298 0.17600515
-0.037669647 0.037354637 0.17761572
-0.037163801 0.034198146 0.17932282
-0.037096068 0.030644735 0.18059157
-0.036762435 0.026705908 0.18192916
-0.036705788 0.020674128 0.18266919
-0.038182195 0.014280189 0.18396574
-0.039960627 0.0075360718 0.18599108
-0.038594402 0.000572077 0.18651797
-0.036491182 -0.0050618052 0.18560438
-0.034755033 -0.0083485013 0.18659163
-0.033740874 -0.010097281 0.19031623
-0.034525622 -0.011784867 0.1943558
-0.036368269 -0.013779835 0.19826791
-0.038515981 -0.014332263 0.20231448
-0.039279334 -0.014658354 0.2069118
-0.040190298 -0.01604376 0.21073462
-0.041165691 -0.017029954 0.21485785
-0.041300226 -0.019856673 0.21835667
-0.042382862 -0.023321878 0.2227688
-0.035934065 0.04353784 0.17389171
-0.035057332 0.0423848 0.17526673
-0.034194428 0.040243234 0.17753413
-0.033684798 0.037079178 0.1791984
-0.03397613 0.031901561 0.18071869
-0.033618666 0.02717044 0.18238667
-0.033864442 0.019828802 0.18304576
-0.034970503 0.014064879 0.18392618
-0.036239751 0.00786334 0.18530111
-0.036478307 -0.00013115369 0.18572097
-0.034059204 -0.0043311617 0.18588035
-0.032109026 -0.0065214937 0.18797739
-0.031432156 -0.008144455 0.19107552
-0.031976059 -0.010251818 0.19558391
-0.033263184 -0.01265707 0.20034537
-0.035097323 -0.014440444 0.20392747
-0.036285479 -0.01534579 0.20840338
-0.037282314 -0.016782882 0.21188663
-0.038080446 -0.018469043 0.21494323
-0.037835553 -0.020747306 0.21798547
-0.038416341 -0.023054389 0.22226141
-0.038833581 -0.025446793 0.22478801
-0.031620745 0.044984441 0.17612609
-0.031395711 0.043380477 0.17641521
-0.030970057 0.041061211 0.17789482
-0.030513374 0.038299136 0.17960048
-0.030645136 0.033927798 0.18119101
-0.030973474 0.028136795 0.18254371
-0.031574614 0.0195434 0.18357219
-0.032013472 0.014663685 0.18405931
-0.032980215 0.0084320046 0.18514609
-0.034624308 0.0010697854 0.18529023
-0.03212487 -0.001403803 0.18660881
-0.030055489 -0.0039332914 0.18932405
-0.029708143 -0.0058713066 0.19224219
-0.03005085 -0.0086461706 0.19609199
-0.030418169 -0.011738756 0.20164286
-0.032154422 -0.013797493 0.20579998
-0.033444565 -0.015456727 0.20960362
-0.034282614 -0.017171139 0.21298456
-0.034873556 -0.019050198 0.21584994
-0.034939192 -0.020404035 0.21892685
-0.034662951 -0.022231059 0.22196136
-0.035427917 -0.025109394 0.22529469
-0.028887399 0.045970242 0.17588156
-0.028413912 0.044332631 0.17655332
-0.027747542 0.041824553 0.17789949
-0.027242724 0.039087061 0.17965342
-0.027396603 0.035579134 0.18136446
-0.028199242 0.0291056 0.18289457
-0.029078117 0.019832373 0.18435618
-0.029293599 0.015569801 0.1847505
-0.029718908 0.010615583 0.18558829
-0.03182248 0.0044389465 0.1853402
-0.030284168 0.00316192 0.18646027
-0.028573727 0.0011143712 0.18841168
-0.027267644 -0.0022387705 0.19137065
-0.027350226 -0.0050895028 0.19425964
-0.027769323 -0.010842011 0.20319746
-0.028683543 -0.012780325 0.20706055
-0.030878035 -0.014735165 0.21070082
-0.030848205 -0.016961625 0.21437857
-0.031541437 -0.018893812 0.21714737
-0.031971905 -0.020116294 0.21970318
-0.032256298 -0.022376247 0.22229727
-0.032760244 -0.024332056 0.22379614
-0.033880763 -0.025382498 0.22558188
-0.025356451 0.04615863 0.17650618
-0.025102908 0.044535793 0.17721735
-0.024471866 0.042097852 0.1783811
-0.024083247 0.039177887 0.17955066
-0.024659257 0.035768423 0.18156834
-0.025488527 0.029814865 0.18353611
-0.026206722 0.020345071 0.18561001
-0.026211636 0.016504245 0.18649094
-0.025850011 0.013951666 0.18749186
-0.027576661 0.01078889 0.18677382
-0.027146062 0.0084114531 0.18771307
-0.026174333 0.0049926233 0.18932194
-0.024581155 0.0015626464 0.19190268
-0.023454687 -0.0023912436 0.19604228
-0.025028097 -0.0072960523 0.20212206
-0.026379263 -0.010767674 0.20734054
-0.027110107 -0.014262303 0.2124324
-0.027911974 -0.017626859 0.21620187
-0.028913198 -0.019768508 0.21847387
-0.030185154 -0.021690367 0.22148447
-0.030494301 -0.023175774 0.22279321
-0.030837979 -0.024258638 0.22448613
-0.031267926 -0.025738725 0.22764039
-0.021745179 0.044462275 0.17814474
-0.02148374 0.042867962 0.17906147
-0.021473803 0.040207628 0.17993031
-0.02177312 0.037642445 0.18060271
-0.022485174 0.034868885 0.18222733
-0.022724954 0.029349916 0.18533538
-0.02261251 0.021976965 0.18773584
-0.022124166 0.018255265 0.18908189
-0.0224302 0.016601479 0.18978925
-0.021673625 0.015694134 0.19039528
-0.021887166 0.012409707 0.19087508
-0.021864362 0.009077739 0.19177847
-0.021106815 0.0044642319 0.1941824
-0.020069024 -0.0014871287 0.19973606
-0.021893196 -0.0061423685 0.20403931
-0.023009103 -0.0091671282 0.20829362
-0.023551079 -0.012129754 0.21231763
-0.024897207 -0.01536605 0.21767774
-0.025489679 -0.018904716 0.21963088
-0.026533572 -0.021149537 0.22219539
-0.027064208 -0.022201037 0.22338526
-0.027431004 -0.02375588 0.22486776
-0.027755858 -0.025990929 0.22837321
-0.018641366 0.04168006 0.18047936
-0.018928707 0.039295379 0.18180889
-0.019178249 0.036521681 0.18249893
-0.019375287 0.033806361 0.18418349
-0.018929454 0.030519385 0.18735242
-0.017600553 0.024986517 0.19053803
-0.016962459 0.020424109 0.19089857
-0.01858734 0.017750971 0.19140254
-0.017932441 0.015342666 0.19311991
-0.018093858 0.012698082 0.19380024
-0.018168639 0.0094456961 0.19453278
-0.017884152 0.0047077518 0.1977867
-0.017768031 -0.00046411628 0.20219304
-0.018832872 -0.0045554214 0.20594111
-0.019929344 -0.0081574833 0.21053527
-0.02066293 -0.011188669 0.21483317
-0.02205703 -0.014048127 0.21878646
-0.023155604 -0.017118804 0.22066061
-0.023781417 -0.020146016 0.22277956
-0.023886288 -0.021586329 0.22311305
-0.02418259 -0.02377834 0.22438225
-0.024494471 -0.026334437 0.22938971
-0.015790917 0.038687024 0.18347746
-0.015664531 0.03636872 0.18454246
-0.015685922 0.033400971 0.18636411
-0.015610677 0.029783791 0.18874253
-0.01267519 0.025620991 0.19202302
-0.013466134 0.02121887 0.19334792
-0.015210562 0.017496979 0.19351196
-0.015166313 0.014787402 0.19523033
-0.015030361 0.01253895 0.19588384
-0.014870032 0.0093602417 0.19748837
-0.015175202 0.0050652493 0.2014537
-0.015232141 0.0005735929 0.20495068
-0.016203977 -0.0031923195 0.20780563
-0.016918978 -0.0074495687 0.21298477
-0.017573373 -0.010636 0.21764189
-0.018715378 -0.013402777 0.22039244
-0.020078991 -0.016567925 0.22206895
-0.020351948 -0.019390997 0.22339961
-0.020646866 -0.021424109 0.22371335
-0.021271838 -0.024063641 0.22653149
-0.02117906 -0.026477732 0.2318383
-0.012612286 0.036017604 0.1861773
-0.012379085 0.03315698 0.18794179
-0.011714498 0.029851101 0.18998423
-0.0088175097 0.026155148 0.1933876
-0.0098665617 0.021885302 0.19546542
-0.011964487 0.018722458 0.19556689
-0.012365451 0.015079775 0.19722244
-0.011798179 0.011995471 0.19908275
-0.011670794 0.0086705079 0.20146051
-0.012101832 0.00574025 0.20416622
-0.012649942 0.0021742652 0.20698376
-0.01345571 -0.0017784778 0.21058501
-0.013718349 -0.0068096849 0.21522625
-0.014421866 -0.0099658063 0.21918607
-0.015318548 -0.012823432 0.22164539
-0.016880773 -0.015525746 0.22289027
-0.017146019 -0.018298399 0.22400869
-0.017301507 -0.021112489 0.22545163
-0.0173265 -0.024313089 0.22995114
-0.01705542 -0.027295355 0.23514013
-0.0091547454 0.03265135 0.18946724
-0.0070708962 0.03014918 0.19236161
-0.0057564997 0.026576985 0.19607411
-0.0058704796 0.0227888 0.19834957
-0.007988004 0.019698882 0.19850822
-0.0096057616 0.015974047 0.19941254
-0.0092757009 0.01231685 0.20125626
-0.0090041095 0.0090584252 0.20332217
-0.0091506531 0.0065358817 0.20527539
-0.010077084 0.0037926494 0.20841834
-0.010109548 -0.0005099863 0.21283241
-0.010287222 -0.0048467666 0.21678014
-0.011097046 -0.0078298887 0.21966487
-0.011260983 -0.010978853 0.22240327
-0.013089096 -0.013875131 0.22320341
-0.013748856 -0.017087711 0.22558506
-0.013744516 -0.020767076 0.22795218
-0.01295664 -0.024627523 0.23340328
-0.0037663341 0.029567035 0.19624805
-0.0021554749 0.026385223 0.19888844
-0.001484541 0.023193575 0.20017026
-0.0027896634 0.020024356 0.20115051
-0.0052440232 0.017012997 0.20140384
-0.0064650206 0.013074234 0.20260255
-0.006352792 0.0098084072 0.20451395
-0.0064873109 0.0074639516 0.20657578
-0.0071423659 0.0046478431 0.21047762
-0.0066278796 0.00015991794 0.2145901
-0.0070395404 -0.0038949274 0.21890402
-0.0073347464 -0.006866293 0.22044452
-0.0078554023 -0.0098312767 0.22344828
-0.0084498925 -0.012850259 0.22502555
-0.0097472994 -0.015769506 0.22721222
-0.010670083 -0.020082222 0.2292255
-0.010437267 -0.023351917 0.23268744
2.1270705e-05 0.028272947 0.19893526
0.0019859809 0.025834464 0.19935907
0.002473793 0.022500886 0.20019293
0.0014420373 0.01966461 0.20143718
0.00023490774 0.017071094 0.20310143
-0.00073988305 0.014651082 0.20464732
-0.002557388 0.011077062 0.20597216
-0.0030303274 0.0080014383 0.20912321
-0.0030870107 0.0046375026 0.21259409
-0.0027610597 0.0008773802 0.21570247
-0.0034935018 -0.003017969 0.21978836
-0.0037698478 -0.0062152562 0.22135672
-0.0041353428 -0.0094066206 0.22375916
-0.0052015902 -0.012399899 0.22565174
0.0048743319 0.02436289 0.19922182
0.0053054546 0.021947682 0.19978954
0.0046096393 0.019448768 0.20089804
0.0041671535 0.017181421 0.20288785
0.003887912 0.01498376 0.20552059
0.0028081273 0.01202052 0.20812017
0.0019983761 0.0082778586 0.21003763
0.00093330326 0.0048556733 0.21337074
0.00048050933 0.0012947089 0.21624631
-0.00013842179 -0.0023982674 0.21935099
-0.0013680675 -0.0057248143 0.22204798
0.0078381496 0.021527451 0.20023568
0.0076272548 0.019443376 0.20113948
0.0074604377 0.017138029 0.20304917
0.0068611908 0.014887575 0.20592955
0.0055555152 0.012454974 0.20866388
0.0048429989 0.010010841 0.20968971
0 0 0 1 0 0 0 1 0 0 0 1 0 0 0 0 0 346 1 0 0
