ply
format ascii 1.0
comment PCL generated
element vertex 346
property float x
property float y
property float z
element camera 1
property float view_px
property float view_py
property float view_pz
property float x_axisx
property float x_axisy
property float x_axisz
property float y_axisx
property float y_axisy
property float y_axisz
property float z_axisx
property float z_axisy
property float z_axisz
property float focal
property float scalex
property float scaley
property float centerx
property float centery
property int viewportx
property int viewporty
property float k1
property float k2
end_header
-0.056537524 0.019157268 0.18821192
-0.056822151 0.016100392 0.18979962
-0.05378085 0.024807986 0.18316899
-0.054353502 0.022682149 0.18489711
-0.054824833 0.019520726 0.18646893
-0.055050798 0.016038466 0.1883187
-0.055354025 0.012500365 0.19028167
-0.054953467 0.0088035641 0.19246417
-0.054146957 0.0053587882 0.19445851
-0.051350135 0.027795916 0.18056718
-0.051617812 0.025715714 0.18111993
-0.051754341 0.023071775 0.18224367
-0.051888403 0.020054471 0.18367639
-0.052086685 0.016671987 0.18579945
-0.052831486 0.012317662 0.18832909
-0.052718006 0.0082543008 0.19104378
-0.052325416 0.004202914 0.19432001
-0.050852902 -3.9955026e-05 0.1962502
-0.048006982 0.031084672 0.17871821
-0.048654731 0.02927777 0.17914374
-0.048866123 0.026595086 0.17958413
-0.048821345 0.023400458 0.18056428
-0.049386472 0.020338587 0.18266355
-0.050057765 0.016109405 0.18501993
-0.05068532 0.012247964 0.18731654
-0.050151438 0.0075481362 0.19029619
-0.049497478 0.0034065871 0.19313237
-0.047246698 -0.003249357 0.19362509
-0.046997063 -0.0086877709 0.19304357
-0.047239676 -0.012020208 0.19319959
-0.046190694 0.032127757 0.17803846
-0.045915633 0.029937366 0.17845011
-0.045897346 0.026833609 0.17896809
-0.04636804 0.023432063 0.18067756
-0.046989318 0.020010056 0.18254183
-0.047634386 0.015821753 0.18400162
-0.048184082 0.01158921 0.18640557
-0.047937784 0.0069671189 0.18927722
-0.045755938 -8.0246777e-05 0.19126759
-0.044649553 -0.0058175432 0.18962793
-0.04470085 -0.0098619135 0.18962058
-0.04518472 -0.014159292 0.19104929
-0.045747072 -0.016404362 0.19317444
-0.048029356 -0.014934457 0.19809026
-0.047932081 -0.013753598 0.20357347
-0.044057343 0.035616703 0.17674616
-0.043767311 0.033522181 0.17761093
-0.043266047 0.031323895 0.17850219
-0.043029528 0.028248439 0.17947336
-0.043590713 0.02372502 0.18070219
-0.043866262 0.019813303 0.18209797
-0.044649616 0.01544401 0.18290788
-0.045281749 0.010786807 0.18488756
-0.045011893 0.0050180489 0.18826014
-0.042614538 -0.0023654506 0.18831611
-0.042193733 -0.0072064647 0.18605955
-0.041827478 -0.011003782 0.18574832
-0.040293965 -0.014960329 0.18904872
-0.043951776 -0.015562477 0.19399221
-0.045549989 -0.014616629 0.19891612
-0.046033513 -0.014248509 0.20364007
-0.046016697 -0.014458253 0.20801193
-0.045758359 -0.014636117 0.21361561
-0.04162534 0.037038229 0.17636774
-0.04087754 0.034710173 0.17782496
-0.04032189 0.032461192 0.17876518
-0.039982151 0.02971047 0.17962371
-0.040026046 0.025880119 0.18065195
-0.040124968 0.020296179 0.18162479
-0.041418329 0.015188307 0.18239339
-0.043037958 0.0094926581 0.18443877
-0.041953679 0.0027031621 0.18673612
-0.039462391 -0.0038077398 0.18530743
-0.038626071 -0.0085630268 0.18412092
-0.036968872 -0.012093797 0.18626434
-0.037264597 -0.013783799 0.19077137
-0.040072072 -0.015477241 0.19553961
-0.042057224 -0.014525155 0.20030674
-0.042407196 -0.014461039 0.20466238
-0.042732261 -0.015210705 0.2085129
-0.043825988 -0.016271247 0.21454507
-0.044722285 -0.020316022 0.21896097
-0.044343241 -0.02338613 0.22212884
-0.039220102 0.040736903 0.17507614
-0.03885505 0.039148383 0.17593215
-0.037773695 0.037335463 0.17737609
-0.037219539 0.034150276 0.17876947
-0.03706928 0.030544924 0.17978561
-0.036617026 0.026529085 0.18084234
-0.03669164 0.020544402 0.18191598
-0.03831768 0.014060299 0.18249324
-0.040096581 0.0073990519 0.18417406
-0.038852863 0.00042907114 0.18488595
-0.036730047 -0.0052382452 0.18365446
-0.034905497 -0.0085865259 0.1846502
-0.034020726 -0.010379258 0.18850587
-0.034872454 -0.012131702 0.19265684
-0.036646314 -0.014279339 0.19665673
-0.038665235 -0.014925118 0.20087886
-0.039283674 -0.015235662 0.20556201
-0.040049966 -0.016434377 0.20949076
-0.040836457 -0.017356796 0.21370783
-0.040908676 -0.02032765 0.21721618
-0.04170537 -0.023736518 0.22173499
-0.036086492 0.043767411 0.17385384
-0.035192076 0.042556997 0.17515165
-0.034305997 0.040305451 0.17730029
-0.033728931 0.037040208 0.17874019
-0.033947941 0.031848248 0.17994376
-0.033501238 0.027090088 0.18150641
-0.033904757 0.019736787 0.18257712
-0.035104468 0.013860771 0.18282826
-0.036350667 0.0076735676 0.18355149
-0.03671997 -0.00026964859 0.1840748
-0.034224335 -0.0044950484 0.18403634
-0.032284528 -0.0067536584 0.18616459
-0.031709876 -0.0084469207 0.18931946
-0.032315146 -0.010619314 0.19390199
-0.033516496 -0.013235764 0.19871038
-0.035233863 -0.015178898 0.20237249
-0.036295325 -0.016105842 0.20692118
-0.037127189 -0.017408784 0.21043727
-0.037824113 -0.018930886 0.21360813
-0.03747103 -0.021189401 0.21666886
-0.037757885 -0.023460962 0.22098126
-0.038024507 -0.025809018 0.22363469
-0.031769656 0.045169044 0.17614919
-0.031515241 0.043559771 0.1763733
-0.031073205 0.041186504 0.17774247
-0.03057416 0.038338929 0.17927258
-0.030655213 0.033853441 0.18058087
-0.030943915 0.028072631 0.18189955
-0.03165878 0.019451322 0.18314187
-0.032176644 0.014499397 0.18331985
-0.033250041 0.0081424471 0.18354875
-0.034853235 0.00097780291 0.18380415
-0.032353263 -0.0015176934 0.18500756
-0.030304376 -0.0041762642 0.18765457
-0.02994336 -0.0062388903 0.19054273
-0.0303565 -0.0090546617 0.19442168
-0.030665379 -0.012357848 0.19997342
-0.032238811 -0.014640803 0.20413581
-0.033352889 -0.016418742 0.20782053
-0.034048822 -0.018004796 0.21130617
-0.034571704 -0.019718286 0.21426468
-0.034485262 -0.02090136 0.21739252
-0.034031805 -0.022598151 0.22044703
-0.034579586 -0.025353272 0.22393362
-0.029045537 0.046264559 0.17603073
-0.028545918 0.044609237 0.17663394
-0.027832611 0.042043358 0.17784463
-0.027282516 0.039229121 0.17941171
-0.027433345 0.035625502 0.18094762
-0.028227653 0.029085405 0.18240136
-0.029165136 0.019707369 0.18384221
-0.029468635 0.01541336 0.18417761
-0.030032592 0.01039837 0.18455985
-0.032182083 0.0042312802 0.18402527
-0.030608065 0.0030706231 0.18514624
-0.028845487 0.00098227907 0.18697751
-0.027423961 -0.0025406978 0.18973361
-0.027495431 -0.0055996501 0.19258182
-0.027902223 -0.011478788 0.20144294
-0.028659275 -0.013654588 0.20517981
-0.030691298 -0.015867449 0.2087709
-0.030494004 -0.018033637 0.21244432
-0.031150661 -0.019722858 0.21532547
-0.031455226 -0.020609599 0.21793109
-0.031568658 -0.022506665 0.220762
-0.031958699 -0.024320912 0.22239335
-0.032915641 -0.025287632 0.22420657
-0.025495445 0.046484176 0.17674068
-0.025214462 0.044833925 0.17736517
-0.02453663 0.04235512 0.17840707
-0.024108525 0.039397433 0.17940575
-0.024704291 0.035859548 0.18125041
-0.025512537 0.029790375 0.18304095
-0.026227728 0.020128837 0.18485534
-0.026312156 0.016272286 0.18563408
-0.025997272 0.013709062 0.18639763
-0.027957201 0.010519828 0.18550377
-0.027625035 0.008186576 0.18641309
-0.026582172 0.0047390871 0.18789893
-0.024835866 0.0012227945 0.19026281
-0.023461731 -0.0030198325 0.19434926
-0.02507217 -0.0079153338 0.20052911
-0.026302645 -0.01151151 0.20558794
-0.026892684 -0.015335429 0.21038084
-0.027621878 -0.018727208 0.21397349
-0.028513882 -0.020489609 0.21647614
-0.029550131 -0.021895511 0.21974765
-0.029789288 -0.023181975 0.22118552
-0.029989125 -0.02408609 0.22294134
-0.030152891 -0.025192454 0.22615039
-0.021934753 0.044799693 0.17857154
-0.021672713 0.043184139 0.17942207
-0.021633187 0.040504757 0.1801094
-0.021870671 0.037883364 0.18054129
-0.022546513 0.034946684 0.18188201
-0.022524066 0.029166903 0.18443726
-0.022303773 0.021644678 0.18641758
-0.022101305 0.017933045 0.18766548
-0.022482365 0.016302308 0.18831126
-0.021833515 0.015416819 0.18892179
-0.022175819 0.012160184 0.18945403
-0.022204889 0.0088525433 0.19041423
-0.021384679 0.0041503781 0.19285302
-0.020002155 -0.0020020846 0.19855595
-0.02175742 -0.0066969572 0.2027052
-0.022842888 -0.0098006772 0.20679085
-0.023397531 -0.012632229 0.21055299
-0.024738234 -0.01582435 0.21539842
-0.025056956 -0.019317424 0.21713197
-0.025859108 -0.021316506 0.21992561
-0.026326573 -0.02221691 0.22127141
-0.026601443 -0.023554686 0.22290824
-0.0266893 -0.025388334 0.22661819
-0.018955771 0.042069342 0.1811125
-0.019189872 0.039538242 0.18219616
-0.019333895 0.036687396 0.18252166
-0.019413481 0.033801042 0.18388337
-0.018793348 0.030230939 0.18666674
-0.017157022 0.024403391 0.18898794
-0.016964026 0.019909211 0.18910454
-0.018718705 0.017337844 0.18974544
-0.018085964 0.014924239 0.19144349
-0.018291352 0.012343559 0.19220528
-0.018436695 0.0091382517 0.19305097
-0.018098267 0.0043881792 0.19650114
-0.017775128 -0.00085614546 0.20107718
-0.018750152 -0.0049694073 0.20479447
-0.019794656 -0.0086913966 0.20899849
-0.020500882 -0.01152655 0.21299352
-0.021924194 -0.014260956 0.216813
-0.022753019 -0.017339179 0.21793784
-0.023116671 -0.020367298 0.21993493
-0.0231915 -0.021696223 0.22046883
-0.023480827 -0.02366342 0.22211879
-0.023570357 -0.025643654 0.22734205
-0.016166242 0.038959533 0.18413745
-0.015929252 0.036573924 0.18494983
-0.01578334 0.033443257 0.1864126
-0.015507543 0.029585203 0.18826529
-0.012498843 0.025304066 0.19109952
-0.013389898 0.020682285 0.19154286
-0.015268414 0.016934806 0.19161761
-0.015171598 0.014283183 0.19335386
-0.015069417 0.012069875 0.19406609
-0.014944452 0.0089497948 0.1957697
-0.015313121 0.0048308829 0.20021132
-0.015331558 0.00034120132 0.20391385
-0.016245985 -0.0034395496 0.20676768
-0.016793614 -0.007865984 0.21127954
-0.017365208 -0.010960078 0.2157653
-0.018469894 -0.013602922 0.21829209
-0.019560445 -0.016809184 0.21903567
-0.019579681 -0.019697936 0.21988501
-0.019987833 -0.021551119 0.22058719
-0.020595996 -0.023749361 0.22414303
-0.020380965 -0.025736907 0.22971122
-0.012961732 0.036265686 0.18683992
-0.012584584 0.033260819 0.18823485
-0.011769502 0.029808214 0.18985729
-0.0088194665 0.026009172 0.1927703
-0.0097593088 0.021423874 0.19389461
-0.011889532 0.018178215 0.19360122
-0.012201436 0.014536178 0.1952136
-0.011515888 0.011400454 0.19704077
-0.011521267 0.0082023442 0.19973749
-0.012098044 0.0056029763 0.20288227
-0.012795814 0.0021079157 0.2059435
-0.013650038 -0.0017735269 0.20968501
-0.013619679 -0.0071413447 0.21350053
-0.014229422 -0.010329996 0.2173259
-0.015074866 -0.013026095 0.21952303
-0.016385628 -0.015654873 0.2200181
-0.016495535 -0.018517129 0.22070736
-0.016597508 -0.021255733 0.22227165
-0.016685102 -0.023964452 0.2275551
-0.016546655 -0.026777789 0.23314801
-0.009426916 0.032799032 0.18981653
-0.0072826911 0.030187706 0.19234863
-0.0057761553 0.026310261 0.19546524
-0.0057118759 0.022287676 0.19709313
-0.0078481473 0.01920104 0.19671899
-0.0093754828 0.01544669 0.1973391
-0.0089021148 0.011690966 0.19913605
-0.0088343536 0.008688706 0.20164235
-0.0091266576 0.0063655707 0.20394933
-0.010143655 0.0037607914 0.20725136
-0.010299556 -0.00068219181 0.21154711
-0.010384093 -0.0051027737 0.21534264
-0.011050935 -0.0080713397 0.21809579
-0.01113137 -0.011166452 0.22081512
-0.012795746 -0.013896988 0.22090864
-0.013232239 -0.017045595 0.22276588
-0.013143283 -0.020724257 0.22511263
-0.012658926 -0.024143841 0.2314337
-0.0039018656 0.029372072 0.1959769
-0.0020721965 0.026012275 0.19809072
-0.0012731003 0.022827694 0.19899262
-0.0025258339 0.019649893 0.19972034
-0.0049488973 0.016613556 0.19951254
-0.0061206035 0.012551488 0.20049736
-0.0061868345 0.0094615975 0.20286199
-0.0064510363 0.0072750533 0.20519811
-0.0071455161 0.0045162444 0.20922068
-0.006697169 -0.00022766055 0.21291517
-0.0070644054 -0.0041407924 0.21742399
-0.0073740138 -0.0069495896 0.21913353
-0.0079594851 -0.0097489813 0.22224012
-0.0084486948 -0.01265156 0.22371928
-0.0095590269 -0.015505043 0.22514634
-0.010280169 -0.019793473 0.22686593
-0.010162815 -0.022839641 0.23078094
5.8966409e-05 0.027979562 0.19823541
0.0021649222 0.025623836 0.19840606
0.0027650949 0.022310076 0.19907442
0.0017529782 0.01945322 0.20021106
0.00056553283 0.016842559 0.20182118
-0.00049289752 0.014398939 0.20323339
-0.002426299 0.010817358 0.20449017
-0.0029943632 0.0077339434 0.20769687
-0.0031013608 0.0042112456 0.21095301
-0.0027715326 0.00032056577 0.21393059
-0.0034698346 -0.003275485 0.21828237
-0.0038052804 -0.0062488676 0.22020257
-0.004308118 -0.0091776503 0.22288774
-0.0054298383 -0.011991352 0.22487234
0.0051403507 0.024259925 0.19825055
0.0056339381 0.02185216 0.19876508
0.0049472018 0.019330926 0.19981246
0.0044771414 0.017037038 0.20180887
0.0040948717 0.0148178 0.2044224
0.0028736941 0.011734129 0.20689078
0.0019914217 0.0078737149 0.20844354
0.00091325329 0.0043141176 0.21160594
0.00047533482 0.00069052749 0.21445243
-4.3871809e-05 -0.0027577907 0.21786012
-0.0014089958 -0.0057302606 0.22100589
0.0081527652 0.021478206 0.19932224
0.0079652406 0.019389957 0.20019823
0.0077667865 0.017056786 0.2021306
0.0070602098 0.014741324 0.2049693
0.0056279246 0.012190543 0.20751283
0.0048765782 0.0096800821 0.20824793
0 0 0 1 0 0 0 1 0 0 0 1 0 0 0 0 0 346 1 0 0
