ply
format ascii 1.0
comment PCL generated
element vertex 346
property float x
property float y
property float z
element camera 1
property float view_px
property float view_py
property float view_pz
property float x_axisx
property float x_axisy
property float x_axisz
property float y_axisx
property float y_axisy
property float y_axisz
property float z_axisx
property float z_axisy
property float z_axisz
property float focal
property float scalex
property float scaley
property float centerx
property float centery
property int viewportx
property int viewporty
property float k1
property float k2
end_header
-0.056694273 0.019095128 0.18880047
-0.056940395 0.016088197 0.19044045
-0.053866584 0.024796538 0.18394051
-0.054503642 0.02263212 0.185551
-0.054924302 0.019484337 0.18710494
-0.055102322 0.01607085 0.18901916
-0.055414449 0.012508626 0.19101745
-0.055035766 0.0088127386 0.19316132
-0.05426291 0.0053948299 0.19514126
-0.051331948 0.027897861 0.18157761
-0.051605243 0.02580492 0.18205915
-0.051810775 0.02311454 0.18305679
-0.051958326 0.020075874 0.18439654
-0.052085001 0.016735952 0.18654709
-0.052864783 0.01237151 0.18909506
-0.052786104 0.0082338266 0.1917654
-0.052421104 0.0042184079 0.1950535
-0.050544012 -0.00012537502 0.19621839
-0.048026916 0.031132348 0.1796975
-0.048654251 0.029387504 0.18019862
-0.04885741 0.026716037 0.18066086
-0.048838165 0.023491498 0.18153982
-0.049428605 0.02039388 0.1834601
-0.050053846 0.016140822 0.18582565
-0.050717797 0.012276934 0.18809114
-0.050237797 0.0075450996 0.19101258
-0.049247775 0.0033072599 0.19311652
-0.046933357 -0.0032354996 0.19352619
-0.046662878 -0.008602608 0.19293095
-0.046895921 -0.011905344 0.19309987
-0.046272155 0.03206519 0.17886567
-0.045993805 0.029952785 0.17939958
-0.04593597 0.02696635 0.18012443
-0.046411254 0.023519866 0.18168241
-0.047030918 0.020090055 0.1833225
-0.047629938 0.015846139 0.18483798
-0.048239168 0.011584252 0.18723407
-0.048038494 0.0069886521 0.19003436
-0.04546839 -0.00010451418 0.19115476
-0.044343315 -0.0057447134 0.1894424
-0.044379357 -0.0097804358 0.18943603
-0.044848047 -0.014049714 0.19094825
-0.045415182 -0.016212201 0.19318604
-0.047794908 -0.014655241 0.19807771
-0.047992092 -0.01338066 0.20354502
-0.044209678 0.035391584 0.17718062
-0.043878317 0.033376925 0.17811888
-0.043382224 0.031241 0.17914791
-0.043138575 0.028260242 0.18034001
-0.043651663 0.023875168 0.1816851
-0.043914244 0.01990979 0.18289566
-0.044642601 0.015496274 0.18377846
-0.045261271 0.010802893 0.18589531
-0.044771899 0.0049559553 0.18824789
-0.042367257 -0.0022724236 0.18807273
-0.041947983 -0.007103906 0.18574095
-0.041554209 -0.010907873 0.18544666
-0.040020179 -0.014799886 0.18902603
-0.043660026 -0.015309853 0.19406204
-0.045397364 -0.014246098 0.19901122
-0.046106327 -0.013850978 0.20370173
-0.046320707 -0.014168217 0.20801581
-0.046801619 -0.014973936 0.21392198
-0.041771911 0.03678197 0.17660013
-0.040991817 0.034522213 0.17815702
-0.040426649 0.032330256 0.17923735
-0.040086795 0.029649427 0.18024687
-0.040130511 0.025927531 0.18146321
-0.040170688 0.020429265 0.1822644
-0.041404799 0.015297436 0.18331639
-0.042986002 0.0095982663 0.18556312
-0.04192628 0.0028553344 0.18775579
-0.039277911 -0.0037006773 0.1848727
-0.038413342 -0.0084693562 0.18371101
-0.036738046 -0.011976294 0.18607119
-0.037057184 -0.013512222 0.19083421
-0.039884273 -0.015035185 0.19579712
-0.042001151 -0.014032813 0.20057431
-0.042544991 -0.013982081 0.2048972
-0.04306912 -0.014859011 0.20868845
-0.044822518 -0.016477834 0.21494564
-0.045741893 -0.020696014 0.21898562
-0.045432303 -0.024055509 0.2218623
-0.039327383 0.040481284 0.17501871
-0.038961817 0.03889801 0.17590949
-0.037884984 0.037187234 0.17751329
-0.037381243 0.034073632 0.17922063
-0.037219446 0.030488973 0.18028389
-0.036747452 0.026549643 0.18136835
-0.036741201 0.020656582 0.18195073
-0.038321543 0.01425534 0.18321963
-0.039794516 0.0074799876 0.18424451
-0.038625989 0.0005277404 0.18448474
-0.036556602 -0.0051611126 0.183129
-0.034698613 -0.0085216844 0.18423763
-0.033842191 -0.010159289 0.18829156
-0.034723058 -0.01175341 0.19268635
-0.036533315 -0.013720565 0.19693387
-0.038653295 -0.014301149 0.20129769
-0.039472681 -0.014635236 0.20597401
-0.040670317 -0.0161156 0.21026395
-0.041719753 -0.017327718 0.21432813
-0.041852195 -0.020338651 0.21766357
-0.042785145 -0.024217563 0.22172318
-0.036100425 0.04343826 0.17361872
-0.035204336 0.042309608 0.17499828
-0.034329515 0.040196478 0.17729835
-0.03386258 0.037023954 0.17904402
-0.034147747 0.031804651 0.18027787
-0.03364234 0.027048012 0.18160868
-0.033908904 0.019815652 0.18222636
-0.035071295 0.014028305 0.18306544
-0.036065225 0.0077762404 0.18341425
-0.036520522 -0.0001943628 0.18352161
-0.034050617 -0.004446568 0.18341896
-0.032093909 -0.0066411505 0.18565968
-0.031552985 -0.0081930142 0.18899825
-0.032222647 -0.01016879 0.19386633
-0.033512224 -0.012544821 0.19906028
-0.035336945 -0.014362218 0.20294824
-0.036563136 -0.015287981 0.20754644
-0.037776124 -0.01681477 0.21147521
-0.038584244 -0.018636668 0.21446569
-0.038323052 -0.020989845 0.21739732
-0.038863257 -0.023638723 0.22142173
-0.039220709 -0.026225781 0.22373359
-0.031726744 0.044899609 0.17585121
-0.031503327 0.043309189 0.17614993
-0.031087106 0.041010857 0.17761685
-0.030626079 0.038242724 0.17936508
-0.030881397 0.033746339 0.18083377
-0.031123934 0.027968304 0.18177745
-0.031668041 0.019492898 0.18269783
-0.032116052 0.01462117 0.18313351
-0.033227623 0.008347082 0.18415858
-0.034609478 0.0010659731 0.1830941
-0.032101888 -0.0014413738 0.1841764
-0.030084958 -0.0040285299 0.18694769
-0.029810995 -0.0059483885 0.19012989
-0.030307386 -0.0085870121 0.19429997
-0.030723885 -0.011637914 0.20035967
-0.032426924 -0.013705996 0.20479226
-0.03394334 -0.015261703 0.20927362
-0.034780469 -0.01715059 0.21271677
-0.035355397 -0.019112967 0.21550412
-0.035446942 -0.020546401 0.21846834
-0.035148729 -0.022508847 0.22135372
-0.03578984 -0.025531758 0.22444209
-0.028984791 0.045892872 0.17557089
-0.028506411 0.044285417 0.17625453
-0.0278155 0.041788228 0.17759295
-0.027286381 0.039069984 0.17930323
-0.027527409 0.035477996 0.18099727
-0.028383618 0.028939873 0.18220058
-0.029239137 0.019757442 0.18349193
-0.029448327 0.015499726 0.18382885
-0.029970141 0.010555061 0.18457337
-0.031742338 0.0043486655 0.18317838
-0.030149654 0.0031704612 0.18419299
-0.028441044 0.0011027406 0.1860688
-0.027209356 -0.0023279893 0.1890744
-0.027458239 -0.0052130716 0.19230208
-0.02835184 -0.010454118 0.20286821
-0.029225819 -0.012449614 0.20675164
-0.031430196 -0.014512483 0.21042819
-0.031376984 -0.016876118 0.21430589
-0.032094281 -0.018884437 0.21695182
-0.032543425 -0.02011431 0.21940546
-0.032733135 -0.022405434 0.22195306
-0.033158079 -0.024382489 0.22337715
-0.034239862 -0.025490571 0.22495532
-0.025431208 0.046107389 0.17625302
-0.025164785 0.044506505 0.17695867
-0.024499059 0.0421081 0.17811948
-0.024083646 0.039221901 0.17921966
-0.024739452 0.03572651 0.18113574
-0.025665512 0.029637171 0.18286131
-0.026439426 0.020219268 0.1848143
-0.026479142 0.016380468 0.1855845
-0.026175797 0.013848598 0.18647903
-0.027984856 0.010732049 0.18568566
-0.027536163 0.0084093707 0.18653552
-0.026578657 0.0050163767 0.18815427
-0.025063988 0.0016442158 0.19082986
-0.023931136 -0.0022767396 0.19534944
-0.025681393 -0.0070872637 0.20183775
-0.026968954 -0.010465327 0.20706168
-0.027703727 -0.014091751 0.21248715
-0.028542893 -0.017573336 0.21615848
-0.029490411 -0.019704841 0.2183248
-0.030713838 -0.021632118 0.22125743
-0.030942382 -0.023090996 0.22250631
-0.031245463 -0.024205515 0.22412284
-0.031513438 -0.025713729 0.22718696
-0.021785023 0.044458397 0.17808287
-0.021525435 0.042867851 0.17897741
-0.021525143 0.04023426 0.17975573
-0.021838835 0.037660304 0.18029736
-0.022601439 0.034804508 0.18175517
-0.022887083 0.029205862 0.18477821
-0.022867257 0.02185485 0.18707189
-0.022553768 0.01813739 0.18817782
-0.022867491 0.016524898 0.1887642
-0.022151675 0.015693814 0.18937245
-0.022317642 0.012491499 0.18984248
-0.022234676 0.0091856951 0.19072668
-0.02136098 0.0044829529 0.19327334
-0.020147644 -0.0016442912 0.19932848
-0.022191096 -0.0061979694 0.20387588
-0.023523537 -0.0091822781 0.20823771
-0.024156069 -0.012225562 0.21244512
-0.025586363 -0.01531213 0.21788542
-0.026120434 -0.018760966 0.21956006
-0.027084043 -0.020993326 0.22188941
-0.027601404 -0.022084774 0.2229957
-0.027835838 -0.023640977 0.22441818
-0.028029913 -0.025886083 0.22780627
-0.018711366 0.041641679 0.18053332
-0.019024251 0.039201934 0.18173414
-0.019304903 0.036398329 0.18225388
-0.019526312 0.03362643 0.18380457
-0.019074228 0.03035938 0.18700594
-0.017869847 0.024932135 0.19022802
-0.017698418 0.020392857 0.19019391
-0.01927845 0.017760394 0.19057699
-0.018574653 0.01534904 0.19240464
-0.018612081 0.012736985 0.19304058
-0.018559968 0.0094965128 0.19369482
-0.018000061 0.0046118451 0.1970555
-0.017830091 -0.00064068154 0.201776
-0.018967343 -0.0046790489 0.20572034
-0.020331012 -0.0083328253 0.21042486
-0.021212598 -0.011393593 0.2148951
-0.022665301 -0.014073927 0.21898803
-0.023799265 -0.017024318 0.22066341
-0.024370288 -0.019906791 0.22246732
-0.024414634 -0.021336559 0.22265814
-0.024667209 -0.02353381 0.22384192
-0.024812369 -0.026150944 0.22869802
-0.015941778 0.038445752 0.1834801
-0.015824461 0.036109727 0.18443649
-0.015840361 0.033161566 0.18619187
-0.015789278 0.029651426 0.18857984
-0.012953951 0.025688965 0.19185959
-0.01423767 0.021195425 0.19276439
-0.016025679 0.017467728 0.19288681
-0.015829109 0.014762251 0.19456643
-0.015566752 0.012539792 0.19522898
-0.015183223 0.0093351137 0.19673415
-0.015224066 0.0048920726 0.20077242
-0.015276631 0.00038367772 0.20450886
-0.016288262 -0.0033878698 0.20754813
-0.017272413 -0.0078128837 0.21277775
-0.01802679 -0.010998791 0.21764448
-0.019298304 -0.01355288 0.22038108
-0.020670835 -0.016581841 0.22181806
-0.020957282 -0.019236837 0.2230614
-0.021281838 -0.021089358 0.22321723
-0.021744344 -0.023800291 0.22583242
-0.021505682 -0.026267653 0.2311338
-0.012783819 0.035660818 0.18611099
-0.012577199 0.032904234 0.18782495
-0.011949923 0.02977065 0.18992825
-0.0091800634 0.02604275 0.19310999
-0.010477361 0.021767981 0.19479629
-0.012792449 0.018663902 0.19483085
-0.013043296 0.014991162 0.19640559
-0.012141467 0.011861477 0.19824047
-0.011756101 0.008462674 0.20071724
-0.012151795 0.0055012354 0.20349547
-0.012726319 0.0019308261 0.20644459
-0.013497914 -0.0019412007 0.21025869
-0.014069052 -0.0073693297 0.21500929
-0.014784208 -0.010513306 0.21901026
-0.015869951 -0.013114572 0.22143391
-0.017576097 -0.015582078 0.22246821
-0.017888388 -0.018208575 0.22346631
-0.018007658 -0.020916121 0.22476329
-0.01780019 -0.024101544 0.22928266
-0.017389474 -0.027226064 0.23458982
-0.0094249975 0.032404464 0.18940377
-0.0073906551 0.029974539 0.19222225
-0.0060407179 0.026197074 0.19566377
-0.0062589762 0.022320105 0.197624
-0.0086490251 0.019517314 0.19762762
-0.010232586 0.015861584 0.19846757
-0.0095062591 0.012124334 0.20041123
-0.0091627492 0.0089126593 0.20272121
-0.0093203895 0.0063239383 0.20477886
-0.010299419 0.00349377 0.20787941
-0.010310974 -0.00085281458 0.21255429
-0.010487368 -0.0053367009 0.21673422
-0.011390658 -0.008392009 0.21945447
-0.011698619 -0.011464377 0.22221635
-0.01389511 -0.014037145 0.22280823
-0.014571429 -0.017025892 0.22496633
-0.014476278 -0.020627882 0.2272217
-0.01340175 -0.024486301 0.23290743
-0.0040180972 0.029125443 0.19589376
-0.0024060556 0.025757222 0.19822639
-0.0017785679 0.022588849 0.19927427
-0.0031319903 0.019530455 0.20017758
-0.0057326527 0.016824884 0.20043136
-0.0067942333 0.013005381 0.20186803
-0.0066046389 0.0096707735 0.2040543
-0.0067701587 0.0072804601 0.20616819
-0.0074601378 0.0042846766 0.21010424
-0.0068836831 -0.00018566546 0.2145804
-0.0073155412 -0.004266852 0.21904889
-0.0076225623 -0.0072364933 0.22053531
-0.0081999982 -0.010243221 0.22350468
-0.0089447405 -0.013098305 0.22495462
-0.010535836 -0.015753001 0.22670433
-0.011412397 -0.019926311 0.22867744
-0.010895167 -0.02320653 0.23221071
-0.00028103823 0.027570046 0.19822222
0.0016479145 0.025183737 0.19844963
0.0021404219 0.021977438 0.1992199
0.0011043543 0.019231759 0.20041183
-0.00010813512 0.016750464 0.20206544
-0.0011166778 0.014444279 0.20368266
-0.0028855551 0.010970484 0.20558
-0.0033013832 0.0075837155 0.20897293
-0.0033969341 0.0042100842 0.21249136
-0.0030874244 0.00062661193 0.21598305
-0.003832123 -0.0032394938 0.22015934
-0.0040721693 -0.0064903744 0.22173586
-0.0044754832 -0.0096538113 0.22411233
-0.0055852467 -0.012601607 0.22589916
0.0044851196 0.023804061 0.19825697
0.0049171685 0.021489771 0.19879404
0.0042096842 0.019086424 0.19988555
0.0037624522 0.016949397 0.20183778
0.0034870938 0.014851706 0.20446189
0.0025779523 0.011740802 0.20727582
0.0018158723 0.0076415702 0.20976482
0.00065668637 0.0043949112 0.2133448
0.00012110152 0.0010580954 0.21657616
-0.00046916126 -0.0025373693 0.21993619
-0.0016613499 -0.005954409 0.22255173
0.0073811756 0.021130392 0.19920579
0.0071768155 0.019143576 0.20010369
0.0070100492 0.016970158 0.2020068
0.0064487886 0.014787751 0.2048962
0.0052673151 0.012244122 0.20772204
0.0046628881 0.0094756642 0.20907994
0 0 0 1 0 0 0 1 0 0 0 1 0 0 0 0 0 346 1 0 0
