ply
format ascii 1.0
comment PCL generated
element vertex 346
property float x
property float y
property float z
element camera 1
property float view_px
property float view_py
property float view_pz
property float x_axisx
property float x_axisy
property float x_axisz
property float y_axisx
property float y_axisy
property float y_axisz
property float z_axisx
property float z_axisy
property float z_axisz
property float focal
property float scalex
property float scaley
property float centerx
property float centery
property int viewportx
property int viewporty
property float k1
property float k2
end_header
-0.057138819 0.018769341 0.18816184
-0.057452064 0.015766827 0.18978049
-0.054010529 0.024556436 0.18364227
-0.054691385 0.022400871 0.18522498
-0.055261724 0.019204488 0.18662356
-0.055523157 0.015782431 0.18846752
-0.055823226 0.0123209 0.19061388
-0.055440851 0.0087141721 0.19285423
-0.054739285 0.0052798903 0.19480424
-0.051514942 0.027626922 0.18129793
-0.051747516 0.02553306 0.18178135
-0.051937606 0.022900982 0.18279344
-0.052161813 0.019822655 0.18404171
-0.052369084 0.01649476 0.18609411
-0.053196181 0.012191952 0.18876964
-0.053147145 0.0081199314 0.19153672
-0.052901629 0.0040622209 0.19473025
-0.051551808 -0.00012331054 0.19665413
-0.048195802 0.030885778 0.17967163
-0.048824061 0.029182075 0.18011647
-0.048985872 0.026496237 0.1805388
-0.048919119 0.023256468 0.18138085
-0.049569607 0.020134419 0.18319219
-0.050296035 0.015919803 0.1855142
-0.051028013 0.012098802 0.18774407
-0.050621279 0.0074243844 0.19072087
-0.050092246 0.0032794192 0.19354536
-0.0478236 -0.0033574956 0.19418231
-0.047385786 -0.0087354276 0.19365554
-0.047505025 -0.01205132 0.19384299
-0.046473041 0.031797655 0.17887695
-0.04619918 0.029730881 0.17943376
-0.046083495 0.026776876 0.18017235
-0.046527088 0.023278331 0.18158491
-0.047160413 0.019876933 0.18322024
-0.047777407 0.015677674 0.18476327
-0.048501484 0.011391393 0.18697238
-0.048456766 0.0067834333 0.18975092
-0.046230018 -0.00024300067 0.1918395
-0.044904031 -0.0058651543 0.19035919
-0.044866424 -0.0098992633 0.19040602
-0.045286216 -0.014163678 0.19186279
-0.045792256 -0.016317887 0.19394964
-0.048325401 -0.01490817 0.19856118
-0.048617549 -0.013943297 0.20390913
-0.044475064 0.035083976 0.17718683
-0.044102777 0.033084765 0.17806536
-0.04361964 0.030994179 0.17910653
-0.043358851 0.028044416 0.18037328
-0.043798078 0.023701886 0.18169954
-0.044008758 0.019760072 0.18305285
-0.044678051 0.015387044 0.18400158
-0.045409206 0.010640127 0.18577674
-0.04538653 0.0048367353 0.18885379
-0.042910583 -0.0023623616 0.18914354
-0.042255238 -0.0072360793 0.18694742
-0.041818254 -0.011019782 0.18681456
-0.040361941 -0.014698533 0.19039021
-0.04407379 -0.015350506 0.19488399
-0.045883738 -0.014439753 0.19954331
-0.046677701 -0.014332966 0.20410067
-0.047040366 -0.015004938 0.20822611
-0.047595955 -0.016329806 0.21326329
-0.042057384 0.036514141 0.17656696
-0.041247841 0.034247726 0.17806515
-0.040667702 0.032064449 0.17910063
-0.040283814 0.029398313 0.18003008
-0.040252753 0.025715344 0.18121774
-0.040217668 0.020266097 0.18221183
-0.041427754 0.015188446 0.18347271
-0.043162983 0.0094445944 0.18540256
-0.04222418 0.0026340678 0.1874692
-0.039724752 -0.0038773743 0.18620569
-0.038803454 -0.0086011579 0.18537667
-0.037282117 -0.0118366 0.18798125
-0.037545484 -0.013196488 0.19228376
-0.04026838 -0.014890648 0.19675864
-0.042466253 -0.014095283 0.20121863
-0.043140955 -0.014284545 0.20542638
-0.043773793 -0.01550473 0.2089971
-0.045575198 -0.017814996 0.21429902
-0.046325274 -0.022438562 0.21783683
-0.045860831 -0.025981713 0.22050107
-0.039669938 0.040488862 0.17500125
-0.039285015 0.038827855 0.17582184
-0.038223363 0.037116092 0.17734626
-0.03773202 0.033925068 0.1788615
-0.03747585 0.03028485 0.17969723
-0.036871344 0.026294082 0.18047537
-0.03685559 0.020423658 0.18122526
-0.038450953 0.01408611 0.18301356
-0.040308118 0.0073984214 0.18504342
-0.039207462 0.00035550247 0.18554555
-0.037119117 -0.005358791 0.18474017
-0.035370547 -0.008517934 0.18623967
-0.034653425 -0.0097685736 0.19024678
-0.035408247 -0.011291719 0.19419096
-0.037062362 -0.013388858 0.19810389
-0.039119765 -0.014149145 0.20211457
-0.04006172 -0.01472723 0.20662628
-0.041080698 -0.016523171 0.2101748
-0.042324986 -0.018235197 0.21398263
-0.042405583 -0.02147926 0.21695846
-0.04320747 -0.025791442 0.22061057
-0.036516007 0.043620788 0.17354238
-0.035579521 0.042447239 0.17483701
-0.034643847 0.040261455 0.17704163
-0.034193311 0.036996998 0.17860495
-0.034480836 0.031642769 0.17932278
-0.033839997 0.026801223 0.18034026
-0.034064457 0.019593174 0.181403
-0.035200518 0.013834853 0.18266365
-0.036563214 0.0076590362 0.18422996
-0.037239868 -0.00046355947 0.18466811
-0.034802642 -0.0045956462 0.18508157
-0.03295134 -0.0064406833 0.18762113
-0.032510307 -0.0076857968 0.19092302
-0.033106487 -0.0095808515 0.19547598
-0.03417227 -0.01203311 0.20033365
-0.035862625 -0.013973868 0.20395194
-0.03718102 -0.015114631 0.20836018
-0.038225211 -0.016970119 0.21159618
-0.039064713 -0.019101383 0.21440606
-0.038790926 -0.021583952 0.21712634
-0.039381649 -0.024676941 0.22079754
-0.039652351 -0.027498826 0.22281846
-0.03200753 0.044989292 0.17560154
-0.03179514 0.043393772 0.17584434
-0.031362697 0.041052986 0.17720351
-0.030887838 0.038209815 0.17881003
-0.031287834 0.033545677 0.17988659
-0.031461485 0.027704794 0.18050189
-0.031903539 0.019287756 0.1819324
-0.03229481 0.01443257 0.18259975
-0.033410437 0.0081546102 0.18380965
-0.035482071 0.00080821366 0.18407752
-0.033049673 -0.0015230608 0.18546815
-0.0311149 -0.0036764687 0.18866833
-0.03092202 -0.0053522764 0.1918994
-0.031342335 -0.0079509877 0.1959504
-0.031485025 -0.010963893 0.20173366
-0.033067331 -0.013076619 0.20592564
-0.034411825 -0.014865496 0.20972487
-0.035318483 -0.0169851 0.21319591
-0.035908733 -0.019132538 0.21585387
-0.036091134 -0.020765318 0.21864121
-0.035826188 -0.022991672 0.22131154
-0.036277059 -0.02619157 0.2239363
-0.029248565 0.045977969 0.17525138
-0.028760774 0.044364255 0.17585793
-0.028038271 0.041811198 0.17704943
-0.027484072 0.039040703 0.17856437
-0.027826115 0.035322245 0.18006028
-0.028777387 0.028693076 0.18104257
-0.029612167 0.019606709 0.18289904
-0.029767407 0.015343909 0.18331684
-0.030214824 0.010383595 0.18408468
-0.032464869 0.0041488325 0.18378082
-0.030982789 0.0030380799 0.184848
-0.029429076 0.0011701407 0.18699381
-0.028453209 -0.0018344539 0.19055369
-0.02864418 -0.0045646322 0.19394588
-0.0288602 -0.010014052 0.20333968
-0.029723966 -0.011895612 0.20730278
-0.032039281 -0.013931319 0.21105877
-0.03212586 -0.016339216 0.2152427
-0.032847956 -0.018590461 0.21769124
-0.033376221 -0.020018486 0.21997006
-0.033467788 -0.022592695 0.22234921
-0.033761837 -0.024674451 0.22358322
-0.034826066 -0.025900885 0.22482921
-0.025612902 0.046143774 0.17579609
-0.025332903 0.044527318 0.1764133
-0.024635162 0.042105224 0.17741971
-0.024214098 0.039196949 0.1783293
-0.024976632 0.035605136 0.18004246
-0.026087791 0.029389769 0.18176252
-0.026991524 0.020091999 0.18451232
-0.027061667 0.016248221 0.18525799
-0.026858449 0.013717463 0.18612169
-0.028426388 0.010559897 0.18508755
-0.027818065 0.0082323542 0.18573987
-0.02692127 0.004902523 0.1875049
-0.025582373 0.0016846547 0.19047117
-0.024523066 -0.0022905176 0.1953757
-0.026227918 -0.0071060923 0.20219225
-0.027496941 -0.010066962 0.20755784
-0.028488645 -0.013330438 0.21371993
-0.02943306 -0.016837882 0.2174554
-0.030302536 -0.019223575 0.21934821
-0.031507857 -0.021544496 0.22200288
-0.031606372 -0.023076439 0.22307333
-0.031928755 -0.024308432 0.2245446
-0.032098424 -0.025948517 0.22753063
-0.021825416 0.044397771 0.17742245
-0.021550138 0.042770211 0.17820692
-0.02157725 0.04013573 0.17882569
-0.021962596 0.037543498 0.17920791
-0.022847556 0.034636334 0.18049012
-0.023504289 0.029053025 0.18405651
-0.023733361 0.021799169 0.18721527
-0.023450837 0.01800235 0.18794167
-0.023773665 0.016397549 0.18835495
-0.023024995 0.01557719 0.18878838
-0.023141002 0.012408857 0.18920454
-0.022961587 0.009124402 0.19010191
-0.021998698 0.0042996313 0.19277959
-0.020445662 -0.0022219981 0.19923225
-0.02236671 -0.0066829487 0.20411327
-0.023906456 -0.0092933029 0.20880161
-0.024940431 -0.011927642 0.21385439
-0.026848909 -0.014461965 0.22000055
-0.02719404 -0.018050576 0.22118637
-0.027985193 -0.020591991 0.22291961
-0.028447874 -0.021854341 0.22378732
-0.028511763 -0.023510104 0.22504386
-0.028584912 -0.025926042 0.2282449
-0.018705454 0.041423041 0.17970279
-0.019103644 0.038926031 0.18076143
-0.019476071 0.036095608 0.18108056
-0.019828444 0.033222012 0.18245938
-0.019621097 0.029922133 0.18580082
-0.018935852 0.025007904 0.18997774
-0.019089254 0.020300446 0.18966079
-0.020419301 0.017659172 0.18993624
-0.019657051 0.015241257 0.19174495
-0.019588403 0.012620809 0.19236471
-0.019439708 0.0093716737 0.19297092
-0.01882782 0.0043994626 0.19661279
-0.018292129 -0.001005473 0.20170461
-0.019066419 -0.0050965752 0.20583197
-0.020634558 -0.0085202809 0.21100163
-0.022008995 -0.01103666 0.21636225
-0.023749623 -0.013235658 0.22106171
-0.025083881 -0.016258702 0.22285923
-0.02539226 -0.019323446 0.22389935
-0.025265615 -0.020817718 0.2237041
-0.025351722 -0.023154508 0.22454844
-0.025308523 -0.026081491 0.22909662
-0.016182594 0.037964672 0.18263923
-0.016134875 0.035549875 0.18339534
-0.016266083 0.032530997 0.1850176
-0.016442835 0.029188473 0.18760477
-0.013749316 0.025435546 0.19088201
-0.015531221 0.020842539 0.19147791
-0.017354269 0.01727687 0.19206178
-0.016990725 0.014588503 0.19371803
-0.016620014 0.012372687 0.19438849
-0.016056474 0.0091539184 0.19583523
-0.01614783 0.0048468681 0.20035399
-0.015908131 0.00030104737 0.20443669
-0.016458618 -0.0036334072 0.20761402
-0.01764828 -0.0079790335 0.21349441
-0.018770698 -0.010662103 0.21908623
-0.020338021 -0.012802585 0.2222954
-0.021846566 -0.015831405 0.2238895
-0.022015329 -0.01863943 0.22478208
-0.022192316 -0.020481668 0.22432521
-0.02233069 -0.023476604 0.22632453
-0.021749215 -0.026233543 0.23144193
-0.013173105 0.034926593 0.18514889
-0.013078718 0.032190099 0.18670855
-0.012616714 0.029257784 0.18897046
-0.0097397789 0.025235783 0.19143111
-0.011184786 0.020838331 0.19239157
-0.013968619 0.018172441 0.19320734
-0.014141667 0.014574277 0.19494815
-0.012916086 0.011340812 0.19667745
-0.0124233 0.0080642728 0.19950794
-0.012941443 0.0055503021 0.20283394
-0.013571036 0.0021673229 0.20623681
-0.013882063 -0.0017861661 0.21028429
-0.01462027 -0.007609284 0.21575093
-0.015451126 -0.010337501 0.22022419
-0.01680332 -0.012524548 0.22302191
-0.018727556 -0.014875305 0.22414297
-0.018919457 -0.01758201 0.22470024
-0.018843273 -0.020449953 0.22537382
-0.018090444 -0.023943923 0.22941598
-0.016990747 -0.027422452 0.2343722
-0.01005571 0.031702593 0.18846805
-0.0080954889 0.029242108 0.19120672
-0.006453095 0.02484509 0.19378714
-0.0066968491 0.020676078 0.19486731
-0.0091908854 0.018341489 0.19476734
-0.010837916 0.015062899 0.19609298
-0.0098519204 0.011274903 0.19819461
-0.0096762646 0.0085776215 0.20131545
-0.010025808 0.0062986789 0.20394091
-0.011186846 0.0037849022 0.20742583
-0.011019167 -0.00068108243 0.21256265
-0.010872737 -0.0056239865 0.21701248
-0.011909992 -0.0084636118 0.22006044
-0.012431518 -0.011154725 0.22317743
-0.014942876 -0.013451914 0.22399102
-0.015390451 -0.016664375 0.22552693
-0.014987935 -0.020516278 0.22710766
-0.013077616 -0.024649467 0.23232651
-0.004601723 0.02776069 0.19456108
-0.0029189449 0.02385162 0.19591033
-0.0024716258 0.020606272 0.196392
-0.0039403262 0.017659102 0.19711736
-0.0061755138 0.015411655 0.19721389
-0.0069585154 0.012123241 0.19933131
-0.0070173433 0.0092942594 0.20250916
-0.007353948 0.0072322739 0.20511062
-0.0082567912 0.0045511145 0.20953426
-0.0074038091 -0.0003607384 0.21451433
-0.0076243994 -0.0045266906 0.2191758
-0.0080096992 -0.0073954836 0.22080289
-0.0085930889 -0.010233118 0.22403523
-0.0095101465 -0.012866765 0.22560646
-0.011043377 -0.015621003 0.2268482
-0.011601882 -0.02010853 0.22800313
-0.010604779 -0.023407271 0.23135896
-0.0009109833 0.025615165 0.19600448
0.00092419388 0.023148978 0.19563438
0.0012727339 0.019993538 0.19614786
9.6826028e-05 0.017414108 0.19738422
-0.0012116173 0.01520552 0.19916838
-0.002079844 0.013250192 0.20100006
-0.003329118 0.010482793 0.20377952
-0.0038555157 0.0073277978 0.20808427
-0.0040539228 0.0040654703 0.21196532
-0.0035099764 0.00037097253 0.21576555
-0.0040765558 -0.0035203118 0.22011307
-0.0043335916 -0.0067722807 0.22178259
-0.0047138021 -0.0098511158 0.22424702
-0.0058655152 -0.012656178 0.22619154
0.0036373653 0.021797553 0.19520806
0.0039655892 0.019559069 0.19567366
0.0031523574 0.017331515 0.19686681
0.002608282 0.015525216 0.19902627
0.002266166 0.013814894 0.20195048
0.001397121 0.011324727 0.20567767
0.0010724188 0.0073533985 0.20887254
3.6661262e-05 0.0042182012 0.21273348
-0.00033686648 0.00088195328 0.21625657
-0.00072048983 -0.0028396444 0.21971726
-0.0018236358 -0.0063042482 0.22241147
0.0063815475 0.019284166 0.19608073
0.0060986159 0.01746559 0.19709127
0.005848689 0.015632028 0.19925681
0.0052252887 0.013843531 0.20250157
0.0040809275 0.01181867 0.20593606
0.003687127 0.0093415324 0.20793593
0 0 0 1 0 0 0 1 0 0 0 1 0 0 0 0 0 346 1 0 0
