ply
format ascii 1.0
comment PCL generated
element vertex 346
property float x
property float y
property float z
element camera 1
property float view_px
property float view_py
property float view_pz
property float x_axisx
property float x_axisy
property float x_axisz
property float y_axisx
property float y_axisy
property float y_axisz
property float z_axisx
property float z_axisy
property float z_axisz
property float focal
property float scalex
property float scaley
property float centerx
property float centery
property int viewportx
property int viewporty
property float k1
property float k2
end_header
-0.057094146 0.019617951 0.19048308
-0.057413708 0.016706569 0.1920498
-0.054358136 0.025118478 0.18567657
-0.054939494 0.023043094 0.18729369
-0.055310622 0.019971037 0.18885034
-0.055553321 0.016682414 0.19066742
-0.056026746 0.013211096 0.19258943
-0.055800986 0.0096814949 0.19471209
-0.055272408 0.006318246 0.19656064
-0.051990286 0.028141737 0.18331334
-0.05217918 0.026119789 0.18381241
-0.052264247 0.023534637 0.18490468
-0.052309759 0.020579092 0.1862909
-0.052504703 0.01730993 0.18828529
-0.053489879 0.013039764 0.19067955
-0.053591933 0.0090192221 0.19334622
-0.053535696 0.0050538382 0.19642708
-0.052248079 0.00070951425 0.19837694
-0.048808977 0.031264205 0.18133065
-0.049388126 0.029646091 0.18189695
-0.049531557 0.027013334 0.18242463
-0.049375601 0.023891594 0.18344094
-0.04990264 0.020920033 0.1853601
-0.050586764 0.016727595 0.18756695
-0.051343359 0.012906966 0.18969901
-0.051093977 0.0083263656 0.19252501
-0.050575819 0.0040924442 0.19537809
-0.048882011 -0.0023715689 0.19577418
-0.04871159 -0.0077302167 0.19508246
-0.04890668 -0.010972138 0.1952143
-0.047170203 0.0321032 0.18043266
-0.046841461 0.030114058 0.18098469
-0.046653174 0.027277734 0.18183218
-0.047039103 0.02398691 0.1835098
-0.047618814 0.020624382 0.18509491
-0.048206113 0.016461071 0.18659852
-0.04883701 0.012202819 0.18892118
-0.048939344 0.0076954826 0.19158643
-0.047128905 0.00066745339 0.19351104
-0.046293374 -0.0048898039 0.19173947
-0.046338517 -0.0089042932 0.19170806
-0.046787318 -0.013097083 0.19314127
-0.04728806 -0.015091901 0.19511589
-0.049636386 -0.013696775 0.19977365
-0.049753882 -0.012914703 0.20507739
-0.045295082 0.035380054 0.17859302
-0.04486423 0.033371314 0.17944618
-0.0442992 0.031295441 0.18046202
-0.043955401 0.028446393 0.18175799
-0.044344798 0.024358461 0.18336457
-0.04456865 0.020429585 0.18452348
-0.045259949 0.016106041 0.18549044
-0.045985106 0.011457765 0.1876048
-0.045949738 0.0057074237 0.19079794
-0.044225927 -0.0014000124 0.19059147
-0.043721151 -0.0062094261 0.18827721
-0.043347564 -0.0099835452 0.18808247
-0.041882377 -0.013562382 0.19158541
-0.045551829 -0.01410504 0.19598992
-0.047201775 -0.013227333 0.20057981
-0.047818583 -0.013280195 0.20518541
-0.047958437 -0.013997459 0.20938031
-0.048274152 -0.014706844 0.21510682
-0.042864732 0.036722194 0.17773868
-0.041967653 0.034449335 0.17917766
-0.041331209 0.032340068 0.18025489
-0.040946014 0.029793261 0.18138139
-0.040943362 0.026266761 0.1828787
-0.04105239 0.020911055 0.18394127
-0.042307742 0.015884154 0.18497293
-0.044063341 0.010309863 0.18718682
-0.04348053 0.0036770639 0.18908711
-0.041159619 -0.002976469 0.18775728
-0.04032464 -0.0076020183 0.18690218
-0.038773384 -0.010771789 0.18939231
-0.039013267 -0.012034613 0.19350491
-0.041724149 -0.013600302 0.1977378
-0.043743428 -0.012926157 0.20212606
-0.0442353 -0.013308697 0.20636022
-0.04470969 -0.014552691 0.20994577
-0.046287477 -0.016220409 0.21609901
-0.046940796 -0.021216162 0.2195846
-0.046381306 -0.024906853 0.22198756
-0.040284302 0.040773261 0.175864
-0.039927907 0.039104756 0.17671047
-0.0387136 0.03736411 0.17817584
-0.038209938 0.034119267 0.18000931
-0.038077846 0.030682053 0.18131962
-0.037595823 0.026932936 0.18280277
-0.037813678 0.021175796 0.18374462
-0.039542161 0.014851025 0.18487696
-0.041351743 0.0081635704 0.18693955
-0.040547781 0.0012885153 0.18741885
-0.038688488 -0.0044487109 0.18647301
-0.036918845 -0.007538456 0.18793087
-0.036101498 -0.0087272488 0.19173478
-0.036860082 -0.010153386 0.19539024
-0.0385722 -0.012187729 0.19912605
-0.040462535 -0.013027755 0.20290136
-0.04118206 -0.0138809 0.2073482
-0.042153604 -0.015247796 0.21138294
-0.043155137 -0.016841644 0.21536987
-0.043172825 -0.02034151 0.21851413
-0.04375767 -0.024833925 0.22191373
-0.036701165 0.043925222 0.17412619
-0.035752274 0.042810865 0.17551823
-0.034857698 0.0406764 0.17779301
-0.034393262 0.037274417 0.17962478
-0.03488956 0.031899661 0.18120621
-0.034445986 0.027342035 0.18294716
-0.035047419 0.020281583 0.18394332
-0.036333021 0.014521157 0.18472086
-0.037663706 0.0083376588 0.18596061
-0.038746886 0.00031216859 0.18652044
-0.036443871 -0.0037495231 0.1868984
-0.034510404 -0.0054944074 0.18936987
-0.033949174 -0.0066612479 0.19248867
-0.034495812 -0.0084590036 0.19674209
-0.035628997 -0.010910729 0.2012687
-0.037185621 -0.013099 0.20452155
-0.038303204 -0.014571363 0.20868385
-0.039217077 -0.016014781 0.21249467
-0.039933071 -0.018137153 0.21545939
-0.039531767 -0.020767618 0.21817562
-0.039915737 -0.023944549 0.22177774
-0.04010503 -0.026812904 0.22370966
-0.032192048 0.04536457 0.17639805
-0.031987358 0.043783069 0.1766964
-0.031559777 0.041483045 0.17814316
-0.031075686 0.038635399 0.17996155
-0.031466816 0.033727653 0.18166395
-0.031943928 0.028143883 0.18300718
-0.03288218 0.019878138 0.18436119
-0.033420291 0.015050872 0.18484418
-0.034716018 0.0088558905 0.18554619
-0.037046183 0.0014872344 0.18593194
-0.034700584 -0.00084130507 0.18722947
-0.032689221 -0.0028038539 0.19040509
-0.032352116 -0.0043249209 0.1934904
-0.032726634 -0.0069183311 0.19733265
-0.032879379 -0.009998491 0.20256157
-0.034282189 -0.01254054 0.20632365
-0.035511538 -0.014255422 0.21032621
-0.03614353 -0.016473932 0.21382168
-0.036569715 -0.018717963 0.21649368
-0.03658114 -0.020411935 0.21921431
-0.036176544 -0.022666311 0.22182386
-0.036586754 -0.025807727 0.2245295
-0.02942952 0.046389479 0.17610797
-0.028943157 0.044812843 0.17681313
-0.028217578 0.04232242 0.17820019
-0.027676506 0.039628867 0.18000288
-0.028001212 0.035748441 0.18175572
-0.029148221 0.029083362 0.18337563
-0.030536471 0.020047311 0.18514849
-0.030841894 0.01584089 0.18559578
-0.031553652 0.011010991 0.18616261
-0.033873048 0.0047176853 0.18540119
-0.032425668 0.0036524327 0.18641618
-0.030877504 0.0018847443 0.18859473
-0.029924309 -0.00089792314 0.19220737
-0.030057982 -0.0034510754 0.19551121
-0.030406678 -0.0088818017 0.2043605
-0.031063052 -0.011171385 0.20803113
-0.033020172 -0.013587783 0.21147665
-0.032647118 -0.016323451 0.21561788
-0.033300713 -0.018566998 0.21804771
-0.033677634 -0.020015007 0.2203384
-0.033659618 -0.022516806 0.22273545
-0.033935949 -0.024498506 0.22399198
-0.034937248 -0.025611943 0.22530404
-0.025788153 0.046561372 0.17686644
-0.025514906 0.044978388 0.17760094
-0.024820428 0.042598911 0.1788529
-0.024435563 0.039742667 0.18002637
-0.025196159 0.036147956 0.18191196
-0.026419144 0.029865006 0.18402143
-0.027866434 0.020433446 0.18649544
-0.028068593 0.016652504 0.18725453
-0.027928783 0.0141955 0.18798742
-0.029780714 0.011242047 0.18696721
-0.029260915 0.0090163453 0.1874036
-0.028389942 0.0057670497 0.18919976
-0.027105318 0.0026631923 0.19221719
-0.025972864 -0.00070547388 0.19724049
-0.027843123 -0.0057317228 0.20379664
-0.028911263 -0.0092176832 0.20866676
-0.029205877 -0.013400326 0.21414785
-0.029791653 -0.017204661 0.21761836
-0.030580292 -0.019489007 0.21954221
-0.031679202 -0.021627238 0.22226475
-0.03175262 -0.023094462 0.22337742
-0.031988602 -0.024237927 0.22487386
-0.031958483 -0.025740858 0.22780256
-0.021969732 0.044734292 0.17884816
-0.021756183 0.043139089 0.17975208
-0.02185316 0.040535964 0.18054441
-0.02225565 0.037999801 0.18109246
-0.023134807 0.035143435 0.18255393
-0.023721436 0.029504504 0.18590645
-0.02440691 0.022145074 0.18869714
-0.024554409 0.018585162 0.18960711
-0.024928946 0.017073447 0.18999958
-0.024331128 0.016431289 0.19049038
-0.024351144 0.013413849 0.19086528
-0.024042128 0.01019931 0.19179431
-0.022864578 0.0057439674 0.19472484
-0.021816628 0.00022693239 0.20182794
-0.024013871 -0.0047109774 0.20638914
-0.02547816 -0.0081104971 0.21060967
-0.025875242 -0.01167587 0.21498652
-0.026810849 -0.015275637 0.22013275
-0.027215531 -0.018632805 0.22106577
-0.02802268 -0.020925408 0.22289997
-0.028517604 -0.02206992 0.2238459
-0.028512621 -0.023572914 0.22515032
-0.028473098 -0.025857501 0.22828193
-0.018953986 0.0416921 0.18131715
-0.019377006 0.039299671 0.18251307
-0.019783424 0.036542602 0.18306726
-0.020155136 0.033879865 0.18464629
-0.019735077 0.030845521 0.18803464
-0.018872419 0.025381185 0.19130932
-0.019834042 0.021292161 0.19148836
-0.021660835 0.018747395 0.19186099
-0.020795787 0.01655573 0.1938615
-0.020623367 0.014070883 0.194527
-0.020345662 0.01090431 0.19513473
-0.019279035 0.0061712801 0.19887558
-0.019439418 0.001147598 0.20417586
-0.020674381 -0.003160917 0.2082161
-0.022165364 -0.0074035078 0.212898
-0.02284639 -0.011056677 0.21744528
-0.02392341 -0.014129007 0.22140735
-0.02483353 -0.017236054 0.22255269
-0.025321586 -0.019918021 0.22356105
-0.025279777 -0.021183783 0.22348626
-0.025421388 -0.023270184 0.2244637
-0.025271427 -0.026018592 0.22901127
-0.016355928 0.038437366 0.18419451
-0.016318772 0.036196217 0.18521769
-0.016426221 0.033419069 0.18711145
-0.016499501 0.030044056 0.18967673
-0.013665933 0.026124392 0.19299565
-0.01555917 0.022112736 0.19399503
-0.018147511 0.018669765 0.19441588
-0.017737823 0.016090496 0.19616613
-0.01732493 0.014012249 0.19687708
-0.016610328 0.010937407 0.19837552
-0.016371323 0.0064900746 0.20270041
-0.016622756 0.0018955593 0.20662019
-0.017776957 -0.0020284501 0.20981665
-0.018997308 -0.0071896343 0.2151003
-0.019467495 -0.010904973 0.21994917
-0.020568868 -0.013709191 0.22249475
-0.021724526 -0.01693153 0.22349124
-0.021886425 -0.019428317 0.22418076
-0.022187712 -0.020932136 0.22393684
-0.022395993 -0.023479935 0.22615819
-0.021869749 -0.026154792 0.23134707
-0.013244576 0.035717551 0.18679759
-0.013160811 0.033066921 0.18870094
-0.012613387 0.030025383 0.19095916
-0.009952669 0.026360013 0.19440871
-0.011566755 0.022547973 0.19614047
-0.014386043 0.019695997 0.19607899
-0.014695839 0.016208034 0.19784383
-0.01349079 0.013267922 0.20000748
-0.012769782 0.01002357 0.20277007
-0.01325537 0.0069767018 0.20545104
-0.01379365 0.0031148896 0.20823567
-0.01449276 -0.00083739526 0.21209793
-0.01575941 -0.007062423 0.2171635
-0.016115816 -0.01054961 0.22095631
-0.017157849 -0.013290877 0.22312483
-0.018909855 -0.015778137 0.22387525
-0.019135114 -0.018378288 0.22441266
-0.019050185 -0.020915566 0.22525313
-0.018373827 -0.023970205 0.22957559
-0.017601108 -0.027364753 0.23495278
-0.0099468771 0.032499991 0.19031768
-0.0079092579 0.030133648 0.19322953
-0.0067567998 0.026474308 0.19702546
-0.0072934651 0.022862671 0.1991419
-0.0099306256 0.020444971 0.19881266
-0.011636376 0.017025085 0.19971339
-0.010642307 0.013530744 0.20237412
-0.01028173 0.010341327 0.20490578
-0.010507545 0.0076276883 0.20687765
-0.011367607 0.0045226095 0.20957814
-0.011076646 -0.00018665945 0.21415363
-0.011449375 -0.0051500397 0.2184094
-0.012577458 -0.0084816124 0.22102508
-0.012867945 -0.011719032 0.2235661
-0.015371421 -0.014139011 0.22406967
-0.01600693 -0.017172933 0.22578749
-0.015595802 -0.02070155 0.22756648
-0.013781884 -0.024549035 0.23315242
-0.0045238226 0.029252294 0.19690132
-0.0031874885 0.026150165 0.19957636
-0.0026647658 0.023204766 0.20071939
-0.0040886239 0.020349972 0.20164575
-0.0069559324 0.017878946 0.20172662
-0.0080013238 0.01440734 0.20392509
-0.0078336457 0.010944602 0.20630625
-0.0080610188 0.0084770462 0.20828542
-0.0085283285 0.0050442968 0.21194792
-0.0073943655 0.00010432238 0.21601981
-0.0078350883 -0.004454439 0.22028832
-0.0083319703 -0.0075326869 0.22165832
-0.0088276891 -0.010763158 0.22438887
-0.0097781075 -0.013516171 0.22575545
-0.01187456 -0.015907343 0.22738788
-0.012538774 -0.020001233 0.22914089
-0.011384862 -0.023297068 0.23239511
-0.0010912769 0.027775876 0.19935153
0.00070751616 0.025630798 0.19956143
0.0012856782 0.022777265 0.2004033
0.00035654771 0.020243108 0.20156686
-0.00073095091 0.017930457 0.20322677
-0.0017901396 0.015575998 0.2048734
-0.0039102621 0.012059604 0.207559
-0.0042454242 0.0082460912 0.21105203
-0.0040209689 0.0045599611 0.21424623
-0.0034199196 0.00062055927 0.21742724
-0.0041344711 -0.0036483298 0.22114453
-0.0044808346 -0.0070399512 0.22257812
-0.0048330883 -0.010306248 0.2247261
-0.0060062865 -0.013262769 0.2263605
0.003504585 0.024422944 0.19924201
0.0039983359 0.022391224 0.1997675
0.0033695134 0.020180987 0.20083526
0.0030859006 0.018232148 0.20264187
0.0029930291 0.01620573 0.20510806
0.0024359906 0.012710734 0.20823933
0.0013740505 0.008125416 0.21166389
0.00023625459 0.004600246 0.2151318
-0.000219949 0.0010604989 0.21804662
-0.00077978725 -0.0030422497 0.2208863
-0.00192075 -0.0066399411 0.22320941
0.0063986718 0.022104688 0.19990148
0.0062890919 0.02030162 0.20077227
0.0062276749 0.018328702 0.20251822
0.0059610554 0.016211512 0.20533165
0.0050241025 0.013324172 0.2084834
0.004387958 0.010073564 0.21039313
0 0 0 1 0 0 0 1 0 0 0 1 0 0 0 0 0 346 1 0 0
