ply
format ascii 1.0
comment PCL generated
element vertex 346
property float x
property float y
property float z
element camera 1
property float view_px
property float view_py
property float view_pz
property float x_axisx
property float x_axisy
property float x_axisz
property float y_axisx
property float y_axisy
property float y_axisz
property float z_axisx
property float z_axisy
property float z_axisz
property float focal
property float scalex
property float scaley
property float centerx
property float centery
property int viewportx
property int viewporty
property float k1
property float k2
end_header
-0.05737539 0.019898854 0.19104055
-0.057732236 0.017083684 0.19255632
-0.05475831 0.025182499 0.18625259
-0.055296551 0.023173137 0.18786812
-0.055598959 0.020191798 0.18944654
-0.055839419 0.017036958 0.19120421
-0.056459546 0.013635341 0.19301291
-0.0563494 0.010217207 0.19501673
-0.055989634 0.0068896771 0.19658346
-0.052511461 0.028159086 0.18378888
-0.052672371 0.026142996 0.18433648
-0.052668359 0.023618944 0.18549906
-0.052617174 0.0207456 0.18699107
-0.052797046 0.017572392 0.18893208
-0.053892016 0.013419207 0.19116521
-0.054154083 0.0095381914 0.19368632
-0.054371417 0.0055445572 0.19627057
-0.054173093 0.001387201 0.19774565
-0.049448602 0.031118054 0.18145166
-0.050023314 0.029590186 0.18215199
-0.050123557 0.026987944 0.18278177
-0.049844388 0.023919169 0.18398523
-0.05025712 0.021076676 0.1860825
-0.050886329 0.017013168 0.18830569
-0.05172139 0.013232378 0.19026604
-0.051699307 0.0088400822 0.19278973
-0.052078806 0.0047448496 0.19528291
-0.051311869 -0.0013350723 0.1946688
-0.05121965 -0.0064368169 0.19404468
-0.051307578 -0.0096402271 0.19448791
-0.047860112 0.031855784 0.18051809
-0.047534414 0.029960489 0.18105756
-0.047295943 0.02720364 0.18200581
-0.047543712 0.024021933 0.18396141
-0.04803079 0.02073263 0.18575414
-0.04851035 0.016779939 0.18743335
-0.049166169 0.012527906 0.18961628
-0.049636543 0.0081537925 0.1917851
-0.049393106 0.0016714975 0.19251013
-0.048944239 -0.0035652376 0.19024359
-0.048954494 -0.0075872461 0.19038236
-0.049225327 -0.011793124 0.19236958
-0.04945042 -0.013588239 0.19518718
-0.051493436 -0.011831092 0.20052703
-0.051132586 -0.010586724 0.20675722
-0.046050105 0.035097718 0.17881182
-0.045577459 0.033108063 0.1795619
-0.045007698 0.031092795 0.18048491
-0.044635948 0.028312922 0.18178564
-0.044920135 0.024345117 0.18361059
-0.045050081 0.020451436 0.18498635
-0.04557969 0.016346518 0.18631695
-0.046261542 0.011757208 0.18823309
-0.047327276 0.0064057861 0.19081295
-0.046810608 -6.6612192e-05 0.18888691
-0.046293624 -0.0047780285 0.1865073
-0.045919903 -0.0085674357 0.18647182
-0.044169374 -0.01217158 0.19139694
-0.047637112 -0.01246141 0.19634767
-0.048908468 -0.011188092 0.20174496
-0.049152721 -0.010911818 0.20691395
-0.048941337 -0.011539623 0.21131894
-0.048340406 -0.013000526 0.21644282
-0.043617535 0.036466949 0.17797199
-0.042697549 0.034199402 0.17929515
-0.042061094 0.032149956 0.18033537
-0.041689418 0.029664883 0.18148287
-0.041648451 0.026245773 0.18300025
-0.041761141 0.020753216 0.18423995
-0.042802822 0.015953446 0.18566273
-0.044506166 0.010532004 0.1875046
-0.04470202 0.004052191 0.18762547
-0.043447614 -0.0016938889 0.18604787
-0.042463068 -0.0063093998 0.18553297
-0.040894877 -0.0094814766 0.18895902
-0.041193154 -0.010430862 0.1938065
-0.043699514 -0.011610215 0.19867946
-0.045325782 -0.010664306 0.20358478
-0.045489576 -0.010943401 0.20806336
-0.045658011 -0.012202069 0.21182802
-0.046613667 -0.015036512 0.21726926
-0.047375008 -0.020921627 0.22027974
-0.046648387 -0.024903322 0.2221828
-0.041070368 0.04094312 0.17618093
-0.040686235 0.039199345 0.17697665
-0.039430734 0.037434507 0.17828043
-0.038901687 0.03398674 0.18015431
-0.038822915 0.030630255 0.18152009
-0.038364295 0.026941692 0.18307349
-0.038707711 0.021080302 0.184101
-0.04018816 0.014898303 0.18540813
-0.042423934 0.0086517259 0.18722261
-0.042387456 0.0022986887 0.18616836
-0.040507354 -0.0032939927 0.18524696
-0.038725842 -0.0063883453 0.18737929
-0.038295753 -0.0073369192 0.19166537
-0.039195579 -0.0084215179 0.19563746
-0.040645394 -0.01001233 0.19994009
-0.042130642 -0.01067909 0.20434542
-0.04239697 -0.011595479 0.20907618
-0.042626854 -0.01371218 0.21226898
-0.043591168 -0.015750812 0.21618326
-0.0437649 -0.019810827 0.21936661
-0.044060804 -0.0247328 0.2221047
-0.037430029 0.044293765 0.1740713
-0.036423896 0.043186735 0.175449
-0.035477616 0.041038353 0.17767754
-0.03489878 0.037394602 0.17961594
-0.035511937 0.031802557 0.18153208
-0.035187494 0.027360182 0.18339707
-0.03594191 0.020325791 0.18429643
-0.037020862 0.014541934 0.1851241
-0.038757157 0.0087998984 0.18628094
-0.040442038 0.0012982722 0.18532382
-0.038044266 -0.0026834945 0.18612672
-0.036400795 -0.0043136785 0.18908927
-0.036220644 -0.0052879341 0.1924279
-0.036858313 -0.0066584167 0.19700165
-0.037593596 -0.0086554522 0.2023433
-0.038788412 -0.010878982 0.20606039
-0.039433699 -0.012511471 0.21024275
-0.039755635 -0.015018502 0.21300583
-0.040452026 -0.017471874 0.2159387
-0.040046621 -0.020360839 0.21859178
-0.040290888 -0.023828147 0.22192746
-0.040337801 -0.026863964 0.22357015
-0.03277792 0.045734908 0.17625777
-0.032578375 0.044157553 0.17657381
-0.032101866 0.041878607 0.17804566
-0.031557914 0.038985547 0.17996773
-0.03189363 0.033652134 0.18207847
-0.032649234 0.028184686 0.18360129
-0.03377118 0.02001244 0.18470779
-0.03418183 0.015134708 0.18516378
-0.035477355 0.0090428935 0.18530487
-0.038559437 0.0024149404 0.18525974
-0.036358725 0.00022509704 0.18682702
-0.034782805 -0.001562562 0.19029404
-0.03457604 -0.0029723493 0.19355901
-0.034992389 -0.005277907 0.19766967
-0.034766357 -0.0080363071 0.20362084
-0.035762191 -0.010673656 0.20774756
-0.036234438 -0.013512683 0.21058801
-0.036676127 -0.015938114 0.21418367
-0.036993876 -0.01839393 0.21675627
-0.036934894 -0.020300364 0.21930541
-0.036433943 -0.022736724 0.22172397
-0.036727253 -0.025913447 0.22423869
-0.03000664 0.046796359 0.17593917
-0.029494263 0.045252774 0.17667978
-0.028714797 0.042795368 0.17815429
-0.028149994 0.040184606 0.18014812
-0.028451966 0.036032353 0.18213134
-0.029765043 0.029205883 0.18406509
-0.031452727 0.020256627 0.18554688
-0.031663429 0.016038945 0.18588622
-0.032418545 0.011260768 0.18622299
-0.03553145 0.0055668456 0.18598834
-0.034226153 0.0046871593 0.18712403
-0.032775484 0.0029804055 0.18937163
-0.031930543 0.00025402612 0.19280267
-0.032064937 -0.0023031135 0.19581254
-0.031518079 -0.0080445968 0.20442583
-0.031985525 -0.010604531 0.20816723
-0.033681553 -0.013165787 0.21153088
-0.033123691 -0.015973466 0.21607764
-0.033707161 -0.018388867 0.21832065
-0.03399352 -0.020046337 0.22045806
-0.03382596 -0.022622826 0.22263284
-0.033987943 -0.024610873 0.22377156
-0.034934387 -0.025738142 0.22495197
-0.02625435 0.046942528 0.17672019
-0.025961589 0.045385782 0.177516
-0.025210559 0.043042067 0.17892793
-0.024854746 0.040255178 0.18030103
-0.025668185 0.036624376 0.18233015
-0.027068267 0.030150738 0.18480577
-0.028863775 0.020674555 0.18691292
-0.029014001 0.016918028 0.1874786
-0.028864447 0.014577135 0.18803068
-0.030834595 0.011621836 0.18687448
-0.030388081 0.009488876 0.18703753
-0.029531777 0.0062742885 0.18876801
-0.028258037 0.0031915337 0.19175746
-0.026874643 3.5149686e-05 0.19689992
-0.028869741 -0.0052053537 0.20390004
-0.029755868 -0.0089081572 0.20891161
-0.029827096 -0.013165214 0.21460956
-0.030291462 -0.016998414 0.21810518
-0.030928265 -0.019367747 0.21979007
-0.031885531 -0.021660743 0.22229601
-0.03183233 -0.023121769 0.22330622
-0.032021239 -0.024269134 0.22470134
-0.031850755 -0.025738668 0.22753522
-0.022247709 0.04501899 0.17888708
-0.022030933 0.043438688 0.17987752
-0.022175323 0.040880956 0.18079938
-0.022637539 0.038392477 0.181444
-0.023590546 0.03557289 0.18298507
-0.024406707 0.029827954 0.18661211
-0.025526131 0.022498095 0.18916172
-0.025819233 0.019102639 0.18977985
-0.026203459 0.017630823 0.19002448
-0.025619246 0.017182086 0.19045758
-0.025484955 0.014360449 0.19070625
-0.024969555 0.011247277 0.19161861
-0.023472436 0.0068752328 0.19467664
-0.022139603 0.001203317 0.20233592
-0.0245959 -0.0043101679 0.20697106
-0.026330698 -0.0078580994 0.21127965
-0.026530998 -0.01162714 0.21578823
-0.027184548 -0.0154048 0.22069126
-0.027501311 -0.018564019 0.22133392
-0.028191032 -0.020874606 0.22290298
-0.028656058 -0.022040311 0.22376187
-0.0285553 -0.023497792 0.22500333
-0.028387675 -0.025784176 0.22800931
-0.019153029 0.041834708 0.18154901
-0.01963013 0.039491687 0.18277463
-0.02010433 0.036768559 0.18335518
-0.020566367 0.034137499 0.18493684
-0.020165313 0.031080727 0.18840407
-0.019514421 0.025734048 0.19184478
-0.021013344 0.022338748 0.19175322
-0.023053145 0.019858412 0.19202663
-0.022094248 0.017997725 0.19420557
-0.021788159 0.01563946 0.19491607
-0.021306813 0.012604347 0.19541468
-0.019816777 0.0076565114 0.19934015
-0.019885007 0.0021422857 0.20476507
-0.021175059 -0.002620013 0.20877008
-0.022934083 -0.0071518924 0.21369435
-0.023543684 -0.010991749 0.21834445
-0.024402041 -0.014317265 0.22209612
-0.025042292 -0.017455352 0.22284894
-0.025503244 -0.019940404 0.22356233
-0.02539926 -0.02107751 0.22342865
-0.025482241 -0.023066897 0.2243395
-0.025225835 -0.025838703 0.2287422
-0.01667827 0.03854936 0.18443117
-0.016685056 0.036331996 0.18545885
-0.016859178 0.033561662 0.18737949
-0.016996125 0.030159928 0.1900322
-0.01397997 0.026259143 0.19341922
-0.015910555 0.023209717 0.19452792
-0.019297877 0.020234309 0.19509512
-0.018829575 0.017751217 0.19687907
-0.018394027 0.015808532 0.19760606
-0.017508592 0.012815321 0.19906569
-0.017026577 0.007897066 0.20347507
-0.017097004 0.0028213582 0.20728391
-0.01824417 -0.0014231052 0.21036354
-0.019773332 -0.0069136084 0.21596965
-0.020187436 -0.010800489 0.22092389
-0.021186469 -0.013758694 0.22335213
-0.022113167 -0.017109105 0.22407456
-0.022162875 -0.019447604 0.22447594
-0.022325944 -0.020797206 0.22401589
-0.022424366 -0.023192175 0.22589961
-0.021761499 -0.025929077 0.23101054
-0.013622706 0.035899125 0.18700632
-0.013579628 0.033122666 0.18889824
-0.013011384 0.029981107 0.19112295
-0.010000881 0.026335975 0.19469993
-0.011693215 0.023278743 0.19675541
-0.014930568 0.021028684 0.19669995
-0.015454459 0.017723115 0.19850658
-0.014180127 0.014827237 0.20093122
-0.013438978 0.011536035 0.20386432
-0.013987062 0.0083096288 0.20639484
-0.014303722 0.0040499186 0.20887454
-0.014903898 -0.00018878796 0.21266948
-0.016584795 -0.0067878491 0.21818487
-0.016858377 -0.010366381 0.22190206
-0.017921962 -0.013224315 0.22398806
-0.019564262 -0.015718358 0.22458877
-0.019728566 -0.018366156 0.22488657
-0.019413773 -0.020717641 0.22539359
-0.018435359 -0.023716055 0.22929582
-0.017368197 -0.027238941 0.23475674
-0.010189727 0.032487687 0.19039911
-0.0078848982 0.029995428 0.19313893
-0.0065016276 0.026491268 0.19713359
-0.0071747834 0.023362186 0.19968714
-0.010087394 0.021371284 0.19936092
-0.012072932 0.018334139 0.20017743
-0.011200106 0.014916509 0.20347826
-0.010974507 0.01162994 0.20607828
-0.011214453 0.0087598646 0.20782036
-0.011891408 0.0053667268 0.21011558
-0.011454407 0.00032045136 0.21476856
-0.011980056 -0.004903907 0.21930107
-0.013279049 -0.0083136167 0.22193474
-0.013682431 -0.011587875 0.22442999
-0.01617752 -0.013963008 0.22483169
-0.016847339 -0.017071443 0.22629215
-0.016187984 -0.020535599 0.22764458
-0.013807831 -0.024296839 0.23294522
-0.004193271 0.029101444 0.19661888
-0.0027187364 0.026356276 0.19962724
-0.002225328 0.023693405 0.20122883
-0.0038218389 0.021090098 0.20239085
-0.0071233604 0.018879244 0.20245488
-0.0085761547 0.015646012 0.20515145
-0.0085574053 0.012037632 0.20747048
-0.0087864939 0.009453062 0.20921296
-0.0090609454 0.0056667938 0.21249571
-0.0076605072 0.0003267623 0.21651153
-0.0082092537 -0.004480408 0.22082496
-0.0088503594 -0.0076004402 0.22230616
-0.0093908189 -0.010850309 0.22499365
-0.010519198 -0.01351459 0.22644821
-0.012764408 -0.015809242 0.22792333
-0.013192107 -0.019830627 0.2292551
-0.01155491 -0.022986053 0.23226185
-0.00059621007 0.02782074 0.19932833
0.0011895959 0.025832506 0.1999089
0.0017569636 0.023199253 0.20113921
0.00077674992 0.020846419 0.20247641
-0.00037308963 0.018680254 0.20424028
-0.0016874389 0.016302511 0.20594817
-0.0044446667 0.012844086 0.20862746
-0.0046931342 0.0087365322 0.21178646
-0.0042432873 0.0047159344 0.21475691
-0.0035501632 0.00053272035 0.21782495
-0.0043952218 -0.0038715939 0.22140291
-0.0048722285 -0.0073487032 0.22289594
-0.005242975 -0.01060173 0.22501989
-0.0065171579 -0.013477007 0.22673076
0.00402111 0.024588251 0.19985729
0.0044711218 0.022701828 0.20056763
0.0038009519 0.020644039 0.20175132
0.0034862987 0.018736726 0.20360041
0.0032961417 0.016716916 0.20601532
0.0025788432 0.012946189 0.20904201
0.0012800053 0.0082383063 0.21225275
0.0001706499 0.0044830027 0.21552877
-0.0003164949 0.00080193405 0.2183094
-0.0010334839 -0.003426803 0.22102469
-0.0022263301 -0.0070526409 0.22333688
0.0068552294 0.022303384 0.2006841
0.0067241564 0.020591652 0.20165607
0.0065856068 0.018671833 0.20341426
0.0062778075 0.016544465 0.20620571
0.0051941345 0.013442994 0.20926787
0.0043499563 0.010123038 0.21089192
0 0 0 1 0 0 0 1 0 0 0 1 0 0 0 0 0 346 1 0 0
