ply
format ascii 1.0
comment PCL generated
element vertex 346
property float x
property float y
property float z
element camera 1
property float view_px
property float view_py
property float view_pz
property float x_axisx
property float x_axisy
property float x_axisz
property float y_axisx
property float y_axisy
property float y_axisz
property float z_axisx
property float z_axisy
property float z_axisz
property float focal
property float scalex
property float scaley
property float centerx
property float centery
property int viewportx
property int viewporty
property float k1
property float k2
end_header
-0.057393949 0.019816076 0.19082455
-0.057753194 0.017039029 0.19230503
-0.054821275 0.025056878 0.18615328
-0.055332523 0.02305885 0.18770163
-0.055621002 0.020099578 0.18923964
-0.055863447 0.01699076 0.19096212
-0.056529451 0.013610556 0.19269139
-0.056432728 0.010256032 0.19461872
-0.056046478 0.0070030107 0.19613396
-0.052633986 0.028047929 0.18370786
-0.052776206 0.026017239 0.18426266
-0.052745786 0.023496015 0.18537582
-0.052665874 0.02062868 0.18681036
-0.052824561 0.017477708 0.18867649
-0.053967711 0.01337048 0.19081953
-0.054251827 0.0095797898 0.19328016
-0.05446206 0.0056473464 0.19573753
-0.054247104 0.0015150796 0.19660498
-0.049564842 0.030973673 0.18131971
-0.0501833 0.029467409 0.18204404
-0.05025512 0.026876666 0.18267287
-0.049947765 0.023802051 0.18388306
-0.050319117 0.020943731 0.18593517
-0.050947845 0.016900798 0.18802439
-0.051820155 0.013122704 0.18984284
-0.051841535 0.008876008 0.19230336
-0.052146643 0.0047737113 0.19420615
-0.051684398 -0.0010872605 0.19323944
-0.05166962 -0.0060748844 0.19283387
-0.051755257 -0.0091954777 0.19350223
-0.047982845 0.031654265 0.18038626
-0.047688201 0.029818062 0.18088944
-0.047461964 0.027081927 0.1818421
-0.047671903 0.023899177 0.18381594
-0.048111193 0.020572348 0.18558086
-0.048578899 0.016679861 0.18715607
-0.049293738 0.012394134 0.18912177
-0.049866877 0.0081724105 0.19115254
-0.049863774 0.0018038859 0.19085315
-0.049651887 -0.0034516938 0.18849702
-0.049646359 -0.0074424222 0.18895385
-0.049835853 -0.011471902 0.19135468
-0.050062604 -0.01286406 0.1945412
-0.051853158 -0.01030197 0.20028684
-0.050908741 -0.0084647406 0.20695333
-0.046200011 0.034796812 0.17871127
-0.045721587 0.032851852 0.17941578
-0.045166273 0.030891802 0.18026271
-0.044801109 0.028147964 0.18150085
-0.045087721 0.024210665 0.18335618
-0.045168586 0.020255772 0.18469879
-0.045654312 0.016193325 0.18599597
-0.046312649 0.011583679 0.1876242
-0.047570109 0.0062590959 0.18918602
-0.047641795 -0.00013870427 0.18647483
-0.047244433 -0.0049981773 0.18441008
-0.046859834 -0.008748916 0.1846908
-0.044882219 -0.011958463 0.1902156
-0.048239563 -0.011615898 0.19565456
-0.049235199 -0.0095514525 0.20155661
-0.048972782 -0.0090658721 0.2069564
-0.048362236 -0.0097623765 0.21141306
-0.047957618 -0.012032119 0.21677421
-0.04379132 0.036147889 0.1778485
-0.042870149 0.033912923 0.17909519
-0.042250227 0.031915173 0.18008682
-0.041895613 0.029481951 0.18117665
-0.041852642 0.026092494 0.18260916
-0.041991096 0.020454256 0.18380424
-0.042884771 0.015681483 0.18513756
-0.044556558 0.010310078 0.18664281
-0.045144591 0.0039413925 0.18585278
-0.044320676 -0.0020784254 0.18336613
-0.04322822 -0.0067027272 0.18339394
-0.041536737 -0.009585279 0.18721285
-0.041714463 -0.010067691 0.19250068
-0.04434121 -0.010681367 0.19791077
-0.045505967 -0.0093483003 0.20320119
-0.045340262 -0.009611994 0.20771694
-0.045230243 -0.010951104 0.21174081
-0.046524916 -0.014504413 0.21744803
-0.047439989 -0.020866927 0.22016414
-0.046639081 -0.024946878 0.22181858
-0.041334972 0.040775254 0.17603339
-0.040924001 0.03900148 0.17682399
-0.039663058 0.037310917 0.17807482
-0.039127875 0.033817887 0.17994475
-0.039053451 0.030493783 0.18125537
-0.038598582 0.026822511 0.18274267
-0.038991835 0.020838572 0.1836022
-0.040278357 0.014626947 0.18461476
-0.042279352 0.0083364751 0.18548486
-0.04290254 0.0019099192 0.18305287
-0.041061342 -0.0038881067 0.18278901
-0.039167684 -0.0067395 0.18545739
-0.038782518 -0.0073437323 0.18997301
-0.039683852 -0.0080812126 0.19421177
-0.041009843 -0.0092463791 0.19889589
-0.042256899 -0.0098232618 0.20367095
-0.042166591 -0.01085385 0.20849094
-0.042545032 -0.012939589 0.21234886
-0.043578517 -0.015280083 0.21616755
-0.043906093 -0.019666435 0.219358
-0.044060752 -0.024735471 0.22174342
-0.037799843 0.044308882 0.17386325
-0.036762994 0.043224514 0.17523283
-0.035768963 0.041089315 0.17744191
-0.035101011 0.037397027 0.17941424
-0.035699565 0.031721242 0.18136789
-0.035410639 0.02729368 0.18317182
-0.03619485 0.020255269 0.18369459
-0.03709133 0.014349993 0.18414024
-0.038626522 0.0084527563 0.18437061
-0.04086405 0.00068482122 0.18218145
-0.03835598 -0.0033570773 0.18376186
-0.036765762 -0.0046193697 0.18705495
-0.0366382 -0.0053147119 0.19056676
-0.037238937 -0.0063510868 0.1953731
-0.037826095 -0.0082427822 0.20117407
-0.038976219 -0.010600495 0.20514767
-0.039404839 -0.012321635 0.2094561
-0.039790943 -0.014613741 0.21281491
-0.040505268 -0.017241424 0.21570775
-0.040156066 -0.020239437 0.21834956
-0.040329702 -0.023829548 0.22156094
-0.040299054 -0.026934287 0.22305973
-0.033114098 0.045825846 0.17601435
-0.032896526 0.04425646 0.17632982
-0.032380491 0.041998249 0.17780425
-0.031772174 0.039106436 0.17973398
-0.031976979 0.033626739 0.18193403
-0.032838013 0.028165337 0.18342513
-0.034001302 0.019982159 0.18404889
-0.034271598 0.015034383 0.18411817
-0.035621677 0.008870611 0.18369402
-0.038755003 0.0016039595 0.18208255
-0.036543574 -0.00054489594 0.18412438
-0.035122897 -0.0018390912 0.18792121
-0.034896236 -0.0030058012 0.19154306
-0.035296898 -0.0050719199 0.19591904
-0.034951501 -0.0079621766 0.202371
-0.035898857 -0.010862929 0.20667496
-0.036369134 -0.013343971 0.2102129
-0.036755584 -0.01580655 0.21388097
-0.03705484 -0.018325465 0.21639636
-0.03698713 -0.020302504 0.2188734
-0.03645353 -0.022792356 0.2212327
-0.036670685 -0.025939781 0.22367877
-0.03035084 0.046932884 0.17568511
-0.029811611 0.045410428 0.17642967
-0.028982224 0.042977951 0.17790467
-0.028372351 0.040393744 0.17991191
-0.02859039 0.036161184 0.18194221
-0.029887944 0.02926576 0.18387233
-0.031675085 0.020276239 0.18488353
-0.031745967 0.016050505 0.18487488
-0.032481518 0.011176169 0.18470429
-0.035657499 0.0050974442 0.18354706
-0.034357864 0.004285201 0.18478049
-0.032892354 0.0027027517 0.18714772
-0.032048926 4.989413e-05 0.19065185
-0.032264527 -0.0024407937 0.19386713
-0.031736188 -0.0079529881 0.20384315
-0.03221501 -0.010733744 0.20763493
-0.033796601 -0.013288494 0.21100143
-0.033206254 -0.015941968 0.21579242
-0.033791397 -0.018394856 0.21796574
-0.03405147 -0.020101948 0.22002842
-0.033801496 -0.022654878 0.22214109
-0.033939697 -0.024576355 0.22327553
-0.034828402 -0.025680697 0.22439717
-0.026552457 0.047105365 0.17647289
-0.026233315 0.045560215 0.17727478
-0.02542931 0.043227784 0.17871675
-0.025054419 0.040451031 0.18013607
-0.025847919 0.036825415 0.18219216
-0.02721318 0.030262293 0.18466803
-0.029088305 0.020713564 0.18622002
-0.029124534 0.016975274 0.18643938
-0.028874941 0.014737099 0.18678018
-0.030984456 0.011597874 0.18528722
-0.030579764 0.009444559 0.18528464
-0.029758547 0.0062716869 0.18706895
-0.028508393 0.0033064669 0.19018444
-0.026977342 0.00026121284 0.1956269
-0.029067678 -0.0052973381 0.20313077
-0.029912224 -0.0092313159 0.20831713
-0.029951274 -0.013330463 0.21431834
-0.030531676 -0.017032584 0.21785824
-0.031090323 -0.019354962 0.21941558
-0.031912446 -0.021642055 0.22182558
-0.031787273 -0.023039084 0.22279137
-0.031932771 -0.024115097 0.22414221
-0.031672753 -0.02545948 0.22693415
-0.022454618 0.045154952 0.17871515
-0.022216531 0.043570634 0.17973669
-0.022349102 0.041034009 0.18070713
-0.022808291 0.038567305 0.18139109
-0.023760784 0.035773218 0.18293719
-0.024541419 0.02991683 0.18643342
-0.025777237 0.022592714 0.18849936
-0.026002502 0.019314146 0.18880865
-0.026358265 0.017859852 0.1889146
-0.025737546 0.01751902 0.18930143
-0.025501229 0.014804866 0.18934169
-0.024869645 0.011730045 0.19010334
-0.023226151 0.0072749252 0.19318461
-0.021838207 0.0014366016 0.20137118
-0.024655137 -0.0044557941 0.20622876
-0.026525708 -0.0081756646 0.21065313
-0.02663829 -0.011992776 0.21511766
-0.027278708 -0.015572572 0.22012466
-0.027600961 -0.0185507 0.22078572
-0.028180735 -0.020810273 0.22226113
-0.028628416 -0.021944201 0.22310716
-0.028514478 -0.023331592 0.2243261
-0.028261723 -0.025524514 0.22731899
-0.019293983 0.041946135 0.18154065
-0.019765858 0.039644387 0.18277201
-0.020232446 0.036941066 0.18336017
-0.020691605 0.034314562 0.18490809
-0.02023278 0.031165686 0.18823348
-0.019569272 0.025817188 0.19150701
-0.021162938 0.022831267 0.19100428
-0.023197126 0.020392027 0.19103648
-0.022069689 0.018640308 0.19314013
-0.021643359 0.016321102 0.19377397
-0.021024324 0.013373206 0.19413631
-0.019343967 0.008087812 0.19812672
-0.019551596 0.002379809 0.20379184
-0.021092685 -0.0026270756 0.20791133
-0.02303819 -0.0074927392 0.21296678
-0.023621019 -0.011355108 0.21755789
-0.024433255 -0.014639702 0.22130749
-0.025097523 -0.017660167 0.22206622
-0.025519418 -0.019977899 0.22276765
-0.02541724 -0.021050774 0.22263727
-0.025480272 -0.022964699 0.22359222
-0.025169043 -0.025579024 0.22796185
-0.016849 0.038707089 0.18446861
-0.016847679 0.036487292 0.18545879
-0.017008834 0.033672281 0.18730721
-0.017094962 0.030178748 0.1898609
-0.014036522 0.026313026 0.19315055
-0.015906233 0.02370345 0.19402477
-0.01921363 0.020909799 0.1943181
-0.018670285 0.01842018 0.19599491
-0.018155791 0.016500486 0.19666579
-0.017117046 0.013498726 0.19800228
-0.016564665 0.0081729339 0.20240191
-0.016750818 0.0029980219 0.20633629
-0.018096454 -0.0013553652 0.20947038
-0.01985064 -0.0072504063 0.21514443
-0.02026261 -0.011120999 0.22012141
-0.021254394 -0.014039969 0.22253183
-0.022206733 -0.017329989 0.22326334
-0.022283113 -0.019562876 0.22363131
-0.022392364 -0.020840203 0.22315632
-0.02247492 -0.023056347 0.22496344
-0.02173603 -0.025668245 0.23012005
-0.013790282 0.03605539 0.18695655
-0.013729479 0.033194754 0.1887777
-0.013115594 0.029989721 0.1908984
-0.0099610705 0.026304703 0.19420852
-0.011611301 0.02356514 0.19627312
-0.01483302 0.021613061 0.19612554
-0.015322596 0.018337077 0.1977897
-0.013952452 0.015374884 0.20020777
-0.013125449 0.011913435 0.20309702
-0.013679258 0.0085286945 0.20548409
-0.013995705 0.0042084185 0.20793323
-0.01471018 -8.2051381e-05 0.21179868
-0.016639851 -0.0071189608 0.21737912
-0.016942315 -0.010664222 0.22107029
-0.018052202 -0.013498828 0.22309418
-0.01968696 -0.015917648 0.22365917
-0.019920301 -0.018526332 0.22400515
-0.01956241 -0.020747129 0.2245103
-0.018514486 -0.023595136 0.22837994
-0.017486412 -0.027211672 0.23392817
-0.010280105 0.032568213 0.19010442
-0.0078595225 0.030004105 0.19259013
-0.0062523219 0.026363354 0.19633304
-0.0068921777 0.023375785 0.19896863
-0.0099394443 0.021704311 0.19879463
-0.011973425 0.018890617 0.19951384
-0.0109868 0.015333389 0.20286973
-0.010764119 0.011925067 0.20542327
-0.010987707 0.0089647127 0.2070262
-0.01170148 0.0055325259 0.20923983
-0.011345157 0.00032717435 0.21406716
-0.011993555 -0.005116934 0.21869728
-0.013378554 -0.0086244531 0.22121419
-0.013882294 -0.011890323 0.22365175
-0.016301094 -0.014201825 0.22380999
-0.017044488 -0.017241741 0.22525628
-0.016415132 -0.020570403 0.22668795
-0.014000487 -0.024212923 0.23216662
-0.0039728908 0.028953951 0.19569775
-0.0022902593 0.026175793 0.19850083
-0.0018016151 0.023647392 0.2002724
-0.0034838768 0.021195272 0.20160291
-0.0069204504 0.019217892 0.20185691
-0.0084189223 0.016014939 0.20464781
-0.0084033525 0.012270716 0.20687421
-0.0086298166 0.0096221659 0.20848994
-0.0089671966 0.0057995855 0.21170412
-0.0076604122 0.00029587999 0.21592656
-0.008307945 -0.0046463776 0.22033161
-0.0089893481 -0.0078253811 0.2218477
-0.0096194381 -0.011065052 0.22450718
-0.010808988 -0.013745988 0.22584835
-0.012960603 -0.016031539 0.22686836
-0.01345582 -0.019840023 0.22834077
-0.01177205 -0.022869151 0.23157382
-0.00019159433 0.027591746 0.19817138
0.0016091164 0.025680423 0.19893703
0.0021448773 0.023196246 0.20041312
0.0011347437 0.020962274 0.20189577
-6.4721899e-05 0.018907262 0.20376389
-0.0014375282 0.016517457 0.20556739
-0.0043062153 0.012973913 0.2081102
-0.0045524328 0.0087363264 0.21112122
-0.0041952403 0.0046612648 0.2141315
-0.0035760559 0.00045310863 0.21733609
-0.0045321262 -0.0039717038 0.22098476
-0.005055049 -0.0075045386 0.22256498
-0.00547896 -0.010720373 0.22471406
-0.0068275458 -0.013572542 0.22642551
0.0044319299 0.024488853 0.19913533
0.0048755896 0.022690885 0.19999406
0.0041633155 0.020734884 0.20128424
0.0038085754 0.018882429 0.20321122
0.0035425711 0.016884498 0.20565596
0.0027775529 0.012890955 0.20858851
0.0014247105 0.0080510369 0.21168555
0.00022670141 0.0043081315 0.21496616
-0.00035541097 0.00067139725 0.21784727
-0.0011830967 -0.0035166123 0.22070885
-0.002418888 -0.0071723652 0.22305329
0.0072392616 0.022290947 0.20019476
0.0070853145 0.020642757 0.20125896
0.006896724 0.018779142 0.2030839
0.0065362551 0.016658193 0.20588949
0.0053897975 0.013379898 0.20885238
0.0045139324 0.0099025276 0.21031561
0 0 0 1 0 0 0 1 0 0 0 1 0 0 0 0 0 346 1 0 0
