ply
format ascii 1.0
comment PCL generated
element vertex 346
property float x
property float y
property float z
element camera 1
property float view_px
property float view_py
property float view_pz
property float x_axisx
property float x_axisy
property float x_axisz
property float y_axisx
property float y_axisy
property float y_axisz
property float z_axisx
property float z_axisy
property float z_axisz
property float focal
property float scalex
property float scaley
property float centerx
property float centery
property int viewportx
property int viewporty
property float k1
property float k2
end_header
-0.057350658 0.019769935 0.19065271
-0.057703257 0.017015835 0.19213594
-0.054804537 0.024974875 0.18602063
-0.055295702 0.022989355 0.1875322
-0.055577826 0.020048317 0.18906578
-0.055823676 0.016967064 0.19079342
-0.056509271 0.01359379 0.19248629
-0.056422189 0.010264999 0.19435062
-0.056023296 0.0070415381 0.19582891
-0.052659795 0.027963735 0.18358658
-0.052784629 0.025935225 0.18415411
-0.052731492 0.023418192 0.18524624
-0.052633263 0.020565193 0.18664424
-0.052779432 0.017436041 0.1885056
-0.053968064 0.013344211 0.19058228
-0.054272238 0.0095823156 0.192972
-0.054460533 0.0056813741 0.19537902
-0.054113001 0.001607962 0.1963708
-0.049583115 0.030864473 0.18119936
-0.050224878 0.029371154 0.18192603
-0.050282836 0.026799552 0.18256259
-0.049960103 0.023731051 0.1837696
-0.050304517 0.02086591 0.1857789
-0.05093234 0.016851133 0.18783903
-0.051854834 0.013064123 0.18954538
-0.051918458 0.0088560227 0.19191976
-0.052067488 0.0047629871 0.19387226
-0.051662203 -0.00092117756 0.19299494
-0.051647782 -0.0058104102 0.19281521
-0.051711354 -0.0088517228 0.19364882
-0.048005119 0.031521898 0.18026432
-0.047730513 0.029714303 0.18074714
-0.047508776 0.026991315 0.18171445
-0.047712069 0.023820652 0.18365364
-0.048115242 0.02047785 0.18538266
-0.048582938 0.0166195 0.18692388
-0.049377691 0.012297756 0.18873352
-0.050008163 0.0081440452 0.19065222
-0.049928386 0.0018392444 0.19043167
-0.049780514 -0.0034191383 0.18822227
-0.049745359 -0.0073586614 0.18888359
-0.049898993 -0.011176497 0.1915652
-0.050123017 -0.012200564 0.19493143
-0.051713485 -0.0090722982 0.20074485
-0.050343346 -0.0068583963 0.20758079
-0.046247926 0.034606233 0.17859048
-0.045764811 0.032682713 0.17926624
-0.045215819 0.0307432 0.18006901
-0.044850294 0.028022919 0.18127233
-0.04515532 0.024123168 0.18310657
-0.045208734 0.020143056 0.18440358
-0.045686107 0.016092427 0.18568106
-0.046390891 0.011443336 0.18708487
-0.04763991 0.006103537 0.18850796
-0.047848787 -0.00022367503 0.185919
-0.047489118 -0.0051703611 0.18405686
-0.047091357 -0.0088938903 0.18451777
-0.045137919 -0.011636474 0.19042028
-0.048318408 -0.010788224 0.19598708
-0.049051613 -0.0081810672 0.20202111
-0.048452038 -0.0076117017 0.20750272
-0.047687296 -0.0085061239 0.21187268
-0.04783798 -0.011710291 0.2167847
-0.043857809 0.035936899 0.17769261
-0.042932432 0.033717569 0.17889179
-0.042316627 0.031743366 0.179849
-0.04197051 0.029340958 0.18089375
-0.04194244 0.025961334 0.18225764
-0.042078517 0.020294918 0.18336384
-0.04291869 0.015519097 0.18462524
-0.044634875 0.010160227 0.18587656
-0.045390505 0.003864991 0.18474436
-0.044593513 -0.0023386735 0.18273929
-0.043507345 -0.0069573559 0.18304242
-0.041847639 -0.009608089 0.18698208
-0.041912582 -0.0096457554 0.19249539
-0.044482939 -0.00962306 0.19817208
-0.045242496 -0.0080881836 0.20357922
-0.044917166 -0.0084522152 0.20800729
-0.04472008 -0.010061105 0.21211325
-0.046521433 -0.014360076 0.21739514
-0.047487218 -0.020889552 0.21997318
-0.046658926 -0.025001207 0.22150964
-0.041456867 0.040620621 0.17587616
-0.041031107 0.038825881 0.17665225
-0.039757136 0.037189558 0.17788522
-0.039211582 0.033675365 0.17971234
-0.039144684 0.030360781 0.18096972
-0.038705613 0.026696628 0.1823945
-0.039076164 0.020700509 0.18307044
-0.040315125 0.014470164 0.18389384
-0.042263173 0.0081189713 0.18447073
-0.043116838 0.0016276756 0.18202326
-0.041323431 -0.0042593582 0.18219796
-0.039385159 -0.0069263964 0.18506949
-0.038896125 -0.0072143138 0.18966532
-0.039750926 -0.007651004 0.1940262
-0.040963989 -0.0082996842 0.19895387
-0.041991461 -0.008827447 0.20389362
-0.041763093 -0.010084215 0.20863809
-0.042528205 -0.012618068 0.21229802
-0.043596845 -0.015132314 0.21604973
-0.043981433 -0.019648349 0.2192466
-0.04408275 -0.024772216 0.22145249
-0.03799754 0.044295575 0.17377813
-0.036945835 0.043225344 0.1751447
-0.035926726 0.041090567 0.17733663
-0.035191391 0.037376069 0.17928074
-0.035758045 0.031621959 0.18112335
-0.035485331 0.027194737 0.1828406
-0.036250211 0.020202894 0.18307424
-0.037103809 0.014233905 0.18328428
-0.038645867 0.0082718683 0.18312116
-0.041100617 0.00028546448 0.18112929
-0.038570009 -0.0037378685 0.18307522
-0.036915999 -0.0047366582 0.18644796
-0.036705472 -0.0052326978 0.19002132
-0.037211936 -0.0060357791 0.19494846
-0.037695784 -0.0075837853 0.20105767
-0.038838085 -0.010002062 0.20516716
-0.039164715 -0.01193344 0.20943025
-0.039813686 -0.014417225 0.2126548
-0.040534858 -0.01714414 0.21551247
-0.040217575 -0.020199282 0.21815315
-0.040364657 -0.023858525 0.22129278
-0.040304057 -0.026991826 0.222718
-0.033319108 0.045887388 0.17596653
-0.03308427 0.044322278 0.17626759
-0.032540638 0.042069733 0.17772757
-0.031887852 0.03917684 0.17963512
-0.031980503 0.033597946 0.18173514
-0.032873061 0.028104898 0.1831053
-0.034037694 0.019950515 0.1833778
-0.034261033 0.014961622 0.18321736
-0.03572749 0.0087561635 0.18239917
-0.038958322 0.0011095305 0.18085201
-0.036709875 -0.00096058048 0.18312374
-0.035226561 -0.0019088039 0.18702874
-0.034901317 -0.0029602742 0.19082245
-0.035226244 -0.0048945122 0.1953443
-0.03479642 -0.0077076619 0.20206718
-0.035753369 -0.010734411 0.2064517
-0.036434837 -0.0131522 0.21005039
-0.036801454 -0.015705904 0.2137063
-0.037102547 -0.018273951 0.21618089
-0.037039604 -0.020298116 0.21861339
-0.03649693 -0.022817155 0.22094819
-0.036678292 -0.025956918 0.22333804
-0.030564139 0.047038026 0.1756499
-0.030005274 0.045526426 0.17638581
-0.029146241 0.043105699 0.17783999
-0.028496236 0.040529978 0.17982735
-0.028651046 0.036246952 0.18180844
-0.029887505 0.029270466 0.18356644
-0.031693771 0.020265719 0.18419717
-0.031700488 0.016040007 0.18397489
-0.032460246 0.011081957 0.18346176
-0.0357651 0.0047785616 0.18216836
-0.034431491 0.0040346053 0.18346484
-0.032943022 0.0026375835 0.18596385
-0.032091446 0.00017574661 0.18972948
-0.032220665 -0.0024492457 0.19315632
-0.031835031 -0.0077521643 0.20367709
-0.032350808 -0.010654191 0.20747678
-0.033864506 -0.013216591 0.21079142
-0.033271596 -0.015895639 0.21566178
-0.033863503 -0.018381149 0.21778059
-0.034117974 -0.020116983 0.21978971
-0.033822801 -0.022671469 0.22184774
-0.033969477 -0.024559492 0.22298233
-0.034827989 -0.02564187 0.22406127
-0.026736345 0.047240298 0.17644924
-0.026396325 0.045697708 0.17723861
-0.025555141 0.043364044 0.17866693
-0.025157342 0.040582716 0.18007666
-0.025925279 0.036941409 0.18210086
-0.02722308 0.030299651 0.18441507
-0.029095119 0.020705014 0.18551506
-0.029080326 0.016983045 0.18551858
-0.028774224 0.014804693 0.18574518
-0.030986458 0.011529108 0.18400522
-0.0305914 0.0093422532 0.18391562
-0.029803986 0.0062173898 0.18578857
-0.028585674 0.003375151 0.18903917
-0.026993321 0.0003827925 0.19479588
-0.029209109 -0.0053156884 0.20280844
-0.030063713 -0.0093328506 0.20815563
-0.030042561 -0.013356232 0.21427441
-0.030676233 -0.017045651 0.21775779
-0.031204961 -0.019336123 0.21921235
-0.031962309 -0.021630434 0.221554
-0.031815201 -0.022997519 0.22249284
-0.031942468 -0.024033291 0.22382453
-0.031668879 -0.025315443 0.22659057
-0.022566782 0.045262728 0.17870995
-0.02230354 0.043661773 0.1797314
-0.022421038 0.041124489 0.18069425
-0.0228661 0.038658816 0.18136559
-0.02380863 0.035868883 0.18286711
-0.024527095 0.029909585 0.18613985
-0.025784163 0.022586089 0.18781927
-0.025964672 0.019392354 0.18796682
-0.026305892 0.017948026 0.18799292
-0.025669245 0.017661575 0.18836604
-0.025403934 0.015010208 0.1882946
-0.024738761 0.011958544 0.18896864
-0.023046026 0.0074363379 0.1921138
-0.021756096 0.0014853466 0.20077704
-0.024821429 -0.0046258559 0.20587876
-0.026759796 -0.0084133046 0.21040869
-0.026806541 -0.012253016 0.21484956
-0.027383327 -0.015647914 0.21988878
-0.027700117 -0.018537313 0.22053032
-0.028217932 -0.020773083 0.22194357
-0.028668322 -0.021893485 0.22278017
-0.028566748 -0.023245569 0.22399609
-0.028296888 -0.025393553 0.22698522
-0.019338194 0.042006116 0.18160111
-0.019790679 0.039710261 0.1827994
-0.020232676 0.037009791 0.18335231
-0.020674255 0.034372464 0.18484481
-0.020191239 0.031157583 0.18806264
-0.019505747 0.025777791 0.19114049
-0.021103609 0.023024099 0.19034608
-0.023139464 0.020636916 0.1902124
-0.021916537 0.018946093 0.19226378
-0.021432821 0.016647745 0.19284484
-0.020758364 0.013745779 0.19313337
-0.019047217 0.0082277246 0.19723746
-0.019438727 0.0024376812 0.20317659
-0.021140149 -0.002746495 0.20741968
-0.02318776 -0.0078152949 0.21260001
-0.023720613 -0.011640904 0.21716604
-0.024508176 -0.014830573 0.22097014
-0.025219435 -0.01775872 0.22176544
-0.025599092 -0.019993747 0.22244953
-0.025510205 -0.021033319 0.22230785
-0.025557807 -0.022914158 0.22327571
-0.025257243 -0.025455616 0.2276108
-0.016873466 0.038783539 0.18452683
-0.01685496 0.036567185 0.18547955
-0.017014774 0.033720814 0.18726727
-0.017094132 0.030153533 0.1897327
-0.014023904 0.026307663 0.19293867
-0.015803393 0.023854125 0.19351418
-0.01899991 0.021188615 0.19358939
-0.018416781 0.018684633 0.19518258
-0.017868036 0.016767079 0.19581462
-0.016777104 0.013748601 0.19708355
-0.016270332 0.0082009789 0.20161113
-0.016609864 0.0029984727 0.20570861
-0.01806066 -0.0014479402 0.20889762
-0.019940579 -0.0076057026 0.2146543
-0.020323353 -0.011394464 0.21966605
-0.021322044 -0.014233723 0.22211455
-0.022335202 -0.017439453 0.22291517
-0.022446746 -0.019607825 0.22331144
-0.022543827 -0.020846773 0.22284396
-0.02261476 -0.022980636 0.22460304
-0.02187312 -0.025541296 0.22977366
-0.013803386 0.03615183 0.18698226
-0.013757636 0.033241063 0.18875961
-0.01314488 0.029998034 0.19082423
-0.0099248793 0.026332339 0.1940124
-0.011482414 0.023630174 0.19584879
-0.014629629 0.021780146 0.19550973
-0.015090181 0.01851741 0.19705659
-0.013680971 0.015487075 0.1994452
-0.012827326 0.011928179 0.20237736
-0.013421915 0.0085159503 0.20476182
-0.013810467 0.0041782176 0.20726976
-0.014577935 -0.00017802849 0.21117119
-0.016653288 -0.0075100884 0.21680973
-0.016982108 -0.010966143 0.22054537
-0.018131647 -0.01372113 0.22257818
-0.019793419 -0.016051546 0.22317393
-0.020092813 -0.018605137 0.22361809
-0.019743277 -0.020758169 0.22418629
-0.018680993 -0.023530198 0.22810729
-0.017698703 -0.027167188 0.23368025
-0.010286444 0.032646246 0.19003034
-0.0078432513 0.0300992 0.1924572
-0.006177336 0.026366083 0.19608694
-0.0067672762 0.023325125 0.19856554
-0.0097871255 0.021743087 0.19829212
-0.011785338 0.019005504 0.19884111
-0.010714331 0.015342652 0.20218216
-0.010533237 0.011927503 0.20478502
-0.010789108 0.0089669265 0.20639181
-0.011564884 0.0055354317 0.20863065
-0.011239356 0.00016090002 0.21352667
-0.011936267 -0.0054640765 0.21814618
-0.013380819 -0.0089876736 0.22060156
-0.013962725 -0.012184498 0.22307116
-0.016383288 -0.01442034 0.22318882
-0.017179402 -0.017352857 0.22470555
-0.016623721 -0.020582089 0.22630365
-0.0142136 -0.02417681 0.23189631
-0.0039183195 0.028991787 0.19544905
-0.0021347078 0.02613581 0.19802539
-0.0016227842 0.023614632 0.19973366
-0.0033258812 0.021176208 0.20106457
-0.0067376602 0.019221621 0.20128042
-0.0081861783 0.016017737 0.20401998
-0.0082216766 0.012267082 0.20630124
-0.0084869443 0.0096241469 0.20792486
-0.0089166705 0.0058133877 0.21118008
-0.0076373164 0.00014102265 0.21554716
-0.0083362106 -0.0048796805 0.2199562
-0.0090360492 -0.0080792392 0.22146244
-0.0097349305 -0.011272918 0.22412051
-0.010957397 -0.013946762 0.22540072
-0.013061047 -0.016210213 0.22621089
-0.013658583 -0.019862076 0.22792257
-0.011984098 -0.022853581 0.23132056
-3.9562856e-05 0.027547998 0.19766945
0.001794247 0.025655469 0.1984378
0.002327177 0.023207987 0.19995488
0.00131709 0.021005021 0.20146707
0.00010158318 0.018977067 0.20335476
-0.0012660899 0.016547492 0.20518407
-0.0041736457 0.012953121 0.20765276
-0.0044789189 0.0087055666 0.21071097
-0.0041769571 0.0045869048 0.21378566
-0.0035958106 0.00033754206 0.21708067
-0.0046133297 -0.0041098022 0.22074714
-0.0051571298 -0.0076552131 0.22237021
-0.0056312252 -0.010825205 0.22454014
-0.0070219319 -0.013656238 0.22624089
0.0046193916 0.024500124 0.19874248
0.0050799414 0.022729337 0.1996499
0.0043483605 0.020797867 0.20096484
0.0039756503 0.01896226 0.20291997
0.0036705097 0.016971095 0.20537192
0.0028871568 0.012871442 0.20832025
0.0015205299 0.0079644658 0.21146941
0.00025127461 0.0042167357 0.21475177
-0.00038959546 0.00058143557 0.2176808
-0.0012796443 -0.0036040659 0.22059783
-0.0025426059 -0.0072701108 0.22294153
0.0074317618 0.022353148 0.19992407
0.0072710779 0.020723501 0.20101812
0.0070590284 0.018879067 0.20287132
0.0066661546 0.016750868 0.20567437
0.0054879901 0.013381353 0.20862125
0.0046203518 0.0098331152 0.21010917
0 0 0 1 0 0 0 1 0 0 0 1 0 0 0 0 0 346 1 0 0
