ply
format ascii 1.0
comment PCL generated
element vertex 346
property float x
property float y
property float z
element camera 1
property float view_px
property float view_py
property float view_pz
property float x_axisx
property float x_axisy
property float x_axisz
property float y_axisx
property float y_axisy
property float y_axisz
property float z_axisx
property float z_axisy
property float z_axisz
property float focal
property float scalex
property float scaley
property float centerx
property float centery
property int viewportx
property int viewporty
property float k1
property float k2
end_header
-0.057460029 0.019510545 0.1907987
-0.057766706 0.016751392 0.19221388
-0.054881204 0.024944862 0.18661682
-0.055387124 0.022872424 0.18794848
-0.055648863 0.019871626 0.18928957
-0.055853549 0.016763873 0.19093217
-0.056537613 0.013356346 0.1925226
-0.0564478 0.010043004 0.19430315
-0.056031 0.0068630041 0.19576129
-0.052826297 0.028018108 0.18422458
-0.052903686 0.025970316 0.18476799
-0.052809875 0.023428673 0.18577039
-0.05268823 0.020498605 0.1870037
-0.05275771 0.017312333 0.18873863
-0.053944312 0.013161084 0.19065395
-0.054266986 0.0093959533 0.19295341
-0.054454394 0.005523535 0.19531772
-0.054019753 0.0014555948 0.19613884
-0.049861148 0.030983737 0.18177845
-0.050471205 0.029468019 0.18250465
-0.050470449 0.026868537 0.18306939
-0.050096348 0.023767151 0.18422313
-0.050371349 0.020825125 0.18615066
-0.05086622 0.016733369 0.18815129
-0.051773459 0.012884597 0.18967026
-0.051869664 0.0086904932 0.19195381
-0.051975988 0.0045749233 0.19366652
-0.051538449 -0.00095046172 0.19277717
-0.051495545 -0.0057623051 0.19266997
-0.05154096 -0.0087636365 0.19356671
-0.04833528 0.031638283 0.18080887
-0.048023429 0.029844642 0.18123659
-0.047751423 0.027069483 0.18206814
-0.047869902 0.023850733 0.1840281
-0.048194919 0.020435214 0.18570122
-0.048502333 0.016568191 0.18726161
-0.049224023 0.012175169 0.18895794
-0.049899548 0.0080071427 0.19071482
-0.049808998 0.0017518201 0.19019929
-0.049649939 -0.0034574426 0.18799993
-0.049604483 -0.007372411 0.18871704
-0.049760096 -0.011087609 0.1915272
-0.05000617 -0.01190818 0.19498591
-0.051584605 -0.0084995022 0.20076235
-0.05019778 -0.0060655465 0.20763846
-0.046639707 0.034638293 0.17897679
-0.046130542 0.0327981 0.17975077
-0.045555446 0.030921746 0.18053038
-0.04511784 0.028140642 0.18157727
-0.045339156 0.024200156 0.18338393
-0.04531401 0.020146718 0.18462348
-0.045578703 0.016069386 0.18599802
-0.046021443 0.011347365 0.18744658
-0.047420055 0.0059029353 0.18828394
-0.047706299 -0.00029491252 0.18565115
-0.047360368 -0.005249938 0.18381891
-0.046972882 -0.0089688227 0.18432541
-0.045102622 -0.011491667 0.19048351
-0.048232116 -0.010374733 0.19603394
-0.048962362 -0.0074845599 0.20205483
-0.048324171 -0.0068949498 0.2075543
-0.047587309 -0.007922045 0.21185242
-0.047689747 -0.011053827 0.21697792
-0.044278059 0.036001466 0.17814557
-0.043318346 0.033896115 0.17948426
-0.042668615 0.03197027 0.18048349
-0.042260565 0.029541995 0.18142204
-0.042125601 0.026073236 0.18250507
-0.042178668 0.020283725 0.18357317
-0.042710617 0.015403031 0.18478799
-0.044145823 0.0099478615 0.18616764
-0.045081086 0.0036957243 0.18449026
-0.044470768 -0.0024570706 0.18242981
-0.043468706 -0.0070853881 0.18280418
-0.041859973 -0.0096705211 0.1868206
-0.041880626 -0.0094559686 0.19241583
-0.044471342 -0.0089797517 0.19825335
-0.04515988 -0.0074099842 0.20363136
-0.044855379 -0.0078728385 0.2079858
-0.044701722 -0.0096726045 0.21209572
-0.046573915 -0.013945165 0.21758389
-0.047692683 -0.020556239 0.22017257
-0.046884619 -0.024680024 0.22173557
-0.041832604 0.040618658 0.17626561
-0.041418698 0.03892719 0.1771695
-0.040145487 0.037465803 0.17873225
-0.039610773 0.034038454 0.18081522
-0.039442003 0.030645564 0.1817642
-0.038854744 0.026833391 0.18279287
-0.039133076 0.020696275 0.18319027
-0.04003178 0.014353125 0.18376419
-0.04188554 0.0079646762 0.18394175
-0.042951945 0.0014953829 0.18145047
-0.041283369 -0.0044908528 0.18182577
-0.039349157 -0.0070951963 0.18473864
-0.038713459 -0.0071891132 0.18941404
-0.039621349 -0.0074089384 0.19385517
-0.04090805 -0.0076878909 0.19893242
-0.041947436 -0.0082785655 0.20393275
-0.041744083 -0.0097325519 0.20856458
-0.042458232 -0.012214913 0.21245115
-0.043645632 -0.014801125 0.21625428
-0.04421832 -0.019316202 0.21951218
-0.04431377 -0.024462696 0.22171018
-0.038225386 0.044208489 0.174307
-0.037193242 0.04324577 0.17578183
-0.036199376 0.041292511 0.17815389
-0.035571229 0.037762124 0.18050504
-0.036085755 0.031991016 0.18217966
-0.035686072 0.02737402 0.18340306
-0.036264718 0.02033616 0.18303227
-0.036810763 0.014253818 0.18279845
-0.038338821 0.0082242414 0.18222165
-0.041005645 7.3037379e-05 0.18047692
-0.0385301 -0.0040337797 0.18256277
-0.036792777 -0.0049115187 0.18593223
-0.036496341 -0.0052950117 0.18956529
-0.037060864 -0.0058686212 0.19462594
-0.037675671 -0.0071084527 0.20097515
-0.038917046 -0.0096911658 0.2051028
-0.039257899 -0.011833345 0.20931654
-0.039826415 -0.014232714 0.21277446
-0.04056979 -0.016889101 0.21575803
-0.040393382 -0.01989943 0.21846601
-0.04060898 -0.023554506 0.22163199
-0.040551618 -0.026733594 0.22302268
-0.033532679 0.045955133 0.17652185
-0.033319816 0.044410404 0.17691615
-0.03281264 0.042260237 0.17853448
-0.032208458 0.039503973 0.18067692
-0.0322969 0.033929158 0.18277086
-0.033122391 0.028317139 0.18376873
-0.03403265 0.020103602 0.18330599
-0.033995185 0.015113585 0.18255852
-0.035326384 0.0086757839 0.18170618
-0.038867995 0.00080467266 0.17998791
-0.036595192 -0.001310803 0.18236324
-0.035011671 -0.0020796165 0.18629713
-0.034633067 -0.0030811212 0.19023786
-0.03505934 -0.004813896 0.19494082
-0.034830499 -0.0074545401 0.20189579
-0.035875402 -0.010708544 0.20626333
-0.036532991 -0.013392821 0.20980795
-0.03681979 -0.015559719 0.21390301
-0.037177023 -0.018051693 0.21645153
-0.037178252 -0.020082023 0.21889341
-0.036694162 -0.022622164 0.22125122
-0.036938123 -0.025633005 0.22375914
-0.030763615 0.047065064 0.17617832
-0.030227801 0.045611057 0.1770286
-0.029406799 0.043306358 0.17866609
-0.028792206 0.040833108 0.18083099
-0.028939273 0.036561701 0.18280618
-0.03011637 0.029468536 0.18418413
-0.031724814 0.020442553 0.18426108
-0.031444084 0.016274136 0.18345499
-0.032007903 0.011160887 0.18242788
-0.035403263 0.0045004557 0.18086144
-0.034032937 0.0037382233 0.18219134
-0.032593571 0.0025005976 0.18484135
-0.031848539 0.0001917526 0.18892656
-0.032003596 -0.0025593038 0.1926773
-0.031937759 -0.0079962946 0.2032354
-0.032495312 -0.011181446 0.20697469
-0.033951662 -0.013695579 0.21043548
-0.033310149 -0.015760057 0.21592754
-0.033970725 -0.01824197 0.21807341
-0.03426645 -0.019988727 0.22009967
-0.034021914 -0.022472622 0.22234046
-0.03425331 -0.024292625 0.22360116
-0.035073079 -0.025293324 0.22460759
-0.026986212 0.04738225 0.177194
-0.026667625 0.045901343 0.17809139
-0.02585203 0.043669511 0.17969826
-0.02545825 0.040933762 0.1811748
-0.026203975 0.037258055 0.18309455
-0.027469642 0.030467371 0.18513325
-0.029201765 0.02089449 0.18576112
-0.028920872 0.017214011 0.18524644
-0.02846775 0.015098468 0.1852684
-0.030634679 0.011582456 0.18305545
-0.03023662 0.0093083717 0.18290055
-0.029561434 0.0062436601 0.18495014
-0.028477507 0.0035631966 0.18844955
-0.027083859 0.00074555475 0.1945599
-0.029495575 -0.0052638976 0.20258404
-0.030240363 -0.0096786339 0.20772408
-0.030062463 -0.013629618 0.21433231
-0.030815912 -0.017148426 0.21798457
-0.031400606 -0.01937505 0.21949701
-0.032152291 -0.021512656 0.22197434
-0.032003455 -0.022824841 0.22294642
-0.032118089 -0.023812806 0.22425215
-0.031801354 -0.025068233 0.22691767
-0.022909451 0.045619227 0.17979419
-0.022641424 0.044026129 0.18082674
-0.022736674 0.041485596 0.18174873
-0.02316005 0.03899825 0.18235208
-0.024061868 0.036146134 0.18375914
-0.024775581 0.030047659 0.18685147
-0.026148582 0.022793407 0.18849686
-0.026155027 0.019706598 0.18832198
-0.026423967 0.018278269 0.18816383
-0.025812324 0.018070344 0.18861532
-0.025439417 0.015496396 0.18840113
-0.024784133 0.012439535 0.18901786
-0.02316107 0.0079445373 0.19208115
-0.02187534 0.0021140196 0.20080115
-0.025295896 -0.0042038122 0.20588353
-0.027306188 -0.0082938028 0.21038342
-0.027331328 -0.012194674 0.2149473
-0.027350398 -0.016045652 0.2196524
-0.027790602 -0.01878684 0.22055127
-0.028328346 -0.020830439 0.22212778
-0.028822351 -0.021879334 0.22302279
-0.028715739 -0.023195744 0.22421966
-0.02840798 -0.025332306 0.22717433
-0.019596161 0.042252816 0.18243679
-0.020026876 0.039950311 0.18355283
-0.02047292 0.037239294 0.18408287
-0.020881556 0.03459483 0.18554613
-0.02032822 0.031391587 0.1886701
-0.019743776 0.026021274 0.19176985
-0.021477433 0.023561832 0.19121118
-0.023518484 0.021199076 0.19100228
-0.022332177 0.019606736 0.19319715
-0.021838818 0.0173313 0.19374111
-0.021158805 0.014477694 0.19390181
-0.019065142 0.0087643554 0.19743308
-0.019375008 0.0029011285 0.20308694
-0.021373961 -0.002351085 0.20731528
-0.023759713 -0.0076097976 0.21265018
-0.024060456 -0.011754338 0.21706811
-0.024499139 -0.015321997 0.22056131
-0.025271611 -0.018247467 0.22150351
-0.025741631 -0.020234296 0.22246516
-0.025677793 -0.021223493 0.22237897
-0.025745776 -0.023035405 0.22338344
-0.025407998 -0.025534114 0.2275863
-0.017035887 0.038850363 0.18498045
-0.01703299 0.036659647 0.18598022
-0.017189553 0.033901267 0.18786575
-0.017237419 0.030383578 0.19033989
-0.014310545 0.026685491 0.1937761
-0.016229106 0.024533434 0.19462013
-0.019375447 0.021887984 0.1947425
-0.018700182 0.019340647 0.19624069
-0.018026216 0.01740904 0.19677059
-0.016714847 0.014343875 0.19766931
-0.015877992 0.0084785298 0.20149024
-0.01636623 0.0032182571 0.20543239
-0.0180263 -0.001284581 0.20857777
-0.020366544 -0.0075724637 0.21447384
-0.020397162 -0.011786684 0.21919303
-0.021244163 -0.014823262 0.2214361
-0.022397535 -0.017981336 0.22247297
-0.022619791 -0.020001085 0.22310866
-0.022735111 -0.021203928 0.22275192
-0.022835948 -0.023181388 0.22448176
-0.021996491 -0.025827756 0.22955619
-0.013961109 0.036194623 0.18737175
-0.013910769 0.033417158 0.18933508
-0.013285143 0.030225024 0.19144191
-0.010181201 0.026750304 0.19486688
-0.011909735 0.024369091 0.19707489
-0.015070776 0.022533899 0.19675769
-0.015377133 0.019203687 0.19814722
-0.013759094 0.016108368 0.20029417
-0.012604941 0.012316203 0.20270124
-0.013059188 0.0086081661 0.20466717
-0.013446601 0.004187888 0.20689334
-0.014251648 -0.0003525613 0.21063307
-0.016738877 -0.0078424374 0.21625571
-0.016922576 -0.011539198 0.21972887
-0.018034372 -0.014411394 0.2216247
-0.019781264 -0.016680716 0.22238718
-0.020260973 -0.019127192 0.22318648
-0.019967226 -0.021167599 0.22395359
-0.018911175 -0.023912143 0.22778936
-0.018154653 -0.028093563 0.23316887
-0.010407523 0.032809857 0.19052976
-0.0079521928 0.030304244 0.19294947
-0.0062980652 0.026756119 0.19677368
-0.0069489717 0.023945972 0.1995694
-0.01021318 0.022561278 0.19953102
-0.012179916 0.01981114 0.20003928
-0.010913807 0.015967853 0.20312445
-0.010439322 0.012220972 0.20519088
-0.010514877 0.0090609286 0.20637311
-0.011247311 0.0055087223 0.20831999
-0.010890656 -0.00016376231 0.21301769
-0.011677247 -0.0059709451 0.21772985
-0.013227423 -0.009629936 0.22002696
-0.013960894 -0.012845594 0.22240464
-0.01633868 -0.015152394 0.22222091
-0.01729331 -0.01789601 0.22408007
-0.016884839 -0.020993553 0.22603095
-0.014669878 -0.024976464 0.23165813
-0.0039791996 0.029241081 0.19588651
-0.0021220096 0.026477603 0.19857571
-0.0015849129 0.024016446 0.20037349
-0.0033637909 0.021678528 0.2018628
-0.0070998943 0.020075476 0.20256034
-0.0085188895 0.016637413 0.20512196
-0.0081783971 0.012519358 0.20673655
-0.0082772756 0.0096806381 0.20795994
-0.0085817939 0.0057005007 0.21085258
-0.0074466816 -0.0001049753 0.21512792
-0.0082985191 -0.0052027791 0.21992882
-0.0090756677 -0.0084770797 0.22157605
-0.0099811284 -0.011650142 0.22425865
-0.011246351 -0.014386734 0.22534305
-0.013257409 -0.01670314 0.22572638
-0.014001318 -0.0202753 0.22773001
-0.012435403 -0.023579324 0.2312824
-2.2082448e-05 0.027831385 0.19814822
0.00184086 0.025965719 0.1989399
0.0024061021 0.023534391 0.20047389
0.0014406979 0.021333512 0.20196745
0.00026689985 0.019293459 0.20382443
-0.0012243988 0.016947135 0.20578027
-0.0041472204 0.0132244 0.20808974
-0.0042236438 0.0086449301 0.2105235
-0.0040158704 0.0044910917 0.21349584
-0.0035299582 0.00024129309 0.21693845
-0.0046788282 -0.0042745979 0.22092067
-0.0053536417 -0.0078377007 0.22288291
-0.005957949 -0.010987663 0.22516467
-0.0074684615 -0.013846683 0.22681075
0.0046983962 0.024785655 0.19917332
0.0051723206 0.023014002 0.2000231
0.0044685518 0.021099856 0.20128152
0.0041693556 0.019180315 0.20311756
0.0039575468 0.017053196 0.20540661
0.0032037881 0.012703059 0.20800254
0.0016258382 0.0078828903 0.21127051
0.00028464347 0.0042054434 0.21465576
-0.0004243197 0.00062376523 0.21776618
-0.0014119294 -0.0036489512 0.22104304
-0.0028206201 -0.007356327 0.22367343
0.007538747 0.022590254 0.20014144
0.0074079889 0.020937294 0.20116371
0.007261978 0.019013792 0.20286618
0.0069886637 0.016717339 0.20548527
0.0058398605 0.013130984 0.20820154
0.0048057721 0.0096167233 0.20974772
0 0 0 1 0 0 0 1 0 0 0 1 0 0 0 0 0 346 1 0 0
